ply
format ascii 1.0
element vertex 705
property float x
property float y
property float z
property uchar diffuse_red
property uchar diffuse_green
property uchar diffuse_blue
end_header
-3.9173424419780494 0.7977481221293271 -14.595917151265471 19 2 2
-4.126564434864218 2.7685885413099 -13.659783254024209 39 8 5
1.4349114241392842 -3.6373842209005653 -16.06099654892705 35 23 23
1.2967098746409356 -1.2525759889266697 -13.737535831464964 114 34 15
3.3274595842141097 -1.4686586210822212 -14.336839212480413 159 96 42
-4.458925974201921 1.3998002030446564 -12.646756067741096 67 10 3
0.18609529359007074 2.44413666441562 -12.582051886721972 122 49 35
-4.980178506645178 1.2741919067886607 -15.998132122406135 25 13 13
0.723099178424522 -0.8650930778409386 -13.67229423899016 106 27 10
0.2932141801788595 2.544709433662597 -13.78319675932158 143 93 47
3.1287533354030885 -0.5932269885306163 -14.15944940962771 130 45 16
3.2064803455393482 -2.4128518173857563 -14.22550245611775 115 66 55
0.01892108864833692 -0.8025984176644176 -13.604881925577674 113 112 107
1.4932219464090135 -1.2911150938030425 -15.437686464158196 100 52 37
-0.7249765715129761 2.4681698421535057 -12.443834459432939 129 47 26
0.05891377017916791 2.153378251314472 -12.59925140826861 137 55 34
1.5393160170624967 -0.30157873438880206 -13.673913635806654 151 105 78
-0.4733591041342321 -0.7418086456965779 -12.731507620192888 125 53 39
-4.166637433006294 1.224939229861822 -13.598629406585884 68 18 3
-2.1923865701674403 4.7950898000935975 -15.00204627554657 82 28 16
1.6618803518147922 0.23534241423458502 -13.801645042700605 138 58 37
2.2344056052978645 -1.7733296967563084 -13.68920864770638 164 104 60
-0.702339041389672 3.0530842273479246 -15.570924046768688 120 62 45
1.4000892981184496 1.4761534218920702 -15.028641749303889 118 62 43
-1.7437280563491036 3.7481010386047804 -14.886819236500733 92 33 13
3.2441625784894064 -0.5630813404421454 -15.78172457833115 19 10 11
1.4021975822098565 -1.9626214287958141 -13.939098653711254 112 39 22
-1.4040178197290192 -0.77115178995896 -14.732698371984547 108 67 59
0.4265722315868894 -0.13983266776674685 -12.878873698453837 49 41 45
0.021359066674500236 -1.0370360088778416 -13.69992397775908 164 93 79
1.5886248734953174 1.0176424976055352 -13.579485301621059 120 48 28
0.8883283852926301 -1.9890243544744972 -14.687956952898201 71 25 16
1.2647883569031393 -1.071646382122103 -13.788645939683933 120 56 31
4.1336625793839925 0.018034621945312686 -14.982426120207275 106 39 22
2.0733633705726686 0.9921234136529743 -13.794747022035542 113 57 43
-0.5810882690941211 -1.199937050716689 -15.353142125359565 108 65 54
-4.726409753169504 2.402468770372425 -12.626107536926321 128 59 35
-1.8363251268182397 4.0466998928806515 -12.474017713093462 108 35 18
4.270441829065357 -0.8130175160367803 -15.537702298372556 54 14 12
1.581894566686487 -2.2333852773356773 -14.250058090456903 83 19 4
1.4132435989038228 1.1447267857037058 -13.295505864141509 44 10 8
-0.41421191756553133 -1.2353677608848872 -15.814741119727175 136 70 52
3.3871505965382402 -1.8236171896384545 -15.467825180693385 19 18 23
3.071402822263463 -2.8525675987340904 -14.489827887169366 56 9 5
0.20418169977682327 1.3662085679381624 -12.584461378962725 128 43 17
-2.275424498765127 4.621705515334098 -12.046857518602359 125 50 33
2.507336032841846 -1.1218348701429115 -13.726525272228093 112 36 18
-1.8462264776900816 0.0891266662643757 -12.546350866600003 132 46 23
3.8743439531071044 -1.310985222686665 -14.622136809598183 69 32 23
-5.021847083124327 4.42682533059198 -16.98791256832312 203 203 203
3.607220253178044 -0.9837472994576268 -14.281157371606277 78 13 0
3.5151055216200415 -0.8206526230871202 -14.949238383339226 45 12 6
2.393029259245037 1.5743349124759591 -15.670208474075691 80 79 84
-0.7681199478921048 2.1078159315146707 -12.613664357679978 124 39 18
-1.546769984347862 3.0814856951049663 -15.76218651855884 85 50 44
-0.22255651550072714 2.2431455014951602 -12.550167236698025 132 47 26
-0.3102277337310649 -0.47968515125348 -13.76699183136021 59 56 58
1.427050695237397 1.507696780906608 -15.347018943847742 136 102 98
2.404978679089899 -2.211557482023036 -13.092629673424714 119 46 25
3.195489655166146 -0.44287182520318136 -14.683675366926575 100 61 34
-0.5286515256001671 -0.03487935394535312 -12.639597836955087 134 52 30
0.213664122586252 2.5700835433160765 -16.214214759127632 87 87 88
-0.9614505908678397 3.701188720167667 -14.472106858337686 123 47 25
4.219316562083887 0.43451433040021215 -15.054117749852823 118 60 41
-4.38698615099371 1.391753857414245 -14.261780287628403 102 42 22
-2.976001401290551 1.9907395376960142 -12.500818949567108 119 41 21
-0.36355769855605247 1.2762157223945843 -12.565105661039848 124 39 18
-0.949014836149307 3.425522882651422 -15.241219331316087 68 12 4
1.8648935218002325 0.20596706955647887 -13.74731304802288 166 117 82
1.5067926412192747 1.468762800712707 -15.22671434809113 157 124 115
2.973512316966501 -1.399298462465545 -13.72842029744325 113 51 34
1.8924190401415637 0.9068057531534923 -15.336160302355355 9 8 13
-0.3360076087700583 0.4516226443518675 -12.588697475259822 130 48 24
-4.038277650555406 1.6702947372266053 -12.477580920217573 111 44 28
-1.449287553769587 4.7355128107704205 -15.071978596195363 96 49 39
-4.104840539482332 3.2284100219516625 -12.35361516439447 87 52 44
7.608243830347566 -1.72407271063189 -16.636327190944325 209 209 209
-0.9493988931527259 0.24124713639238973 -12.59712136547311 126 45 24
-2.1044462430774526 4.658781520021521 -13.659439841392496 97 62 56
3.8151385777178484 -1.7976106544002615 -14.153958676825198 61 7 1
-0.42881055730862944 2.983123576906184 -12.615474125579874 103 35 20
3.235797439934589 -1.9675762764227598 -13.75457632533157 156 87 49
0.32986251433993036 1.0619800190524522 -12.49539825101487 128 43 22
-0.4291835958331778 2.002827675654915 -12.498538355309428 121 43 21
3.3132731996042724 -1.3453573499476816 -14.399811483900182 77 28 8
2.1676291507103813 -0.24481133818006204 -13.901289766763371 126 44 20
-4.509324270177237 2.4098972759291004 -12.74120701780941 108 51 36
-1.703331430245447 0.48874795965712103 -12.505377150577635 131 50 29
-1.4104089246059641 3.038797111073339 -14.938609664299722 54 7 0
3.5766248776605747 -0.933609041207678 -14.342007579395771 63 18 12
4.539867818620956 -0.9929956645970192 -15.455743153119405 96 50 35
2.2729154471130513 -3.102938331534839 -14.584479713867118 75 17 6
2.0043884528685005 0.2319301384394392 -13.816010707159029 149 96 71
-3.4664289620045428 0.5934128914034165 -12.574823779277784 47 8 0
-0.207782352595799 0.2623164701499447 -12.609841805218332 131 46 21
-1.1942562140921296 -0.7659154321362541 -12.735941464410258 193 184 185
0.5522115070216985 2.3247100620325516 -13.9454367891862 125 88 48
-2.055111693978529 4.4272561094952385 -12.805067430633093 121 44 21
2.7116529936833005 -1.389285589253209 -13.741640959710939 140 59 29
-2.681180593711188 4.2153785679637945 -12.509929658297217 145 74 56
1.8565181893255003 -3.991211054299673 -15.914558987545645 133 57 28
1.1412550424624543 0.9438905812994369 -13.014157801844664 124 79 70
1.3705472006273696 1.2907259436352294 -12.827367643135865 138 72 37
4.326574206925787 -1.4969680695424448 -15.986326280722382 33 33 35
1.5540808934760229 -0.9680085061646725 -13.710838216875404 120 57 37
3.220631728998497 -0.46539676821872666 -14.93289355997837 137 105 84
-0.8344785177223543 3.682599317634564 -12.684138968438562 83 21 8
1.1806289399797496 -3.505125984541685 -14.984481182263135 109 58 45
-0.8721662272691203 -0.8978993905829655 -12.810368947611465 78 6 0
2.051596057306219 -1.2345818178269072 -13.778661864114241 131 54 29
1.9500128711490101 -1.2548623043684026 -13.696658531210037 126 45 21
1.3195607952689143 1.761475858382958 -14.618926208197516 129 65 38
-1.3809411235232578 -0.44255494050607613 -12.61078287386317 108 45 30
4.961290070897654 -0.6095316680191876 -15.33002788427362 100 52 42
-4.708969384480971 2.1383807143103435 -15.736052454856724 7 2 5
-3.8505796557162806 3.537445625805338 -14.304862099150732 97 66 63
-1.3429754096333455 -0.7653735927095254 -15.795581171127584 44 32 33
-4.213221851437561 3.098935112040984 -12.7314811731368 77 36 28
3.0599485375804782 -1.5587232550867598 -13.74404326018009 138 64 45
-1.5669811722578795 4.357742282527939 -13.917086135333376 52 7 0
1.9714490934086772 -3.308548613453165 -15.864198234775408 60 19 17
-4.928500521406554 1.2206382936240148 -15.986171300054615 33 17 15
-0.6530518894689024 3.370795150334666 -13.455513794539767 38 9 6
4.717507005499895 -0.678127193406277 -15.034354219623998 108 56 42
-1.7035491459647252 4.960856088625898 -15.729396118412872 14 5 6
3.941876181494494 -1.7617615364776629 -14.088964950470707 96 53 39
1.4051787183092348 0.562732244024089 -13.589607799489336 109 59 45
1.3053648281180021 -0.24814877391099557 -13.707357881366379 144 84 55
4.18108710885572 -1.1960320425262339 -15.590159554281165 9 3 5
3.4214932127285174 -1.9636024485607322 -13.932123229043679 166 94 46
-4.653291471059052 1.569931251365082 -14.099067819871781 107 77 72
-0.5749701148028981 -1.1468327737600659 -14.474991006369182 130 63 36
3.994466624878041 -1.5807985252769894 -15.590913777655457 12 6 6
-1.097867869386561 -0.9958124827776663 -14.86358540561826 119 54 39
-3.637436264200105 1.472508933509771 -12.43825827543044 121 41 22
-2.0759792225995355 4.571201878112192 -12.605572387728389 121 34 1
-1.1436482950958955 4.552693558333958 -16.15928394444515 70 60 59
4.860639623623591 -0.1346632664272854 -14.197826201381515 110 58 42
1.9626745944311594 -1.4067039554352303 -13.727710779846246 123 46 29
3.2709172433526392 -0.5520379882362363 -15.011968864095987 101 62 32
1.6540252979863173 1.2130479731515156 -13.91698617009029 88 30 18
-0.8058328705768585 3.064997541318343 -12.449584911693218 106 40 28
1.3065651105893594 0.07483078540140937 -13.522057566834661 112 50 37
0.09151957675157354 -1.538882907228181 -14.008358319972132 108 39 21
0.2543631266428724 -1.992105048036723 -15.59988206993996 77 77 79
4.262700936240026 0.203384970569116 -15.631780259553535 83 78 77
-5.256513711786594 1.347035077555438 -16.128525983733702 82 71 67
2.3919231214628294 -2.133025627621183 -13.77413714118568 115 43 28
-0.5217687783315329 3.551523404165599 -12.317324790340908 143 67 49
-3.8244413948789386 0.9026336417110857 -12.81144943561816 92 49 40
0.7976254580818533 2.084994910653431 -13.929104758603042 136 92 60
2.135028823757314 -0.4721102832964852 -13.724786674206081 139 52 25
-4.998430787552084 1.1808548127825798 -16.04062357464601 44 31 31
0.019911667472309696 2.8313765274975493 -12.594175895870396 160 89 46
-2.1863784831051682 0.6023230637189261 -12.467490159924806 131 49 27
1.7191890155038674 -0.9102107798447253 -13.702087975005036 131 66 44
0.19647970014610988 1.3241665117281216 -12.611895282985849 120 39 18
-2.152996604617585 0.4155381708862594 -14.029462484866578 5 1 2
2.306371801919069 -3.011610403110162 -15.442126093907472 14 13 12
-1.6613364727500595 5.1682398754552334 -14.982163743088247 45 18 14
-2.740505126313829 1.27714363275282 -12.346401530129503 127 51 35
1.9281360925299775 1.0879045958723617 -13.893068276232672 110 49 20
-3.708571267275948 1.6129172755792092 -12.40152230026227 117 36 17
2.491695706214121 -1.0456484143181728 -13.715086709901044 174 102 40
-3.4865586165591536 3.849881156803778 -13.96491208848023 66 24 17
0.8729055588460986 -3.423961323845046 -16.07676648784682 84 55 49
0.9538162445054663 -1.4911364062502177 -13.784278572530685 119 41 21
3.636749336462107 -2.6281753802230186 -15.323480330163148 13 11 12
4.828957870978552 -0.4622688542309449 -14.989827918580081 104 53 37
3.894509522684483 -1.9759149090327652 -15.113126546317252 50 44 45
1.3312378215339749 6.39650103526665 -16.72424381957717 204 204 206
2.0556690556269888 -2.460767282767378 -14.513001305687283 118 76 40
0.21229067963736206 0.44546824946955454 -12.683703820096579 130 52 32
0.3013346952384306 1.0733500930395752 -12.614296735714879 133 49 25
2.7538836995209905 -2.5136939494392623 -13.952878586287504 138 59 28
2.6552471677390854 -2.243727373515613 -13.806454527609374 118 60 48
0.913868678576032 0.8979118772643905 -12.895863444546695 127 60 44
0.8639526904071846 1.8605045601637282 -12.692344479800804 138 49 20
2.610602194322695 -1.1439752980118367 -13.732661010278315 176 116 69
1.8373980711421025 1.123558942331754 -14.590244021270058 120 72 56
3.0097068301127017 -1.7485026736246698 -13.770889261013066 108 42 28
1.4325930202478931 1.0515780682202343 -13.464769898575213 111 61 51
2.7902262514120872 -2.3619793685629147 -13.830814220418612 102 42 30
-3.932853500734531 3.346726840713633 -12.523461638992178 189 184 179
-3.880931806937578 0.9772429915913464 -17.244564154161345 81 65 60
3.579314224257653 -1.0796732336637889 -15.36922691921186 92 34 19
2.296979585432736 -2.5846618995898933 -14.198227005090173 47 5 0
2.7497987079179236 -2.425483160652852 -14.016808995827507 196 116 80
0.8288359899227326 1.7927197900535061 -13.958914576464103 64 15 6
-1.2711350507333026 4.017443215690387 -15.014876971248805 47 12 7
2.092808490804681 -1.260906981277737 -13.7225194876652 87 35 21
-3.518651796179096 0.593600052919522 -14.001412074344147 104 53 39
4.056728972512317 -1.5043085101242406 -16.010701519487625 19 16 19
-4.917328017900088 2.312099277695792 -13.404850388843949 215 215 215
3.1223465043915524 -0.6230156102960135 -13.935403876640239 110 24 0
-3.6389221204855384 3.704662154999866 -13.892935198307082 68 35 30
1.368698394202967 1.1469625327105502 -13.103374148829765 48 9 4
0.16584939457841968 2.541068587678313 -12.630805148867859 110 36 25
-0.0072773113916133015 -0.962107395773743 -13.792579718277617 163 93 62
4.445705869474828 -0.7392641264942112 -15.079852030667634 117 73 60
2.3117617476019254 -2.368129402267238 -13.851940290863778 179 122 106
4.6436866464231965 0.20907218189456978 -15.847086178975824 44 40 43
2.8287737015137653 -1.263761276575912 -13.795323205880864 181 112 68
4.601386085638676 -1.133575531898462 -16.13271904847632 96 81 77
-2.7744838827636946 4.713579307092956 -13.00837219425403 81 21 9
4.267658303823941 0.44403061691184803 -15.429662137266986 61 33 28
-4.511734643888582 2.872247328482727 -13.631908119470427 87 64 57
0.8063456627935888 -1.5671781209452442 -14.060114994989037 116 45 27
1.7180735642638871 -0.11834742468850602 -13.716095382130638 133 69 34
-4.704227570311663 2.249866014614891 -16.177000945266528 70 27 18
2.3565883256016122 -1.1423961408011583 -13.845294749237098 154 73 44
-1.6580641333998296 0.3684573170537723 -12.440025061976936 129 49 29
-1.7032759256965653 5.196139589968681 -15.112073985871998 80 57 54
-1.3357944411531069 4.652579526306084 -13.835280454680921 92 30 14
-0.9248302550790871 0.13347413450090628 -12.5522315027836 132 50 26
1.9263731463951046 -3.2563489744667753 -17.472134277858324 72 53 49
3.5263087191065847 -2.6022154698314006 -15.487490948633196 47 47 49
3.213673386351708 -3.2230925734932088 -14.64487656109671 35 36 38
2.885016504092454 -0.2673580764414958 -14.045586864474101 136 57 20
-5.0364592145816625 1.6227263961447524 -14.266251974296171 158 152 153
2.3543649704285934 -1.7525928412549325 -13.68005512857528 114 51 40
-1.7209829314063516 4.333609228897661 -13.878475694562647 117 79 57
-3.0712463784254003 4.690270040801274 -13.694368378319707 68 28 17
3.2093747301952047 -0.6129559832155623 -14.065665846024714 101 25 4
2.611476284555178 -3.5125962488466245 -15.422105214967857 20 9 9
-0.5658852529466397 -0.0797482856823553 -12.59870788978242 135 51 27
-0.756669736042058 0.33638861326598635 -12.550498167816757 128 43 22
1.7296024861942794 -3.488407322492417 -15.28677752418858 106 53 37
-2.967022495308876 4.828503452249753 -13.47591663800188 206 206 208
-4.888529855953818 1.8359257053260134 -14.115446887179454 113 75 71
-0.668798980275836 -0.36940914599550817 -12.66700332517723 112 34 12
2.8840105861540417 -1.43333284886861 -13.751196394270455 114 59 43
-0.7563312689423453 2.705871989348478 -12.421710058568042 132 50 28
1.7955624702881876 -1.3918183977402894 -13.724798068263688 120 42 27
2.2214305510284094 -3.8622306086545355 -14.800135171107776 95 40 27
1.5883310824535273 -1.3451326976299869 -13.704116002039216 171 116 72
3.240701058032724 -0.7400867077352875 -14.257793966456843 59 12 0
1.7927165786102899 0.10580707666459899 -13.668035142114618 165 121 92
0.9025779044597645 1.8416237312474413 -12.702475436349912 110 69 62
2.0408023979230765 0.5665591388510967 -13.897770538361131 120 32 6
-3.9839814162347547 1.417451318220434 -15.037265772989596 18 4 6
-0.15705181624207917 0.6912803994456674 -12.607776865384295 127 45 21
0.5922035644892578 2.0050915109356096 -12.838095853829145 140 54 24
3.2500527489181077 -1.4211278593530545 -13.824172412453402 106 40 24
0.24718840499277644 1.3198122648008905 -12.57154635337398 127 43 19
-2.544151627344596 3.6480840276106297 -12.439355824307015 120 42 20
-2.1818117079637562 4.161747930415553 -12.582680886109218 125 47 27
0.5683489472565093 1.0620789429441788 -12.660313387896176 128 44 20
0.24592095286314425 -0.11264573961260237 -13.195659619759029 46 44 45
1.0578676993218394 -1.9673469425312968 -13.991787655774118 196 195 193
-0.37537367215134065 3.140636733390798 -14.797882440471186 66 43 38
1.001641609639245 -3.2424820316346725 -14.75501264091298 129 92 82
-1.4890290418633922 2.860634114548378 -12.38333089981982 135 56 38
-2.9825968228419613 3.8332079487475053 -12.50804317725761 150 72 49
-0.7511645046597875 0.5052760272877398 -12.512718417105084 129 47 26
-1.191602493779561 3.2503787401686983 -12.484596451821536 129 48 27
0.6214999316235582 0.29868008381657846 -12.853122771421015 133 53 30
-2.049213836644406 4.490327788618236 -15.560322881617294 84 47 39
-2.6400046305891918 4.429132240423451 -12.564574662694843 127 71 66
0.5466235202890521 2.4501254681437645 -13.94824285410746 66 10 3
0.5514112259354753 2.3002514803679497 -13.686659557341097 46 6 3
-1.3255231426208511 4.762720288076773 -15.866276109660296 46 34 34
-1.513048103234746 4.145998621351042 -13.65536948349477 76 15 2
-0.6952334392650354 1.4074612120863021 -12.514713251590429 134 52 31
-1.132183609541744 -0.5260530742275125 -12.594679159780807 101 47 37
5.129070889657856 -0.17475389179886913 -15.255209564279511 45 24 21
-4.258528298660271 3.2184314756259544 -13.785435389056937 119 71 57
-3.9136149666680584 1.3829528611131718 -13.679012631942248 33 8 5
-2.5251789306977557 0.015746751749108643 -13.604168043402092 78 35 28
-0.551557039971468 -1.222718013558298 -14.268976729968921 120 101 96
0.6536821320044277 -0.8884157092576159 -13.756630737842878 106 43 32
2.4984737636378243 -1.3220928290206706 -13.779268558756309 123 56 41
1.715365999925288 1.1568044756021991 -14.329409203552055 76 23 11
3.752178457762102 -0.1595541348548135 -15.54976526736262 106 54 40
3.7402022273844464 -2.596034830089729 -16.906092237192826 48 48 48
1.989527533194521 -1.4499052230887466 -13.699818690555464 159 104 62
0.27893470138371457 2.6155104303583054 -13.896162507245599 126 82 45
-1.5096881143162029 4.093902029372046 -14.680707250975313 79 26 14
0.1256877805536803 -0.5691606248203751 -12.79340536772979 84 17 1
1.556777765801537 -3.9622935963411323 -15.058694938553689 106 84 79
1.6551531217631734 1.272857756353062 -14.490082023499786 125 52 37
1.9549758022264918 -3.834142686442048 -15.094414648275142 107 73 64
-4.2593927232536135 2.4950994076123214 -12.81853447966168 104 41 26
8.508640565792538 -3.054834450025782 -16.576215893046665 209 209 209
-2.043258103035747 -0.18473305970256015 -12.609978231830242 166 93 77
-1.6010657886434934 3.8605586107010437 -13.174318987402211 53 41 42
-2.4765447801371234 4.826334014322487 -12.86250722222759 112 46 29
2.8603754089311475 -1.9536631911881275 -14.39396941359031 176 128 112
-1.9750944620837825 4.702107179312442 -13.729570630266137 77 27 18
1.0890369120799774 3.1035226463846417 -13.133998113106813 212 213 215
0.7582074448852175 -1.0821103608430669 -13.610670234952513 157 75 31
-1.069195070859582 3.3084358418501596 -12.440748635284947 124 51 32
-1.0301663240951893 2.3153577865819295 -12.444104374754493 126 44 22
-4.765471880244478 1.9854374180756427 -16.400086263730987 75 56 52
1.657551377692035 -0.9991051541366288 -13.754348570953205 104 53 40
1.0838611019463515 0.18667645742092662 -13.77028093288377 204 150 129
-3.31072745329784 0.6144958334096502 -13.952129993145745 84 46 35
-3.0769361602765555 1.2315259414366193 -12.432494642331347 113 49 37
1.8605262199855157 -0.9367176375554679 -15.251486743552926 140 53 18
0.17995844468510724 -1.4577930377331112 -15.271073235752924 81 52 38
0.7620845279674694 2.138536655945718 -12.87870349865406 111 78 69
3.4580575143861045 0.3455646728330577 -15.714522541539765 93 49 40
3.1746670726563946 -1.1480773607423258 -13.7913704673608 158 92 76
2.328045066827844 -1.798938539730985 -13.726424919838678 116 52 24
1.3552151549026394 -3.7713384726210077 -15.862151503017405 55 37 37
1.174169322730904 0.917253946003814 -12.856432269666634 95 36 23
-1.715199925738676 3.921426649477044 -12.459566237169623 118 53 35
3.1788879002210932 -1.989598132305888 -13.808801147126957 122 56 29
2.5128626076941347 -0.8687429170579659 -13.74594069503887 130 63 44
-1.114339564141464 3.8186878078912683 -13.380096410248816 60 9 0
1.523577028593043 1.4328532989357794 -14.673227255935176 129 68 55
-0.26987061300039766 3.102179592538226 -13.159973496400854 136 92 68
3.8154310988417524 -1.36468555890741 -14.717360471361584 103 52 15
-0.19340318894884567 -0.9897499464307462 -13.42384391516953 147 138 128
4.10573515228166 -0.43032706598475057 -14.828790811948354 111 57 43
3.2276684614077675 -0.4619628081153105 -15.792813568105764 1 3 2
0.2215037649690238 -0.47567322466544726 -13.068279423016127 13 11 12
-2.1933295479701225 4.687325078268761 -12.779992548119665 69 16 10
5.022265219998585 -0.2882244858730367 -15.841765702463256 29 9 8
-1.3134414199954407 -0.6778868050714146 -12.655796089257365 154 92 62
3.204831497478902 -0.46554126980614796 -16.03198021031959 99 67 58
0.7017582684499252 0.3509563052103922 -12.839002639536545 97 30 15
-0.13323714057765382 0.2720314655086029 -12.636764152786695 128 44 20
2.6706823292229265 -2.7137056674528575 -14.451629037083206 109 76 55
1.731943686373978 0.9022219107500534 -15.571578485995174 14 10 14
-2.9565130815818974 4.367859346212148 -12.661981264862124 93 42 29
0.4347010078916509 -0.7400687421166469 -13.587876379629837 158 94 83
3.597906173777111 -1.6081677798227205 -13.89773837361635 91 52 27
3.79244458581167 -1.3368568053232206 -15.344332999111739 109 64 27
-1.6161467763615223 -0.5082014027696831 -15.785810257760142 96 49 31
2.6825497748196043 -1.9776723895074035 -13.729836576912268 117 50 34
-4.722845170285863 2.265409380704118 -15.314547958850415 43 16 17
2.6311914384763173 -2.8000921346159986 -14.968051898025909 77 40 22
3.7129440408930843 -1.3316420656982193 -14.495884232187743 88 56 44
0.750807247225755 2.4093055030800072 -13.582278905617333 100 69 57
0.616770147432884 2.3454304365787073 -14.149835707272025 117 63 42
-1.560833527479041 4.832729010979547 -15.445241565874946 23 11 11
-2.7759336326091133 4.617575769952928 -12.692142402454673 116 33 15
0.9697892029217435 -0.2665377670345878 -13.61550522019372 129 69 46
-1.9193554154423618 0.40313315854448906 -12.475964011593213 129 44 23
-3.5691959888011398 3.944388270704921 -12.740126366676463 95 52 42
3.2009175253544164 -2.1182438930371617 -13.908377102358198 144 93 66
2.0649321845736335 -1.9473022195705783 -13.835709915586742 126 52 27
-0.0027509923310696125 2.875360132629828 -13.877322789650984 87 42 23
4.327842251519618 -1.0824296468304726 -15.314381467107578 13 6 7
2.068370299536662 0.9006582930850502 -16.03193700720543 19 18 23
-1.1116633820360293 3.262306715200475 -12.442586701885773 118 42 28
-6.843966363162996 -1.5911108405393761 -16.810237329403247 212 212 212
1.7665458694110443 1.038602051801648 -13.872570377315991 133 63 17
-1.5767693895830202 1.2471210287488654 -12.446837448080608 125 54 36
-0.25894932220601347 1.7204672079896535 -12.565709960838591 129 47 25
-0.27987064121760064 -0.6653329228397873 -12.809817466147173 123 46 30
0.20011236564315815 -2.0904594929632903 -16.105394852693042 28 27 22
-3.9324348401204454 1.1213146800118996 -12.445333490077997 210 207 212
3.145486292320824 -2.1468142962052634 -13.89913655437135 97 33 22
1.6256710549884201 1.3030387393293354 -13.564694736161051 185 183 188
-0.777334594354748 1.8982857187974658 -12.428270324880549 127 45 21
3.477105726183274 -1.9731861418509677 -14.275175422049678 123 55 30
-3.5057813118681906 2.864932001586712 -12.452531734583737 124 42 21
2.0425701470911948 -0.22019756325844977 -13.708553029992798 133 53 28
1.88757064053093 -3.4800911561671377 -16.578276725827095 60 32 29
1.107630950025536 -0.3321458352309391 -13.690669149991518 200 158 131
-3.3756054359315497 4.665825002019361 -11.74077221861486 134 58 44
2.936243780197392 -1.6048033313102124 -14.59408220678297 138 67 47
3.5373233527416987 -2.0973196506638994 -15.047805897195218 13 12 17
0.8238626036315669 0.10166620152871467 -13.729770271493669 140 58 22
-0.6932172429510427 3.6718774841711648 -14.009641276468075 114 57 37
-0.1450787169777235 3.0941145603118425 -14.11713081779365 115 63 41
-0.012168246707692561 2.431227582662402 -12.564936890484688 115 34 16
-3.0115521947835586 0.33520308383105013 -14.377694958868352 100 48 32
0.8636120826613063 -2.0004084492284537 -15.735913068640524 124 124 126
2.030486098699592 1.1703398297530756 -15.753523807242344 24 24 24
3.4728697255543777 -1.4752696080950338 -14.006843240613819 191 116 93
-1.8502183910623007 3.914696171610773 -12.378328931985576 127 46 25
-1.7348484872385286 -0.5002556725697369 -14.78154264607297 106 52 39
3.084929270740677 -2.248613990582248 -13.880814305646261 117 61 46
3.859357461893066 -1.2777177188394517 -14.864053918901362 142 103 91
3.641559549621088 -0.8057569409305306 -15.378447998798013 145 95 79
1.9902877558038214 0.8943261600877623 -14.282432557035749 113 60 33
1.4965860584091488 1.562176407980171 -14.457046703479824 49 35 34
3.311059963999689 -1.5331307722065748 -13.76916582001773 162 79 33
0.6794507727789043 -1.8686186691722093 -14.622048321714146 62 21 14
-2.7587676946777355 0.9426577038117928 -12.46445617026427 134 54 31
0.9763572103144427 0.21730789906328013 -13.626838990414052 144 79 44
0.04811662311592546 -0.37418600521226697 -13.17152993691489 19 11 9
0.7318251473926969 -0.1383836809469287 -13.566985620281537 112 46 27
-3.0117563462066674 2.8947395304893364 -12.371801507011908 120 47 32
-1.3800031813477704 4.160257557672275 -12.765398746070678 71 47 45
1.7917810879815317 -0.6427429769296801 -13.719703257548671 122 46 26
-1.2935695042796838 -0.5452996829700067 -13.771538489648252 38 7 3
2.120272535569464 -1.719956801247686 -13.77325876667361 196 139 89
4.129126510107929 -2.9517750018967193 -13.43088935209074 20 21 25
0.025976475308481642 -1.7025753786041713 -15.634727884503215 18 18 20
-4.480248206844917 0.5389146556619705 -16.08341558406985 36 17 17
2.8292968288688187 -0.023179600234328468 -15.015881607386797 149 105 76
-2.9373161435124238 0.35434889004404946 -13.386991069512794 102 67 51
0.8880488667178655 -0.3810463352108013 -13.66245875368539 133 75 53
-1.8970585835198739 3.995968350295579 -12.453686152535896 129 51 29
1.5660186456754628 -3.58974810480975 -15.594451501354474 15 6 7
-2.2909026115379607 0.14689500153314236 -12.484905661379479 116 43 26
-2.9272553660441067 0.26495748983505973 -12.610961162400157 65 9 0
1.967232619585645 -0.6256220232755646 -13.724628576200345 183 127 101
-3.6365049243042633 2.9053173902799445 -12.497194099283522 118 43 24
1.2209181163487148 1.352419634243612 -12.615050844795833 121 46 28
3.6923636778181548 -1.4506203914968903 -13.976699217530047 55 13 1
-1.2321544108941327 4.824645712678963 -14.812977465015841 94 47 37
-0.8673068706869961 -0.9026462108681068 -12.960774167121278 72 11 1
3.6367210747697043 -1.678056808223063 -13.959608728242715 166 108 70
-4.546990864183385 1.244492497897075 -15.360646480935932 53 21 16
-0.21146805865713048 -0.691640136471931 -12.933164646051623 141 78 56
0.4472389076008832 -2.4175148018659427 -15.607690535363917 43 41 44
4.481548685082542 -1.8904998333034237 -16.468531142506233 73 72 70
0.9634217985411258 1.1507870849056459 -12.976891916248043 109 40 25
1.3468626946592146 -0.7617457197002723 -13.649093937779499 125 60 40
-3.5232946649993124 0.7878125487566868 -12.517733763255448 143 70 46
-2.4078715718228554 4.009228405811077 -12.466424493486155 128 47 26
1.9193649613592252 -2.460024264905843 -14.7362081139656 117 73 44
0.311170910587064 2.648445397645079 -12.395476798310531 135 65 33
0.944535829191374 0.6119764506652932 -13.567198277359886 39 21 18
5.072807108781553 -0.05828764129096613 -14.836869812798414 88 71 71
0.8833592094592023 1.8104790546020475 -12.519618404968524 108 42 28
1.0395329154034973 1.959236619142046 -15.24924683335543 117 69 59
3.261612857012361 -0.5168075665889275 -14.746930140804386 80 37 21
0.8031294742603392 1.4570138927180216 -12.70397005551488 140 61 37
-3.5714781961636595 0.9831049434297565 -12.369832300765072 108 35 18
-0.32697562097521765 2.703082397844157 -12.92386736547114 132 52 27
-1.698158218945563 4.3895380880800445 -12.599557637604315 64 13 8
-0.7521064933482965 4.450391409400229 -15.68463736863778 21 13 11
3.0965850750292567 -2.526999576656754 -13.970874055307743 107 35 19
-1.5567378397692155 5.113265909585577 -14.936653585200562 87 69 69
1.379393686510307 0.1599320722681949 -13.626347798186817 123 47 23
-0.2054086379601673 -1.3896144931775176 -13.666086568913133 114 42 25
-3.385335584449919 0.7279675367558346 -13.086518540376966 41 41 39
4.134956995609355 0.5763492378632891 -15.170055491448375 202 196 196
-2.054260852209266 -0.17508572136397482 -12.559593251882514 121 36 20
-0.46688067707984227 2.0614138423735313 -12.464560704045704 123 37 14
-2.2479161164118104 4.40862805547062 -14.490942603184266 85 42 34
-1.4649517039235394 4.221521786263489 -12.66083331622543 60 11 7
1.6279323104226713 0.7527812540284592 -16.98854403886358 54 50 49
-0.574182818730422 0.013036119250070841 -12.642563933884956 129 56 37
-3.5213402782030068 4.753663341454368 -11.948520250811297 110 38 21
0.23176684138686682 -1.206993500251661 -13.764599376080481 157 76 47
-0.6597685994586581 -1.068662457049261 -15.619060117322213 81 45 33
3.6688518913369452 -0.5463917288381662 -15.45411246699086 47 46 52
3.2573844909799186 -3.086659533368422 -16.019002517133263 25 24 30
3.013243405423112 -1.204372609128694 -13.774814577821571 110 39 22
2.1535962508453657 0.6189950842203478 -14.358231906193943 103 61 46
3.8330123331271575 -0.7951140215613215 -15.214512430036512 10 7 12
-4.635921468454113 1.4460527391568552 -14.675337277631177 20 6 4
-0.748636015800901 3.2349853112051155 -12.368628746476201 120 45 24
0.46785593657602464 2.452725533605614 -12.721677040117767 103 23 2
1.3399664810055902 -1.3541208185871658 -13.723695595478477 120 43 25
2.703428088808742 0.08407739959510667 -14.18477019359015 97 51 35
2.60171633051743 -2.215591966970231 -13.902659845023193 111 52 30
-0.0052604059975878935 -2.2240758621050754 -15.602175141518888 16 16 18
0.5530565236801878 1.4008394493677088 -12.671869021437445 119 38 17
3.2255034069955935 -0.8938831037707026 -13.899371297700805 113 41 26
-1.086700667924909 1.066420199884368 -12.45826540920677 131 50 29
0.8476035786559242 -1.9442554670093743 -14.815850210624218 103 68 51
0.607596392667623 -1.8202229431084451 -15.01437177123621 52 10 4
3.983309656214812 -2.2871540743185133 -16.05225347502706 16 16 18
1.9513975285496774 -1.1847160987568792 -13.740778645198633 114 46 25
0.9158486387730005 -2.5397720453568606 -15.689698936434024 26 25 29
1.5657741021965836 1.30349815903363 -13.95258271584195 147 98 60
-3.2563048350899213 3.3106324465432104 -12.195945260309195 109 33 17
1.5011340658885326 -3.9201229340325066 -16.205909288703886 47 19 15
-1.1838393375305916 3.857574259742904 -14.517216708118237 102 22 12
4.696329160014581 0.01547743457079582 -16.21791827447088 29 14 11
1.638801969406981 -0.19582879916163398 -13.70261433712955 155 106 75
-3.263447961415193 3.8628842790552507 -12.884984504235327 111 59 44
-5.012050704384979 1.3809747864539776 -16.35570501590009 81 65 65
0.5425069225465884 -0.7181498190936599 -13.671835037608679 136 64 47
5.1297698928092546 -0.15551101204877354 -15.463174920825383 101 95 92
-0.929264126555103 -0.6288463415054548 -12.53664899508858 196 187 185
4.853224147024199 -1.082018199546384 -16.030227347737004 93 74 70
-0.6534370743511201 0.8558094713908513 -12.577372407078936 129 47 26
-2.8095043410665235 0.9945148834378815 -12.400770780868433 120 42 22
-0.4475617877100699 -0.4582541602797423 -12.714931496510836 122 53 37
-3.8580317877816954 1.1897490926502414 -12.489883202492186 122 52 40
-4.583302438038694 1.1720094677046282 -15.764203156063594 18 8 7
-0.8785297494997488 4.519354430997404 -15.06330443591013 106 75 70
-1.2955136791879434 3.2877432248182576 -12.435286528286 115 38 22
3.1010634455468895 -2.4752945883420927 -13.819673399275386 139 58 23
-1.543175688586868 2.7902702719233585 -12.260543376004932 123 49 30
-3.156382151645489 1.588458347671058 -12.443822793307309 120 38 17
-4.6992914469075995 1.8610140509063893 -13.404412944566216 90 57 50
-2.8726888366988597 0.4688280918413586 -12.468660768692683 106 37 20
-0.4521691208738801 -1.7373531972748244 -15.604525958071614 12 10 11
2.515090925539992 -1.8819637403591913 -13.74300916810291 191 136 89
2.936988369173758 -1.8408295630560674 -13.933324515240358 134 64 43
3.4981049549650813 -1.8284677494410786 -13.883020608954077 174 102 59
2.6847587724344146 -2.961318409878224 -15.51043986911667 84 33 16
2.6976639551202592 -2.0542531968788946 -13.760532896682607 177 101 60
1.8179662693465557 -1.3233009513605372 -13.534139990785023 167 97 53
-1.2604073888546126 3.9406779507230665 -12.509804586243291 123 42 21
1.437243468826282 -1.2718600191790708 -13.674692134413887 174 111 72
2.3159093155494155 -1.5371564809580462 -13.816878537044321 117 52 39
2.3661535949084116 0.4562615046540702 -14.418219373983924 110 67 55
-0.7442820126832361 0.09235507765325907 -12.586202751613788 126 46 23
-3.0217170844070047 0.9040990804206535 -14.71048645438619 103 60 43
-2.2908396207639017 4.652591535542002 -14.617123033776142 61 16 8
1.4035078170948099 -1.06510326172393 -13.770101733238041 192 146 103
3.7341428008519317 -2.0888951608430752 -14.110355366781414 187 176 166
-0.709381813118541 -1.3366432412629063 -15.691925694738465 35 33 34
2.919903415353742 -2.455848566807797 -13.792969899129325 170 99 61
0.44718843689891147 0.4435323050685019 -12.657781552441627 127 43 22
-0.46382520219065104 3.1894809209753054 -15.829845627086414 11 1 1
-4.114142858775694 3.3412601293541995 -12.710148072501882 83 68 65
-1.3421990530132524 3.1986789977385843 -15.47124363892812 80 29 20
2.859718584802648 -2.235555473799979 -14.092885770296025 182 122 80
-3.1823918716867396 0.3554678862702191 -14.158531552601113 107 33 19
1.1836413477560135 1.8745125906729871 -14.533937755412294 123 71 52
2.151737500417814 -0.5408490355214498 -13.71504493594945 106 40 26
1.450725044294439 -2.190870142915315 -14.59711518075715 103 60 43
-3.015404193354999 0.7078147980637487 -15.257417514444194 100 58 51
1.44965685862873 -1.33400377854439 -13.756093135047209 162 99 84
1.895504396301522 -1.0920241573534084 -13.764148137000445 116 58 42
4.8892041267142305 -1.0369210319872182 -16.02763532256573 92 76 73
2.656520953748509 0.1674575220454297 -14.404173900276659 123 68 20
3.3893219644254335 -2.8842035593467377 -15.455826394196066 31 30 33
1.3644676833878058 1.9418431661102031 -15.055681818701386 135 82 66
2.4865876288563866 -0.6257922342237571 -13.737354246158526 138 63 44
-2.1786019904558787 4.802666175267583 -13.179347235999753 131 113 113
3.4278352443072415 -1.9388197734413375 -13.86951701396658 154 94 51
1.533565452765564 1.4424197899709381 -15.13640601358406 112 49 20
-1.6845490895502588 4.885422899197187 -16.18606039691494 11 6 3
-2.1818179753307216 3.775687062834476 -12.431373454019736 127 50 32
-4.643595817530744 2.575939862657239 -12.595828034810665 94 36 19
-1.4690489342826605 4.2117631233553805 -13.545944690549929 130 88 53
1.520170941137888 -3.8197861591870708 -15.015857769281993 109 58 44
1.0444533613520548 -1.9496565020745076 -14.143271627759349 119 48 23
0.9521386554770195 0.08579132624527126 -13.758336998313574 203 160 136
0.48220102653389385 -1.866182629530685 -15.755165709540078 26 17 14
1.7929459808764845 -2.924476016246151 -15.706005898475775 22 8 7
-0.12244761152600676 3.2463334049321118 -14.690356788644005 107 49 35
1.4814988227025743 -1.2728727333825884 -13.706830221643939 169 108 60
3.7948365300229923 -1.34660802834749 -14.208571259449474 60 20 7
1.7711534868206915 -1.3212791434214788 -13.727793734234197 181 132 93
0.17440670292472388 2.660771478407717 -13.990852003837809 80 40 28
4.983109297186371 -0.3077526740857462 -15.73683678923204 140 107 106
1.1410300664874817 1.5664553603008746 -12.686469503569771 140 93 78
-1.5874587455503377 -0.19252727930554608 -13.48945150788403 44 45 49
3.07968656523429 -3.1151328082484784 -15.921351433772477 19 20 24
1.816367196685658 -0.768181830566865 -13.635997808715867 105 48 34
-1.8860557222436978 4.804634733358625 -15.261414964036591 85 48 40
0.3771439919192187 2.596871318980689 -14.385236693459529 137 94 87
-1.9596355046421103 4.455752400625785 -14.637656459079121 37 7 4
2.151973284664297 0.8996051665380773 -15.520800894227229 14 14 16
3.210959784388823 -1.6587538593759212 -13.909839879435555 119 62 51
0.09813187647988204 1.3575597454607233 -12.584108077480042 129 45 21
0.22359533610891427 0.1856163797321364 -14.357437284120364 19 12 11
-2.0809661486231255 0.9032059544861344 -11.774159057784168 201 202 201
2.6299349014341478 -2.7419870090740046 -14.150615639900142 29 0 0
0.1547383864640515 2.626923253397312 -16.21811216232596 91 93 92
-1.648709902380593 3.78110092288013 -12.438434643433837 130 55 36
-1.429383225937909 -0.407295541775334 -16.448196163666534 71 69 70
-3.156013817037445 0.4270821427940704 -13.833873317173065 158 120 94
-0.45523091904161833 3.0761256495469245 -12.511074482105352 107 59 49
4.895719889718768 -0.9423588640475457 -15.377316921061192 77 25 14
2.5112565919538405 0.2246439995467764 -14.330742177357081 79 27 11
2.556798429786384 0.29222675890267286 -15.020109375638466 152 109 78
-1.527739278676785 4.307987744214028 -15.053828805893588 80 30 19
-1.7922408460328352 5.018471831357975 -14.748381629141637 84 51 46
-4.316258584393534 1.2945788546029573 -13.742706571471139 58 15 3
0.15900850112345974 -0.7813408091383185 -13.65171436758363 114 64 27
4.467288442934968 -2.01024264826848 -15.953439946643595 42 41 47
-4.905848035773142 2.085726982175587 -13.808129104531325 45 16 13
-1.2182093405670458 -0.3755792649035236 -12.497721484411509 103 56 48
-0.05786080343378718 -0.48644366795886995 -12.280831438869946 134 54 29
1.0036554052354603 -1.8058716897853964 -14.87498896622316 76 37 21
4.827935780488328 0.05795375995736511 -15.969653174143666 44 23 22
3.27611505364469 -0.5360888425576918 -14.692235964860798 121 83 41
2.135955262750456 -1.6046876582686596 -13.649264827522384 125 53 32
-2.3874020078723195 3.9449414834881273 -13.266802457220846 157 72 58
-3.693656786198072 3.8621185039369834 -14.169962740409876 95 64 59
1.7738238172818384 -2.3116824939553036 -14.031508371299749 104 37 21
2.7453038702769907 -2.024314858092795 -16.568228217132802 73 24 9
-3.8368513969445055 3.249810289123403 -12.230028921053492 117 39 19
0.5899398268567663 0.21788270438573457 -12.992932770651956 120 62 51
-2.8950328486336003 0.3104065163972689 -13.008921414914047 127 99 93
-0.45980612518810676 3.3371688219291773 -14.678181277735087 96 52 45
2.89959157493212 0.22098933757533268 -15.319586119944097 46 42 43
-3.588415680079831 0.952524278690739 -12.500346298261164 122 47 33
2.3314992367572698 -1.9127411786960284 -13.767682856685147 167 96 57
-2.785620491195019 3.9916841517088897 -12.446554759494825 133 52 33
-1.2785615841419034 4.7929932864451645 -16.51642139455346 54 33 30
1.3971741715110395 -3.82833913934619 -15.102720829032238 109 92 85
2.4933012149253186 -0.9245765878873979 -13.95823224181577 126 45 18
2.5552788060697327 0.03011165824102157 -13.942508660436138 97 15 0
0.02368742429638527 2.7506685027866498 -15.392645415626642 108 55 42
1.2015717814635283 -2.107518965690019 -14.851267514505905 109 60 36
2.507336032841846 -1.1218348701429115 -13.726525272228093 112 36 18
2.641835438276105 -0.9487907635525514 -13.743743460994228 113 41 22
-2.2511956635376187 -0.13173602649295446 -13.71199735772949 126 91 60
5.079057160574031 -0.1797540445220454 -14.995118077630378 105 42 27
4.718282567944878 -1.725138294459477 -15.595095505453902 66 65 71
3.024253277000316 -0.07839182542397047 -13.959551078481285 73 17 4
-1.8224518247450503 -0.29648417056156845 -15.848698113662136 92 57 48
-3.9390243134919696 2.99174517682856 -15.695784433179224 67 55 55
-3.994886861537076 1.7431724145556153 -15.004349246975634 64 16 8
1.5343625811536883 -4.250106362978529 -16.200230358785582 134 58 26
-0.8301407443331297 -0.29280219446689415 -12.584121353583454 139 55 29
0.6259862022485947 -1.4882292988018255 -13.997769519057698 145 92 58
4.384887747441955 -1.5261572309256113 -16.017748433573527 41 42 47
3.4875459979376875 -2.748178766337221 -15.43987054509679 9 9 11
2.2675423180608414 -4.4244338574802855 -15.715578080938082 98 64 54
3.935517008673514 -1.6074290654245815 -15.214715889087561 96 70 63
-0.0793684783950204 2.9230342242316567 -12.58685236359473 151 80 26
1.4273093255692675 1.4170323837370753 -13.670557586032986 88 44 33
0.49482314080610185 -1.9213091143536518 -15.753988578282756 34 35 39
0.031837278038062196 4.391605609775791 -15.206386476826424 68 63 62
4.446394341488603 -1.244249198766276 -15.932788485571544 109 109 109
-0.7916452432105713 3.3835416232232123 -14.680384490676461 109 56 41
-0.40014113092645537 -1.488616991030245 -16.409760853063684 87 88 91
-4.804102416429676 1.254937593068907 -15.838376530420158 18 8 7
1.9276053611600632 -3.9685830862233855 -14.825119389005627 104 48 31
1.069487781306529 -3.2561592008268225 -16.10701110626386 24 13 11
0.763941958460544 -1.0926303556136803 -13.751526101147888 137 65 29
-0.059222909943780225 1.4479269725769215 -12.598824284870544 127 43 19
2.3505537733607986 -2.646097902918856 -14.443913503223609 122 83 62
3.9197744439562894 -2.5381752785904914 -15.98747471038368 36 37 39
-1.3237956681490568 4.300788455822132 -14.977994245517728 80 33 25
-1.3050653429601664 0.6997968031500948 -12.474440677436462 126 44 20
-1.1337160390803709 0.5014291988379088 -12.52772157313566 127 46 25
-3.065052297318215 4.192721300395672 -12.511169454360378 122 47 28
4.436239574351267 -1.2474420045860497 -15.940604864632084 110 105 104
-3.8952939777476057 3.7262542023921696 -13.750849317322105 112 71 52
-3.17034261407999 3.76588478025676 -12.534765391902697 141 72 55
-4.928366005556139 2.0446026653794873 -15.411355428983692 65 35 27
-1.9790865829331636 0.11544330797595148 -16.284357164952272 86 38 26
2.2903427840036974 -1.706057818854101 -13.757907413839431 179 119 69
2.4376845888008845 -0.7812096102783325 -13.698506610278667 116 57 46
4.087549602679209 -1.1480958298032033 -15.46383949640565 106 58 27
2.8375725792937194 -2.4052967335566877 -13.867249111281255 165 79 44
4.00612511120579 -1.9000911862816248 -15.392791189365846 59 57 60
-3.5038907565070967 4.137089531223277 -13.604775996471005 68 45 39
-2.366912676003433 0.14371582838111074 -12.531871194864959 119 42 26
-2.976924943192254 0.25450644674809114 -13.971295003723057 83 33 21
-0.9093394619348986 -0.9160925663473339 -15.239794202846245 120 86 78
3.9005071999672163 -2.8032458995280733 -15.946843859716406 57 58 63
4.706664402092303 -0.5210134809353777 -14.964872583966958 112 70 56
-0.5784805944584412 2.1267859481998457 -12.499880946587062 126 41 20
0.4648361038285117 -1.7008750498137928 -14.2907577846834 111 65 41
2.953185714280944 -0.24132949935927137 -14.773713097170127 150 100 62
-0.43427081957668623 2.7557812340368093 -13.276468144738388 117 65 57
0.4741951597159205 -0.3901756020957759 -13.622264898877837 147 80 39
0.93139947551765 -0.9835306064738161 -13.68451487282255 159 102 58
-0.44781533983813854 3.328890130532051 -14.533609840589246 61 45 43
0.8340808128641203 0.5204819792029654 -12.885719304906457 87 14 2
-0.9029195050925234 1.4722778071534968 -12.507222816076238 121 44 28
-4.376636159869989 2.912700233814334 -12.843744409520847 114 101 98
-0.4630916832291084 -0.2982678440393365 -12.704676758840389 121 52 36
2.7517039149843647 -2.4098344516586545 -14.801383329003206 91 48 43
-3.832502107563521 0.9823844044939758 -12.52008255183003 142 74 54
3.8396943688934586 -1.7848965932312622 -15.341960588668211 12 12 13
1.2630484219688725 -1.0244350416739525 -13.714990332075796 113 52 34
3.258432050984884 -2.664265805571913 -15.475030317175733 49 49 51
2.1256535697217536 -2.609250930069256 -14.758748679640005 88 48 30
3.6693764937441222 -2.491084510726603 -15.46733713584002 39 40 42
4.200975253031257 0.43865609813264517 -14.95469044792197 118 81 73
1.7426300545177513 0.593230401874424 -13.599723743434712 122 42 19
3.014311540325056 -2.7013822829593583 -14.7228357854965 95 56 44
3.550413371814341 -2.0056279176096954 -15.097452684730275 32 32 34
2.601746640113061 0.032030645237766636 -14.071830054896806 141 62 13
2.4200037709234112 -0.3144106028454515 -13.782604185260999 159 98 83
1.5897325702004768 -2.3860304828427688 -14.837817608852228 30 6 1
-3.928082923724024 1.6894575464189383 -13.481010150097646 44 38 38
-0.7351192021282107 4.615198271648577 -16.419662652416754 72 46 41
2.226244224513339 -0.8065100319438133 -13.795658541081822 155 72 26
-5.082960289102563 1.155707384330206 -16.18157516613067 37 29 27
-2.866907177361088 4.757277077516271 -14.566801222943788 104 71 64
-0.9807125289449865 3.8717992487555883 -12.531526949089873 209 207 208
-0.7377691009810046 0.022534560270642552 -12.58403036438052 129 44 23
-4.7313790409805545 1.5062871632782013 -13.87556058355284 93 44 30
0.8174846211574125 1.273754495128414 -12.71405867031748 110 42 29
-0.1467732280630146 -1.392467211118179 -14.349848989750587 101 55 40
1.8610279404240344 -4.218623192231263 -15.531736049888073 47 13 7
2.7341483273245184 -2.75940795020608 -15.05885152832457 81 44 27
-1.765761623499538 3.300423582293835 -12.385097431779053 120 42 20
-2.455565203169812 -0.06598401523026529 -12.625015178560407 50 6 2
3.8891879943620347 0.4182932354897263 -15.226857540430892 209 210 209
2.421108612797215 0.45230747488050627 -15.062504832157321 59 8 3
1.2025664411598234 0.602727177063158 -13.683878053473698 5 0 1
-3.2566721988805956 4.320842437369717 -12.652748464561215 211 210 212
-1.3016823807765006 0.30468481625621746 -12.441534770645914 131 49 27
-5.219669683251941 1.3197401784507279 -15.820443445835965 78 57 56
0.21512361142429157 -2.8754545554061672 -14.373052452049162 66 19 11
-1.4848423249002973 4.795902472082418 -15.447437583157347 33 23 22
3.021397272845838 -1.789227571197573 -14.72751492399672 139 75 60
3.498894751460528 -2.5150912800150595 -16.085931553349557 9 8 14
-3.6998278125495423 1.23065981653488 -12.504008332728286 118 41 23
1.8086782875177079 -0.3868855372847635 -13.711536354935609 208 158 115
-0.8871478325728024 4.570710915101283 -15.159027114171911 47 24 22
-3.0455199360577407 0.8535667776846304 -12.465898312429992 125 48 30
1.9676314630450942 -1.8663809714740924 -13.791364583302792 121 45 22
1.5257810022708636 -2.722028795114348 -15.397612662801484 73 31 18
3.341945875753131 -3.554734486654363 -15.669583558298239 117 115 118
-0.6664727050178043 2.0145536556954373 -12.474303979874318 122 46 30
3.5358355100358945 -2.5763292816569883 -15.358557382666621 63 65 65
2.4881758935141525 -1.0474727161534692 -13.718545628729848 174 102 40
2.994500765316366 -3.0437384955350417 -15.698248752316452 11 9 12
3.787101241300922 -1.9805379499473 -13.97298477286451 111 90 81
1.2128699045984541 1.4449395753964556 -12.720786226498474 110 54 41
1.8534054148330676 -3.6568423828734002 -14.772753995823127 109 59 48
2.466699552838113 -0.8508550443035106 -13.729502897076687 176 112 73
