ply
format ascii 1.0
element vertex 699
property float x
property float y
property float z
property uchar diffuse_red
property uchar diffuse_green
property uchar diffuse_blue
end_header
2.4468671856674495 -2.4048576537976727 -13.934695535710766 110 52 42
2.4479315414267324 -2.404886274940672 -13.97700372071153 111 51 41
2.387414243409779 -2.373215335978187 -13.972087804930947 109 50 39
2.3562728151275687 -2.356666572012058 -13.98963867265467 110 50 39
2.309713124340372 -2.3321829186526015 -13.99522517283909 110 50 39
2.2795843985061293 -2.316156867878452 -14.013439331558594 109 49 39
2.1836513232608556 -2.266267130255759 -13.980429419613841 110 49 38
2.1381002948609042 -2.2423078113698454 -13.986380387956888 109 49 38
2.0954375676571546 -2.219836094258584 -13.994479954795588 109 48 37
2.054428850422318 -2.198216648466689 -14.003779278615937 108 48 37
1.9987379076203453 -2.1690443088161224 -14.00142970613577 109 48 37
1.9374587377780088 -2.1369989889850287 -13.994507415809743 109 48 37
1.8316613415405678 -2.082053931708637 -13.952142791348209 110 49 37
1.7787663261569628 -2.0543275512063293 -13.951398947793447 110 48 37
1.7552045882265706 -2.04169159466103 -13.973874408018021 110 48 37
1.653974683610028 -1.9891068525589533 -13.934279733399954 110 48 37
1.031644565086097 -1.663988771644826 -13.838158878736298 112 50 37
-0.7467822353838249 -0.7456527795333088 -12.70442498758656 104 49 36
-0.7605708230133965 -0.7381040692897956 -12.729884107009969 105 49 37
-0.7941791553765771 -0.7203734200490515 -12.738513949582636 105 48 37
-0.8489623599313756 -0.6917665988014217 -12.729009426733604 105 48 36
-0.9382800905453887 -0.6454234480620007 -12.689782274729488 104 47 35
-1.0134316923163835 -0.6063607215513249 -12.662352042105613 105 48 36
-1.1059247694228862 -0.5583952558672802 -12.619713780096625 103 46 35
-1.17241412487697 -0.5237887846153777 -12.599141393008876 101 44 34
-1.2186280029592922 -0.4995972650666416 -12.595873906397186 101 44 34
-1.2606167435783604 -0.4775770860325741 -12.596132279007012 102 45 36
-1.2933370368870287 -0.46031737364460135 -12.604339388226597 101 47 37
-1.3181103714535247 -0.44713875555179117 -12.619412124061636 101 47 37
-1.3769160890557979 -0.4164885598619761 -12.604646254774437 101 47 37
-1.4136421634838756 -0.39717580394946994 -12.609065677483057 102 47 37
-1.4514781830387333 -0.3772944768701514 -12.612411768409762 103 45 36
-1.4731334169464754 -0.36571995700291104 -12.629952702070751 103 45 36
-1.544330061578174 -0.32871785644857043 -12.603574816682492 103 45 37
-1.580615628733776 -0.30963666042883675 -12.607948027074498 103 45 37
-1.6710313122897738 -0.26277716310062393 -12.56397696843389 103 45 37
-1.7104264911837967 -0.2421043731681971 -12.565238492427937 104 44 36
-1.752661541236514 -0.21997575733449137 -12.563841507934857 103 44 36
-1.774010633633936 -0.20856532065653077 -12.581098233704804 102 45 35
-1.8306814853725752 -0.17903268567462138 -12.566481292694577 103 45 35
-2.102914889592925 -0.035749891893382735 -12.609329796123092 103 47 33
-2.251231348217397 0.041210772577178645 -12.544638411512192 103 47 34
-2.421457120157976 0.13074295748882836 -12.566508206885246 105 46 35
-2.758713070685542 0.30717938128922784 -12.534151745622887 104 44 32
-2.9593928863525907 0.41222047729028155 -12.519282969266296 108 48 36
-3.0025324740827903 0.43476185830339453 -12.512969208349958 109 48 35
-3.0439874575240333 0.4564387978319222 -12.508164604633254 110 47 35
-3.1017160762199882 0.4864460690147192 -12.487154608905065 116 50 35
-3.1562743614534927 0.5148273175443303 -12.469049417102859 120 53 35
-3.493916291615461 0.6916592075862882 -12.452120830849255 137 60 32
-3.5139205553467177 0.7023407166721307 -12.46747884986204 138 64 35
-3.5290876820194352 0.7105474837349914 -12.487761287126734 146 77 50
-3.538145333263185 0.7156292151117314 -12.514315468782929 150 88 62
-3.5564039314737643 0.7254176716461584 -12.531454851743598 151 94 67
-3.567325310532782 0.7314533900326992 -12.556150007201827 152 94 68
-3.6127279883568484 0.7551236831241563 -12.545221920674038 153 97 72
-3.6423808041023413 0.7707377394182635 -12.550455480135406 143 95 71
-3.6704683711662778 0.7855504429090296 -12.55723848067056 131 90 71
-3.6944961609536495 0.7982865169245927 -12.56818689124373 117 82 70
-3.708921468385186 0.8061126495273565 -12.589135828388887 113 80 76
-3.7582716183276097 0.8317933304739185 -12.573454705726247 112 82 78
-3.785029338290112 0.8459226011026979 -12.58134657105137 113 83 79
-3.793319416409644 0.8515172952589094 -12.681049665338579 127 99 92
-4.943793148214356 1.4844164653247138 -15.049783049449163 65 20 12
-5.033127385847595 1.5302379183846968 -14.968177746615563 64 20 11
-5.0205677923097785 1.5244168628858232 -15.02927447575788 63 20 12
-5.048203344944204 1.5389658413783214 -15.033923229767076 62 19 11
-5.076191036779205 1.5536921472810405 -15.037987232527842 62 18 11
-5.095707466017689 1.5641257970965592 -15.053979580110642 62 18 12
-5.110990504521446 1.5779807768746457 -15.520728864034009 63 25 16
-5.150819702354105 1.5986996172959422 -15.507485226932644 66 31 22
-5.170973238597604 1.6094619531300984 -15.52304741857484 67 34 26
-5.205232183051625 1.627359258749237 -15.517734195428364 68 36 28
-5.214331859435027 1.6325291862866322 -15.549574936993306 68 37 29
-5.231070041849208 1.6415631471385357 -15.570129462202202 70 38 31
-5.244769117455473 1.6490603311737613 -15.595221794459118 70 40 33
-5.251294909111561 1.6529308590167795 -15.631075864684812 71 41 34
-5.26067190671198 1.6582440947982988 -15.662748315396003 71 42 37
-5.260276898130763 1.6586182382453578 -15.709194808811926 73 44 39
-5.259879222012103 1.6589930131443413 -15.755803525201774 76 48 43
-5.2592559625760495 1.6592557656404923 -15.802912690888196 91 63 59
-5.266338329315068 1.6634146287624034 -15.838486544709951 76 52 46
-5.273621225914821 1.6676759889686776 -15.873848532091301 78 55 50
-5.122211016989451 1.591759849286202 -16.151627479733136 80 60 56
-4.808527995160101 1.4375959815119441 -16.976008070991423 83 71 65
-4.896623708145361 1.4833144116945105 -16.93806330161709 95 87 83
-4.938575220168814 1.5051112032919791 -16.922031615139257 103 95 93
-4.957377687386161 1.5152240037093758 -16.94230043680788 111 104 102
-4.970423110579643 1.5224320364693282 -16.971675201314333 117 112 110
-4.987666753834791 1.5317586737151658 -16.994438011882053 126 124 120
-5.215191602362172 1.649639981448276 -16.880799870856784 166 165 166
3.266629796980218 -2.7932712348654922 -13.99362627021582 213 213 215
3.244445630458551 -2.781317126016691 -14.019286040101084 213 212 214
3.1920242252406315 -2.753852755412954 -14.022621160330848 206 206 207
3.1217624846863625 -2.7172395293857536 -14.0126099324736 196 191 188
3.060192346515781 -2.6850870737131096 -14.00884082737631 158 134 115
2.98807689666231 -2.647528757887372 -13.99703855515089 153 103 77
2.932522157756262 -2.6184663199631135 -13.997388510091115 153 98 69
2.811298507436441 -2.5557310368918964 -13.948363399043851 123 71 53
2.740423554713951 -2.518819040414966 -13.936745249256195 110 57 48
2.6726893911568945 -2.4835204635786705 -13.927274491044802 108 55 46
2.6199106119504965 -2.4558924285338826 -13.928908251478905 110 52 44
2.5583149593975962 -2.4237461289270996 -13.923712623579348 110 52 41
2.5646445185189606 -2.426423674208519 -13.97002423758779 110 52 41
2.4362886900109926 -2.3600581742742435 -13.913666789588046 111 51 41
2.3920510222255285 -2.3368166476060823 -13.921217034068667 112 51 41
2.4145339808955546 -2.3477740975819867 -13.979895266421424 110 50 39
2.3469936869588297 -2.3125902972512637 -13.96944620432118 110 50 39
2.309482815660859 -2.2927990289460434 -13.981982521137141 109 49 38
2.250442209145917 -2.261975761410988 -13.977765143952258 109 48 37
2.2340134635804256 -2.2529901182135963 -14.006488533299873 110 48 37
1.2306617737107626 -1.7301130008228764 -13.865935497118706 110 46 36
-0.7232140104074087 -0.7234126295352581 -12.749260245997625 105 49 36
-0.8275637629251689 -0.669535580549762 -12.697863712555158 105 49 36
-0.8980335936632624 -0.6329905069679225 -12.674905382234616 105 49 36
-0.9905897148159486 -0.5851548817335614 -12.632812223377094 104 48 35
-1.0560815804893604 -0.5511630820309508 -12.61354272836698 103 47 34
-1.12217003881746 -0.5168694945343897 -12.593522909553823 102 45 33
-1.1898894154005903 -0.4817453850230571 -12.571855571722207 105 48 37
-1.2240342955150467 -0.463788810736526 -12.578969428479677 104 47 36
-1.2624107931740527 -0.44367017708664225 -12.58233294255446 100 43 32
-1.3002879549438697 -0.42380818146552457 -12.586028364589538 103 48 38
-1.3290684696929507 -0.40859703318076246 -12.59755910730119 106 51 41
-1.3519986248933176 -0.39637665158035906 -12.614154582238418 103 49 39
-1.3860282532003039 -0.3784842173622316 -12.620986215204798 101 45 36
-1.4207785215090327 -0.36022463850261177 -12.627102230255545 103 44 35
-1.4551446632743321 -0.342162508166052 -12.633471866362427 103 44 35
-1.5282378072701146 -0.30431421522207724 -12.605474010258611 103 44 35
-1.5948397981743323 -0.2697862070963555 -12.582953894519939 102 43 35
-1.6551051921010593 -0.23849884632119345 -12.565823562757098 102 43 35
-1.7080328175380162 -0.21096290187128863 -12.555025867035557 102 44 35
-1.7389457855473722 -0.1946745614326839 -12.563763888025537 102 44 35
-1.7741758695739218 -0.17618212054538374 -12.568555632979596 103 45 34
-1.8196296915276466 -0.15246936778920883 -12.564045009201323 103 45 34
-2.4671939243482317 0.1864971787328007 -12.5831383857981 103 45 33
-2.737783878426094 0.3274604693614722 -12.541621480030482 102 44 32
-2.770050580875388 0.34440490597193163 -12.546557989382503 102 44 32
-2.7951137255740575 0.357675832897419 -12.558391001166243 104 46 34
-2.8364198488196193 0.37922614622161044 -12.554392103470335 104 46 34
-2.8980987443112918 0.4111589957288446 -12.530397575277066 104 46 34
-2.9433256907063683 0.43470314767724094 -12.522234220437895 106 48 36
-3.041882126253636 0.4859139577302165 -12.497459229776293 103 45 33
-3.076174354479508 0.5038792637611111 -12.499574137750209 107 46 34
-3.1135019333871385 0.5233897973345396 -12.498587555929404 107 47 34
-3.1552624709918007 0.545157255811616 -12.49308657360845 108 48 34
-3.3051367529504354 0.6229745362331134 -12.451114222391205 116 50 36
-3.3308720299863452 0.6365710355225227 -12.46104653957552 118 50 37
-3.3565688550551807 0.6501472352639754 -12.470965146835237 119 51 35
-3.4163380491012854 0.6810739792172189 -12.446440652793068 119 50 34
-3.4441804350949514 0.695739913285959 -12.453982490816578 119 48 33
-3.472762212499883 0.7107814227144666 -12.460707974038634 119 47 31
-3.5081019196033205 0.7292626131642213 -12.460482462586857 121 49 30
-3.527975872923772 0.7398688881214275 -12.475938684680823 125 52 33
-3.5818240676818682 0.7677693439962241 -12.456583264555544 126 51 32
-3.5973210752293348 0.7761458199260536 -12.47639504637145 129 53 29
-3.6173604175722236 0.7868342685932852 -12.491534361681019 140 60 31
-3.644410847157439 0.8010905402161381 -12.499410259490901 146 68 34
-3.666737811609052 0.8129422617812099 -12.51211678071102 153 84 46
-3.6831697793407456 0.8217938877004263 -12.530913478098363 156 96 58
-3.683323569249872 0.8223631775044744 -12.566673069964683 141 89 61
-3.714052447918388 0.8384891745043701 -12.570579047173016 128 80 62
-3.749079641175455 0.8568006254527805 -12.569894111139561 132 89 75
-3.803080547316802 0.8847620153069935 -12.549153149343176 129 88 73
-4.934340544760856 1.5111760752346175 -15.088468727002656 63 20 11
-4.998658262371485 1.5441803726102674 -15.041887126800656 62 19 12
-5.101422715818276 1.60440622200047 -15.515562520380454 62 24 16
-5.157607658234278 1.633284663059627 -15.478340857609938 67 33 24
-5.165795081449814 1.638019526947713 -15.511439142939949 68 35 27
-5.208150469915816 1.6599372626165514 -15.494171428151613 66 36 28
-5.219441565179627 1.6662328053775117 -15.522684453251646 68 38 30
-5.230214215376134 1.6722684219764723 -15.552019993583485 69 39 32
-5.2269475891779225 1.671247510995955 -15.60232423673812 70 41 35
-5.2361185099341245 1.676480476815657 -15.634229294510002 72 43 37
-5.248726667544132 1.6834418592186413 -15.661056655247421 73 44 38
-5.223118532888439 1.671200031301698 -15.745354414690524 74 46 39
-5.214135116024966 1.667316377199716 -15.80497788415703 77 50 43
-5.224617160925537 1.6732150229574816 -15.835412796414744 81 56 51
-5.231867073566942 1.6774909623388905 -15.870810646014204 77 54 48
-5.251954830678462 1.6882160796619567 -15.886779890718145 77 56 50
-4.799774421851957 1.4664852043252954 -16.967944320312 80 70 61
-4.916548216712952 1.5277941723567379 -16.984839485879167 108 103 100
-4.955356430850806 1.5479392564014898 -16.973619972337737 116 112 109
-5.00502068037618 1.5735247056150663 -16.94500276082392 125 123 121
-5.0522861769830225 1.5979035974215452 -16.919904037462395 136 135 134
-5.204841283331668 1.677089673048056 -16.875488624755725 164 162 163
-5.231350684923953 1.6910535165410479 -16.88267355215615 168 167 167
3.306583301952231 -2.7725957272609887 -14.05211702224139 211 207 209
3.188119725259842 -2.711459678144519 -14.006857092992005 202 199 201
3.1205307706283056 -2.6763151864696844 -13.998811278963949 180 166 156
3.0315538648642875 -2.630250088351658 -13.974690299592565 145 104 74
2.955519202706162 -2.5907990650015043 -13.959904494495454 165 106 76
2.878166860780632 -2.550678726446061 -13.943893107332077 144 90 66
2.7598566200517665 -2.4896474819518595 -13.896960106416767 113 61 49
2.689303788912209 -2.4530077481130785 -13.885465608263683 107 54 47
2.63748196213435 -2.4259347472190793 -13.88786358934611 107 54 43
2.5813762592297067 -2.3966766840937686 -13.886888786845484 109 51 43
2.5049021254738726 -2.357022804899399 -13.870319950046806 110 52 41
2.5519313587963346 -2.3804171357968666 -13.947394958972325 110 52 41
2.540152284614856 -2.3737890306245917 -13.979941742431013 111 51 41
2.366299624923456 -2.2838255334606674 -13.929880589971075 110 50 39
2.315182161650342 -2.2571248507377284 -13.931953141771537 109 49 38
2.26984937611686 -2.2333780845715916 -13.938354422297593 109 49 38
2.2306617393118184 -2.212768581839858 -13.949403134336778 109 48 37
2.20414924611382 -2.1986275065633114 -13.970211365137196 110 48 37
2.1676327463143794 -2.1793827751988264 -13.983207062110584 110 48 37
2.1287553571079973 -2.158934638253753 -13.994289661564986 110 48 37
2.091967232398452 -2.139553480693535 -14.00692846037073 111 47 35
1.9665489520743753 -2.074352004574405 -13.991138252030787 111 48 31
1.8106886042986972 -1.9936369955753488 -13.950439424331364 111 48 34
1.1783480988782467 -1.665800144780549 -13.81016028965897 111 48 37
1.1466250970093066 -1.64903103651306 -13.824864592674565 110 48 37
1.118791548217077 -1.63424475678767 -13.842702079815176 111 49 38
1.0194747115438396 -1.5830340306778845 -13.801777496462655 112 50 39
-0.6470803420429556 -0.7289112437303236 -12.764111209823756 106 50 37
-0.7062786299530117 -0.6982148932632255 -12.75131626599618 106 50 37
-0.8290363592921928 -0.6351598358982113 -12.68437560906463 106 50 37
-0.8968110126432682 -0.600105445614247 -12.663716821097768 105 48 37
-1.0551091163316295 -0.5189708531085335 -12.565528155176668 104 48 36
-1.1015736537487264 -0.4947749733927531 -12.562393855529944 102 45 33
-1.158379493098364 -0.4653173948882756 -12.550237086747623 102 45 34
-1.1967912336114015 -0.44522473825075837 -12.55372891208373 110 53 42
-1.2387294262165236 -0.4233388667423683 -12.554072577144638 103 46 35
-1.270778890336918 -0.40648709479086076 -12.562863613631835 103 46 35
-1.2903792110183145 -0.39597119111155443 -12.582402103912234 105 48 39
-1.309873287063052 -0.38550944698670486 -12.602026420757188 102 45 36
-1.3264646648328533 -0.37652463203762965 -12.62418164479389 103 46 37
-1.352333893776013 -0.3628196517354967 -12.638212202512582 101 44 34
-1.389355899599762 -0.3434417863465993 -12.64239792736669 102 44 33
-1.4344524442729005 -0.3199581147313606 -12.639366602883452 102 44 33
-1.5309359272424352 -0.27033969249766 -12.590750043878144 102 44 33
-1.568387284783527 -0.2507503913701048 -12.594087631362207 101 43 32
-1.6436741457551038 -0.21192132119459028 -12.563666341228709 101 43 32
-1.7426717330134647 -0.1610394960488497 -12.51179160750313 102 44 33
-1.715323931686438 -0.17440716858970573 -12.57254922083101 102 44 33
-1.7715358356101953 -0.145286721196348 -12.558554206031236 103 45 34
-1.7985422206196287 -0.13101719858374983 -12.570645071370237 103 45 34
-2.76024060860299 0.370868033283672 -12.579413880021328 104 46 34
-2.8000683405318307 0.3916109906101308 -12.576937633647528 104 46 34
-2.871662643191354 0.42846730745051653 -12.543399795509824 105 47 35
-2.9123499270520483 0.4496411506990441 -12.539738015756374 106 48 36
-2.95485143091621 0.47173321354780917 -12.534165336457047 106 48 36
-3.0050568709049426 0.49773038055308705 -12.520880208930134 101 43 32
-3.0376046984340803 0.514769970624966 -12.524801279719014 104 45 36
-3.075070944861798 0.5343023272419511 -12.523773772406653 105 47 36
-3.1523374470751078 0.5745451569727131 -12.51904581489865 106 48 36
-3.3033292544884434 0.6521533989100627 -12.440123679524575 109 48 36
-3.5569462120951956 0.7854347823290324 -12.504852783080054 115 44 29
-3.5891391106701462 0.8022714178718602 -12.507574909804276 120 45 27
-3.6598151093765128 0.8385960665245704 -12.470492151828417 124 47 22
-3.700253394774953 0.8596036598242496 -12.464379257481284 134 57 27
-3.7174409041967182 0.8688360582352961 -12.482255130112144 138 60 30
-3.7364759014598543 0.879003787607304 -12.498203526042786 138 63 35
-3.7553118345653873 0.8890705079448016 -12.514344193788595 144 72 45
-3.7793457266132675 0.901768311697555 -12.525028359712982 154 85 53
-3.795956502562291 0.9107080573657593 -12.543460819100822 154 88 55
-3.824457367354019 0.9256656859684986 -12.54937146364692 149 88 57
-3.8632209285413492 0.9458159903181045 -12.544370164809488 134 80 54
-3.88254507870005 0.9561272132603296 -12.559821517517433 130 81 60
-4.1405111322239 1.0914130300628024 -12.606698495695074 130 100 92
-4.0772676298884365 1.0599733796602049 -12.7117189357946 130 99 87
-5.095805077501314 1.6327887682258422 -15.504633807208261 62 24 15
-5.134772941472421 1.6529427656580755 -15.492691568119273 70 36 27
-5.175980626949862 1.6742137861906272 -15.477270184717927 69 37 28
-5.190547785193831 1.6821647201076315 -15.500925073706085 67 37 29
-5.207474499181645 1.691295347266872 -15.521114319918702 69 39 31
-5.213155321957435 1.6948058965518675 -15.557987415631686 70 40 33
-5.208624786432323 1.6932154946759637 -15.610152854630424 71 42 36
-5.204077455775194 1.6916195456679 -15.662535193004585 72 43 37
-5.193197683332578 1.6868630575281873 -15.724586361286597 74 45 39
-5.179923361744974 1.6809142222756424 -15.790481150908057 74 46 39
-5.159979256170139 1.6716383782464757 -15.866687928103199 76 49 42
-5.191676838416606 1.688155132914226 -15.865264684780382 74 50 45
-5.205491473504523 1.6957412196055865 -15.890792974387931 77 54 48
-5.21809618222589 1.7027237768195809 -15.918192147868119 78 57 51
-5.05345870100076 1.621235058873479 -16.215596255301705 80 61 56
-4.793074255294462 1.4963693997093532 -16.95670649149678 77 66 58
-4.917007426073226 1.5611130136991935 -16.96229749816542 106 101 98
-4.9777105466783915 1.5921052307624501 -16.916500049039012 113 109 107
-5.01552214787397 1.6116853613536724 -16.90654095444281 123 121 119
-5.20303605693736 1.708039500320834 -16.80676923078358 159 157 158
-5.1842508670312135 1.6994226472038232 -16.88664141932113 163 161 162
-5.2185322015032405 1.717230181213532 -16.88135551024978 166 165 165
3.3103680008535052 -2.7339942422730603 -14.042009810316777 207 205 203
3.22474697087433 -2.6897700458260916 -14.020992171524625 195 190 187
3.1083565264741146 -2.6299003571942112 -13.976947709855754 159 129 112
3.022525807501994 -2.5855796251311625 -13.95514191417831 150 97 66
2.938249893465856 -2.5420541362720255 -13.934207849379309 156 100 73
2.8443544414409443 -2.4936414274596386 -13.905819551333314 124 76 56
2.7579814615799743 -2.449058891853208 -13.882736593774085 108 58 45
2.6759005420235846 -2.4066632566107327 -13.862584480398219 104 52 43
2.6097917050662964 -2.3723922666156163 -13.85418300396872 105 52 41
2.5382203389600564 -2.3353474923689888 -13.841457119421708 109 50 42
2.460178304646904 -2.2950170698659638 -13.82360543217372 109 51 40
2.4364948931578603 -2.282321068097124 -13.846784749693956 110 52 41
2.476218659920452 -2.3018525736603737 -13.918259992607066 111 51 41
2.430188792897421 -2.277797528306431 -13.924491858151654 112 51 41
2.38714866059855 -2.2552636026474726 -13.932904006690418 111 51 40
2.30507373898522 -2.2128956894409226 -13.911212284022973 110 50 39
2.2457752875014823 -2.1821052560385064 -13.906803318566698 111 51 40
2.199121883745071 -2.157742254402221 -13.9119992285159 110 49 38
2.158744441331293 -2.1365695411142585 -13.921947186537786 111 49 38
2.074116510586948 -2.0929188575511155 -13.897382818506339 111 49 38
1.9869563177030045 -2.0479865627170866 -13.87054901515852 111 49 38
1.9487965801264044 -2.027947870133514 -13.881757829335562 111 48 37
1.9182793741744142 -2.011791997417949 -13.898887581250762 111 47 37
1.8965062878183998 -2.000077534614427 -13.922859068862703 111 47 35
1.865479253912806 -1.9836637992929795 -13.939521391449155 111 48 35
1.8344856317435232 -1.9672677533738987 -13.9561648869926 112 48 38
1.1905686661703747 -1.6338870340380351 -13.847578700995749 111 49 38
1.1873656703683775 -1.6316118055723206 -13.885647770723622 112 50 39
1.0747163866808371 -1.5738110744024496 -13.83397218040895 114 52 40
-0.6334677730325433 -0.701922683779 -12.763319723262871 107 51 38
-0.7186049773846745 -0.6581687576094071 -12.728629173454323 106 50 37
-0.8484620590522001 -0.5917522739876215 -12.655690104337019 106 50 37
-0.9375153039123267 -0.5460259053801555 -12.61689432887685 105 48 37
-1.089801667853056 -0.46825831308773225 -12.523813453645252 105 48 37
-1.1245058511274362 -0.45008800030655394 -12.530641688493665 103 46 35
-1.1737300183160935 -0.42456136966642166 -12.524930280905222 105 48 37
-1.2699768525519204 -0.37521158790178744 -12.478601250214318 117 60 49
-1.2734746249167017 -0.37285885227391047 -12.51191988824944 105 48 37
-1.2757344632242917 -0.3711320627794943 -12.546384812118792 109 52 41
-1.3040106952843216 -0.3562250445880486 -12.558346505398854 106 47 39
-1.2927669934743387 -0.36133654609050403 -12.604664882307285 101 42 34
-1.3190914444092243 -0.3474180895884973 -12.618329496520616 102 43 35
-1.3241823999541626 -0.344253778228945 -12.650548547210132 103 44 34
-1.3638901748858387 -0.32355847485096545 -12.65242982406826 102 44 32
-1.416897553218777 -0.29613058607408593 -12.642484548922862 103 45 33
-1.5301543388778782 -0.23820033061029955 -12.579128203291162 102 44 32
-1.5575585584421274 -0.2237429236556827 -12.59135356481383 102 44 32
-1.6313197477165629 -0.18581886197291686 -12.56233261646101 102 44 32
-1.6756541488183112 -0.1627950252891579 -12.55924991587067 102 44 32
-1.6805105667544717 -0.15975515281306985 -12.591320157631039 103 45 33
-1.7364321288302405 -0.13086971808314063 -12.577676644599308 104 43 34
-1.7197928887937817 -0.13870800409569428 -12.629078919661328 103 42 32
-1.7462077519118635 -0.12475698467299123 -12.641836648898845 104 43 33
-2.837388957956457 0.4418861857861889 -12.56399822269567 105 47 35
-2.8722263465157214 0.4600507679208543 -12.566129175399226 105 47 35
-2.907428825702202 0.4783980432289776 -12.567802504166137 105 47 35
-2.9415183171165555 0.49618188994949364 -12.570465116494248 105 47 35
-3.0212870382632513 0.5370188651974237 -12.528075794237813 106 46 35
-3.034058566151182 0.5440391452500264 -12.551454415877457 106 46 35
-3.099173907069008 0.5774733685893891 -12.523043541272347 107 47 35
-3.134418352588404 0.595831192604324 -12.524010168571646 107 48 34
-3.1756141736501196 0.6171899442845312 -12.518945805533942 107 48 34
-3.206741066826127 0.6334668946754829 -12.523794999219234 108 46 34
-3.239451929291268 0.6505415291077683 -12.52697530760216 108 46 35
-3.263194096699502 0.6630910087608743 -12.539070878123528 107 47 36
-3.295736931484317 0.680078364957827 -12.54226175981286 108 46 35
-3.330293707282012 0.6980798676350604 -12.543326319398194 108 45 34
-3.3656708725760662 0.7164933847879826 -12.543455652062178 107 44 33
-3.392851560899823 0.7307725020970761 -12.551803495472871 106 43 33
-3.5160834832164474 0.7940457278823294 -12.497933590605538 108 45 31
-3.545122706371723 0.8092554325893486 -12.503987351204534 108 44 30
-3.599135239921069 0.8370507444559769 -12.4842981126164 109 43 32
-3.6284027824310945 0.8523719593316115 -12.489894080512185 112 44 31
-3.6402352954453 0.8589061993267706 -12.513438828768729 115 45 28
-3.818223179177361 0.9508628899999858 -12.471250047983935 129 53 26
-3.8379308831583927 0.9613595950491254 -12.486280455452539 133 57 28
-3.86410175478023 0.975110989599385 -12.494491824592991 135 60 32
-3.866117231030999 0.9766973424257717 -12.528126719290432 134 60 34
-3.889204692065295 0.9888954208953726 -12.539554497206133 136 64 38
-3.936022429204079 1.013040530310683 -12.525761234896368 141 79 55
-3.958879800332058 1.025120293058249 -12.537278552359048 138 86 64
-3.9512782906784376 1.0224421609523977 -12.617258086842341 121 75 57
-4.216971870034876 1.1607277882178277 -12.617875979115146 121 94 87
-4.182106615983894 1.1437712410250072 -12.692256839890105 126 99 90
-4.149582619152955 1.1279971300316758 -12.764382673930974 128 98 90
-4.814625315428999 1.5119325102931835 -15.131645560315192 64 21 12
-4.829155528172871 1.5198710047044912 -15.155207955382686 63 20 11
-5.122608838319149 1.6779653742176932 -15.491382235090128 66 32 23
-5.147459902741005 1.6910367188630366 -15.50002052737737 67 35 27
-5.176606715597624 1.7062415936728197 -15.502267704564103 67 37 29
-5.184301064204641 1.7107865532011033 -15.536098682888309 68 38 30
-5.195339160193219 1.716993900644364 -15.565060017076181 68 38 31
-5.139178020640574 1.6898247176522498 -15.693917490206111 74 45 39
-5.125769514802872 1.6838977732103078 -15.759711704739711 75 46 40
-5.205469029381902 1.7242082456790238 -15.686625623034901 73 44 38
-5.189246538728984 1.7168863406732564 -15.75677136593953 75 46 40
-5.165228311696161 1.705699291091784 -15.83893428111439 76 50 43
-5.173146779541762 1.7111116248624785 -15.919749608296083 78 55 49
-5.181884016488327 1.7161915397537952 -15.953092532304836 79 58 52
-4.78450843727084 1.5252874224080029 -16.94839304256074 75 64 56
-4.827712150052601 1.5474930746710722 -16.930932396114827 82 73 68
-4.859557756308718 1.564067463644795 -16.93098739848877 88 80 78
-4.891325288649876 1.5806011955177706 -16.931040845956094 96 89 87
-4.9229627286562785 1.5970685115341627 -16.93117493416977 105 100 97
-4.986403468127291 1.6292843983300371 -16.88105862053476 113 109 106
-5.028461827238233 1.6509055510719057 -16.864322735321203 123 121 118
-5.204086627500561 1.7425994858346168 -16.88265757227233 165 164 164
-5.23703214652153 1.7596935892361434 -16.879413330712083 166 166 166
3.323184698014444 -2.70002176002381 -14.038549967677092 206 202 200
3.198726107647148 -2.6362610131990243 -13.988971196455585 185 178 169
3.1024631317330646 -2.586788487972126 -13.959761736136668 143 106 82
2.99985807781946 -2.5341097365409473 -13.925524421837984 156 99 70
2.893858701298732 -2.4797182543930743 -13.88840568824752 150 97 69
2.806542362898048 -2.4347936004979744 -13.864834522464108 116 68 50
2.7417725737050773 -2.401289826831941 -13.85782357559627 103 56 43
2.710211452810614 -2.3846024134778885 -13.87551819761784 101 51 39
2.6824367081626015 -2.369832581821964 -13.896016917343289 105 49 39
2.685552779846894 -2.370700371834057 -13.939789530665294 107 50 41
2.5842570535095915 -2.3187162092050673 -13.904683662423057 107 50 39
2.4912118095478526 -2.270914045972183 -13.87547746922487 109 51 39
2.4131099758015164 -2.2306801664230296 -13.857320122274341 112 51 40
2.3111582074215393 -2.1783813991808962 -13.820698500675801 112 51 40
2.2830973078717074 -2.16347862432382 -13.840286098554826 111 51 40
2.234678700467474 -2.138275904236925 -13.844209883725366 111 51 40
2.1798579410303747 -2.109836234384974 -13.8430788099853 111 51 40
2.1590055938322728 -2.0985836073547937 -13.868038109875442 113 50 39
2.0901807521267477 -2.063063830237203 -13.855826431432192 113 49 37
2.0188589864414226 -2.0262848296410456 -13.84145475489774 113 49 37
1.9981496383125839 -2.0151082803196445 -13.866306484687515 114 50 39
2.0053892547142533 -2.0180664354363356 -13.91301456984327 114 50 40
1.9368494207212503 -1.9827010237506377 -13.900428727824254 113 49 38
1.9118266608984733 -1.9693439983716943 -13.921851455059993 113 49 37
1.881827188728363 -1.9534709651864073 -13.939331080382779 113 49 37
0.8848033584820572 -1.4398981924098422 -13.705177131897624 114 51 37
-0.5319887652561803 -0.7199215443059792 -12.799126878285389 109 53 41
-0.6307678430593633 -0.6694268368673533 -12.75333898689724 108 51 40
-0.6830029251119063 -0.6424278673755697 -12.746463806922582 108 51 39
-0.8383778777966278 -0.5633854933446409 -12.652055847757913 107 50 37
-0.9245900317227935 -0.5192526610674366 -12.615723491596281 105 48 37
-1.1679641239423013 -0.3952110083728244 -12.481408900112607 106 49 38
-1.205299402387105 -0.37575446819897973 -12.485770353304085 113 57 45
-1.2235881943345523 -0.3659066819187986 -12.506408457020353 110 55 42
-1.226800025547064 -0.3636631093798952 -12.540045122665948 111 56 43
-1.2304960169182948 -0.36117405887851683 -12.573339500277921 108 53 40
-1.2920045415504644 -0.3295304598824975 -12.5565707389219 108 50 39
-1.2541374522559545 -0.34799869617219015 -12.626017494397452 100 43 32
-1.3151054467544743 -0.31663083842617024 -12.609532646221858 103 46 35
-1.4080582288763877 -0.26914187833026304 -12.564845220732971 104 46 35
-1.4403603802178164 -0.2522333072908336 -12.572993635065574 105 47 35
-1.4800612512727804 -0.2315966376570282 -12.574557863981989 106 48 36
-1.510054203651844 -0.21585475228841755 -12.584579323290999 104 46 34
-1.5053621495436644 -0.21759392922803622 -12.625243545304146 104 45 34
-1.5661023032474466 -0.18635848606655125 -12.607933519784323 104 44 34
-1.6104667565864235 -0.16337815484202078 -12.604983079337552 104 45 34
-1.659083730320857 -0.13825762482536152 -12.598097711076468 105 45 35
-1.653561239713679 -0.14041452763500617 -12.639542860834839 105 44 35
-1.668932662072593 -0.13204419900546682 -12.662342791831454 104 44 34
-1.9220347719348432 -0.0008223531774018689 -12.652372434118258 106 46 36
-2.835175972315847 0.4721381555780191 -12.58946955558298 106 47 35
-2.8849239670007663 0.497750400733902 -12.577013432373281 107 47 36
-2.9367393982530965 0.5243980220495823 -12.562345477124124 107 48 37
-2.9855699454055094 0.549542987390971 -12.55041436639451 108 47 36
-3.03220397213551 0.5735816675703718 -12.54046755221565 107 47 36
-3.0746559390798573 0.5955172563482769 -12.53448656047751 108 48 36
-3.145599785800785 0.6317572580448645 -12.500103367718241 108 47 35
-3.176752411293757 0.6480131234714372 -12.504985506464635 108 46 35
-3.1906564216320925 0.655608056182154 -12.526990383512098 108 45 34
-3.2208855031491463 0.6713983340230247 -12.532681065742581 108 46 35
-3.249870530767689 0.6865628386485274 -12.539542237232784 109 47 34
-3.2716115988354852 0.6980904440634434 -12.55362148123644 109 47 34
-3.334283832539162 0.730158549157637 -12.526368058531315 108 46 33
-3.348152103284731 0.7377326080035842 -12.548237482089677 107 44 32
-3.4086656192053812 0.768710833039385 -12.52278042708394 105 43 30
-3.458549473053462 0.7943518353771557 -12.507885910803552 108 46 33
-3.4908881258265847 0.8111880902349708 -12.510706730858143 106 44 30
-3.5198759491468774 0.8263420109391049 -12.51686534559721 105 42 29
-3.56022193230476 0.8471912415131384 -12.51128825265761 105 42 30
-3.6378890037763365 0.8873656396482799 -12.50283376727733 107 41 29
-3.667333923146436 0.9027420941618114 -12.508130884771635 108 39 28
-3.6967155967134966 0.9180855125844569 -12.51341613111009 112 43 31
-3.726032889909669 0.9333953304281781 -12.518690936421514 113 44 32
-3.7587189935509286 0.9503923762397839 -12.520368725055455 113 44 27
-3.790484625893891 0.9669264191183002 -12.522912821284894 113 43 26
-3.8136270396086234 0.979137533497177 -12.534425308858559 114 43 26
-3.8668516643488307 1.0064214167893204 -12.514194736522752 119 45 29
-3.927879388434672 1.0376109904514634 -12.485492518325776 125 49 32
-3.944776685946277 1.0466878094803609 -12.5032934763077 129 58 35
-3.9676910614377396 1.0587786319084405 -12.51469442713151 137 70 43
-3.990578262329978 1.070855145793192 -12.526083620028787 140 72 42
-4.021885661506864 1.0871479083155895 -12.52842934475268 138 71 40
-4.042466749051587 1.0980677678161088 -12.54218365130212 136 72 42
-4.068733000824686 1.1118337694801679 -12.549797416522331 136 74 45
-4.08512620337093 1.1206557237208805 -12.567996813978713 131 78 52
-4.1067244565268775 1.132083311175119 -12.580565397016725 126 80 63
-4.117843899014076 1.138265188267259 -12.604467125895123 118 80 67
-4.140775407398218 1.1503594713357952 -12.61555089423541 114 77 69
-4.133529806827268 1.1473512237299743 -12.659516179587317 110 76 69
-4.144345825160366 1.1533832786455758 -12.683867050908393 108 76 70
-4.154469845076608 1.159069694791935 -12.709011685334854 109 80 75
-4.18938377483535 1.1771585913670284 -12.706913879411044 112 86 84
-4.2476676324396045 1.2081788536740343 -12.751478558301788 131 101 93
-4.221567503406543 1.1957515717939677 -12.816978243094926 125 93 83
-4.73711692311105 1.502322487815544 -15.089762470120398 66 24 12
-5.109904838430658 1.7027186324151429 -15.490863969852796 67 33 24
-5.113009237962807 1.7050247805995977 -15.53140910491194 68 36 28
-5.161908362938487 1.7299525187534548 -15.504719185926394 67 37 29
-5.1711927410598095 1.735311526042108 -15.536195954202709 77 47 40
-5.182224071000358 1.7415343454276364 -15.565157858267696 72 42 36
-5.18939860238094 1.7458539695439583 -15.599897752148081 75 47 41
-5.135989615284535 1.7202690177026492 -15.724890238522686 74 46 40
-5.196982266546231 1.7511586705723516 -15.679743020683185 73 45 38
-5.175551452646517 1.741367122095674 -15.757603974074819 74 46 39
-5.144026741841516 1.726601034641655 -15.850963210302476 77 49 42
-5.152813540695849 1.7325248639387416 -15.930490111631068 77 56 51
-5.147615194066792 1.730759338505936 -15.984958987085257 78 58 52
-4.7567947344294215 1.5447440200661582 -16.969797187637866 73 62 56
-4.822130039740329 1.5777745640238212 -16.918024034497652 80 71 67
-4.85994982523996 1.5972490221631128 -16.90874889208755 87 79 76
-4.920247797388128 1.628636924825042 -16.913738595436882 104 99 96
-4.95435461494341 1.64627597159837 -16.909839663487553 114 110 107
-5.018207255621374 1.678549921111752 -16.858831207701474 123 121 117
-5.143787384639371 1.7437268165782691 -16.857932760129327 157 155 156
-5.190452469445352 1.7683754425611897 -16.88265029223396 165 163 164
3.302148374163318 -2.6489882953247488 -14.010266912921717 202 198 196
3.2029763586753583 -2.598201000863199 -13.979276130250913 172 155 145
3.1024676040844907 -2.5467457783275265 -13.946957774058726 143 95 74
3.0042195125322007 -2.49643696965577 -13.915964046046575 165 105 81
2.899572767118186 -2.4429078140040166 -13.8798809153076 142 90 69
2.8117953112503873 -2.397891150854468 -13.855988433906028 111 64 51
2.718777304258488 -2.3502377354421076 -13.827887271876701 101 55 44
2.681099565851362 -2.3304889719707007 -13.840919214764904 98 49 38
2.6426952680346716 -2.3103752556675845 -13.853334224567725 100 47 37
2.534312975983153 -2.2549905289579284 -13.812941187797412 103 47 37
2.489326305767171 -2.231564877586327 -13.82007282155615 104 47 36
2.431825651095096 -2.201834524986503 -13.81761199774893 107 49 37
2.43989526792431 -2.205149639180208 -13.864847352841979 109 49 38
2.3691986150853523 -2.1687732736807 -13.8521457281212 110 50 39
2.249680851694695 -2.107802916285076 -13.801873584379864 111 51 40
2.2293394615595767 -2.096805753377697 -13.827246443785988 112 52 41
2.169339017829989 -2.0658299517091443 -13.822104966474978 112 52 41
2.0893209546764844 -2.024774213399231 -13.801335348661876 114 52 40
2.013342915043383 -1.9857582686507915 -13.783423016303315 115 51 39
2.011980260346923 -1.9843255216648825 -13.823196531927472 115 51 39
1.985774259289597 -1.970380262908896 -13.843714662758408 116 52 41
1.9961438475506919 -1.974852880906616 -13.892781434557953 115 51 41
1.9019267737875056 -1.926663118245139 -13.86005484448231 114 50 39
1.8609886723248241 -1.9053034090478167 -13.86885549188596 114 50 37
1.861036282315509 -1.9045782843293453 -13.909867928301605 114 50 38
1.7997097469879968 -1.872957168483951 -13.90246349891105 114 50 38
1.7374609979756652 -1.8408753182208102 -13.89413946778007 115 51 39
-0.6041577793621569 -0.6496735987854585 -12.726326818965497 110 55 43
-0.6270832868474026 -0.6374753364238304 -12.744204546587838 110 53 42
-0.693497357521097 -0.6034287540630534 -12.725368369651562 109 52 40
-0.8640904201720412 -0.5170516307317623 -12.618134561385656 108 50 38
-0.9440641323029677 -0.47620734305403767 -12.587054951971862 107 50 39
-1.1300206664173293 -0.38147339580811446 -12.50176748458315 110 52 41
-1.1560660462320413 -0.367728525057204 -12.515874071700534 113 55 43
-1.1846892876472452 -0.35268995582767504 -12.527727831718678 107 48 36
-1.1866253997323462 -0.35105140908907595 -12.562515416321412 114 54 43
-1.191127231932021 -0.34812326958023077 -12.595169498952679 112 53 42
-1.2543139063919373 -0.31573481810487714 -12.57704983851766 108 49 38
-1.2290772255407623 -0.327733803570708 -12.635535922788936 109 50 39
-1.2404931999373465 -0.3213329873729962 -12.66230179363329 107 49 38
-1.4180849007862166 -0.2308709629269221 -12.580274757172639 107 49 37
-1.444093724265672 -0.21715347374663052 -12.593919038804277 106 48 36
-1.487207398407632 -0.19485512230220126 -12.59244023925585 105 47 35
-1.5072195356148113 -0.1841482154140337 -12.611262283505148 105 46 34
-1.5525456840786305 -0.16074369899632268 -12.607622200164135 105 45 34
-1.5933348675532608 -0.13961734624656819 -12.607876457381554 105 45 34
-1.6167681571713226 -0.1271974156662128 -12.623496487052304 106 46 35
-1.6256379983027127 -0.12208110553689133 -12.652119306202351 107 47 36
-1.6451157746007317 -0.11164488336387413 -12.671270713067365 106 46 35
-1.913854872489483 0.02707742424166959 -12.647322442305931 106 46 35
-2.0491211946538197 0.0955247602076339 -12.55996210443805 106 46 35
-2.1006483763510353 0.122004575758353 -12.548896148175842 107 47 36
-2.1576701878949107 0.15123379156285788 -12.532586565243001 107 47 36
-2.2124001589543205 0.1793110737608763 -12.518182778212452 106 46 35
-2.2670090962695966 0.20732407067715863 -12.503690878747445 106 46 35
-2.891452031201637 0.5316671492218781 -12.557855238637902 106 46 35
-2.912301939243328 0.5427496484368648 -12.573492284452726 107 47 36
-2.9244910756882065 0.5495024841711218 -12.59761376898988 108 48 37
-2.9793173570229925 0.5775666928306133 -12.579766899501129 108 48 37
-3.0699053048364364 0.6234994546704096 -12.5263779016427 108 48 37
-3.115327772157161 0.6468546597811167 -12.517312308243257 108 47 36
-3.1717891546451664 0.6757225968444929 -12.49711502280972 108 46 35
-3.362631104670869 0.7743220560345796 -12.48489043127934 109 47 34
-3.3856813030367423 0.7864859384236342 -12.497355752609694 108 46 33
-3.4338752819292004 0.811203181628845 -12.48429037537418 107 45 32
-3.4498318436390782 0.8198229469449776 -12.503820303234873 106 44 31
-3.484888782400991 0.8379773616584649 -12.503875891323396 105 43 30
-3.5119370859627095 0.8521324487237489 -12.512013471312322 105 43 30
-3.543401099973144 0.8684901743198223 -12.515560038863846 105 42 30
-3.6107993482310157 0.9034312637509117 -12.517776254070718 108 43 31
-3.6358946481974015 0.9166064613042482 -12.527632859047632 106 40 28
-3.6623933043008026 0.9304807946193703 -12.535982019568149 108 42 30
-3.701452039770234 0.950619018653349 -12.531200783458708 110 44 32
-3.7337612848353325 0.9673884757237201 -12.533327833480843 109 44 29
-3.7657735915424584 0.9840081043106457 -12.535670068430187 108 43 28
-3.806440306760467 1.0049414090191413 -12.528833598581041 109 42 27
-3.843105263592242 1.02387682526483 -12.526062746719626 111 44 30
-3.865660318325539 1.0357758508643038 -12.538065393913945 112 43 29
-3.896855745632709 1.0519811429126837 -12.540881596457979 116 45 29
-4.062906414398185 1.1373476485410934 -12.507029916617398 127 53 27
-4.082389403774527 1.1477072426791801 -12.521842155924622 132 60 30
-4.10304570984687 1.1586509292329898 -12.535369964883483 136 70 40
-4.1200154840796985 1.1677579433987244 -12.552853092447144 136 75 48
-4.140718053104198 1.1787238624716347 -12.566286619000639 135 79 50
-4.16422689844387 1.1910866764126224 -12.576642302838916 137 84 56
-4.184580971965602 1.2018778820498979 -12.590390167057969 130 80 56
-4.190573801679559 1.205518941333016 -12.619808359605798 112 66 51
-4.222537957337401 1.2220893551871412 -12.620822445750216 114 72 63
-4.221693048604472 1.2223279261854159 -12.657803994707212 113 79 73
-4.251675580198798 1.2379103856435956 -12.660906629991286 107 75 68
-4.273629154031399 1.2494959284473712 -12.672798769251974 108 75 68
-4.26984617579433 1.2482754686715036 -12.713192377006514 112 77 71
-4.270581000967241 1.249304931089179 -12.74868959980163 115 81 76
-4.424464997617512 1.326518238184417 -12.61348112025064 121 90 87
-4.394058821454055 1.3120534720595027 -12.68351529045154 125 96 93
-4.360450210965457 1.2960015584916635 -12.75744168945726 128 98 93
-4.74879655616945 1.5399091757501284 -15.099218433255844 63 21 13
-4.870260715793288 1.602121178621997 -15.061732313253373 61 19 11
-5.097762100513324 1.7277481407495427 -15.489525645307566 68 34 25
-5.072362645360596 1.7160996340245456 -15.571793256400106 69 37 29
-5.147203860414683 1.753672979973878 -15.507171931047829 68 38 30
-5.1591130551187785 1.7603445181629254 -15.534775776864297 71 42 35
-5.1677673570569125 1.7654193760200014 -15.567236282023387 61 32 26
-5.179696170097787 1.7721025216387796 -15.594919362263116 86 59 52
-5.191420054179944 1.7786859833178155 -15.622954358109107 73 46 39
-5.1924342056908905 1.7800164478632583 -15.667004361662201 73 45 38
-5.157550446042663 1.763741894209335 -15.764870802345667 74 45 39
-5.1200561555027155 1.7470426471317633 -15.91344948389576 76 53 48
-5.167456283828024 1.7711305218469033 -15.888443666838866 77 56 51
-5.10731043772743 1.742497906397428 -16.025874536795172 78 57 52
-5.159161337037698 1.784619060708022 -16.86121134042187 161 159 160
-5.438177393114071 1.930852203133905 -16.95700869010949 191 192 194
3.3110679995558083 -2.613160688725001 -14.003984115714847 198 194 190
3.2053254385390524 -2.5592374035246936 -13.968200157690156 159 135 121
3.1005120945684714 -2.5057879625042085 -13.932731109490028 148 94 72
2.9966122890589917 -2.452804397619616 -13.897570264024914 163 106 83
2.892619890307346 -2.3997814232136587 -13.861976251488947 134 82 65
2.808697764545607 -2.3568422472963606 -13.840945575246126 115 64 50
2.725934699676202 -2.314490342684194 -13.82050219202676 113 61 47
2.658741457718703 -2.2799595305403635 -13.811437299645185 98 49 36
2.5921127111860462 -2.2457160260855997 -13.802592051189439 97 48 36
2.536260494225405 -2.21688513848159 -13.8016578613659 100 46 35
2.4876561683986216 -2.1916946083153803 -13.806042625777621 101 45 33
2.5344370801690292 -2.2143714169457374 -13.882550719984206 103 47 34
2.468177871012543 -2.1803228499485314 -13.873496414078478 104 46 34
2.4146364623455536 -2.152658976355025 -13.873929845792805 107 47 36
2.3590222724887013 -2.123958065862176 -13.872633861472623 109 49 38
2.302865894934528 -2.094988196363751 -13.870766941009744 111 51 40
2.1418875918314892 -2.01344432602359 -13.788150627549143 111 51 40
2.1048068939214284 -1.994052530643614 -13.80043495856457 114 52 40
2.032939176095197 -1.957216614347088 -13.78574124882822 115 51 39
1.9720838891521284 -1.925907417065871 -13.779357258792569 116 52 40
1.9337098516834068 -1.9058739895551897 -13.790282494910084 116 52 41
1.9050218059100619 -1.8906982680309516 -13.808687601484714 116 52 42
1.8815328049084394 -1.8781295698403881 -13.831127917168441 116 52 41
1.829320435175715 -1.851162929807957 -13.8310080078176 115 51 38
1.76907470543515 -1.8201725927132806 -13.82441770845097 115 52 37
1.701325870621523 -1.7854254208432139 -13.811718665651776 116 53 38
1.6404396711533566 -1.7541215926473561 -13.804236665940406 115 52 37
1.6903653078288654 -1.7783477076253038 -13.884605530802796 115 52 37
1.557991924235326 -1.7112281152944107 -13.820045553054932 114 51 36
1.1014295606311375 -1.47625850005198 -13.77599128962384 115 51 38
-0.5924879265739973 -0.6217520278927218 -12.723921584406323 111 55 43
-0.6515511933479585 -0.5914872197500083 -12.711425574985718 110 53 42
-0.7312418795987536 -0.5509095903621035 -12.681342450536317 110 53 41
-0.8508884036463193 -0.4903560679355814 -12.61717694851723 110 52 40
-0.914614081775615 -0.4577754410120769 -12.59992421581251 110 50 39
-1.0146688767232641 -0.40703465479601997 -12.551551106349619 110 50 39
-1.076947714878619 -0.37518793176770204 -12.534989227841056 110 50 39
-1.11805816485942 -0.35392761216608726 -12.536315077943078 107 47 36
-1.1479934368848337 -0.3382554669504083 -12.547114082692218 108 49 37
-1.1490058896385795 -0.3370402044113612 -12.58274178761928 113 53 42
-1.1534795238539415 -0.33409349698544366 -12.615470088665548 110 50 39
-1.187315878917337 -0.31647270469523114 -12.62285415126614 109 49 38
-1.231781499540114 -0.29354246390045224 -12.620932377092554 109 49 38
-1.2805657929136949 -0.26845717488344256 -12.615117359907433 109 49 38
-1.4232665204725885 -0.1950436192578242 -12.599942570284082 108 48 37
-1.470913788918872 -0.1705381696567536 -12.594511558027428 108 47 36
-1.5270759429750234 -0.14178371328845518 -12.581405417208817 109 48 36
-1.581904421678039 -0.11369899898111013 -12.569283956622034 108 47 35
-1.548614265456739 -0.12961176809828734 -12.63527999861948 107 46 34
-1.6027882318249773 -0.10185676569126434 -12.62358875218509 107 46 34
-1.6267663986682015 -0.08917780463244096 -12.63870065594661 108 47 35
-1.635504364752065 -0.08410589332270924 -12.667444319918896 106 44 32
-2.004606286098861 0.10500567157288154 -12.588262560460862 109 48 35
-2.048170641355142 0.12743694270489403 -12.584619679198486 108 47 35
-2.142980801317327 0.17541875693541886 -12.533673999918072 108 46 34
-2.197388956848414 0.20324855657334684 -12.519606878693526 108 46 34
-2.257079077051741 0.23370775342021144 -12.500451819150852 107 46 33
-2.305640609834615 0.25861511136540427 -12.491401374598816 107 45 33
-2.885193321806697 0.5591304443438374 -12.551207712484153 105 45 34
-2.9113719338072848 0.5728546343750174 -12.561618273717862 106 46 35
-2.9368098346079448 0.5862093451422767 -12.572703828114525 108 48 37
-3.001011511432994 0.6188444131957298 -12.545599967671858 108 48 37
-3.0644474779791313 0.6510934245330682 -12.518982500324608 108 48 37
-3.1128931891028753 0.6758827102574636 -12.506934501355389 109 48 37
-3.170370110479599 0.7051591392014802 -12.485741716677751 110 48 37
-3.3416515977517625 0.7930812659155222 -12.457490719166204 109 47 34
-3.3440255761715925 0.7949543423159131 -12.490779585011834 110 48 35
-3.3756487090149845 0.8113629465665921 -12.494612514133351 110 48 35
-3.394745126915484 0.8215460414014935 -12.51104581147407 108 46 33
-3.4191496875668026 0.8343658729027743 -12.522073021718931 107 45 32
-3.464006238507247 0.8573439187728642 -12.512219864610858 107 45 32
-3.500139469910419 0.875986107336576 -12.511112804089027 105 43 30
-3.5227317293025164 0.8879014141856687 -12.523764857362842 106 43 31
-3.545229526780197 0.899769124901769 -12.536478447472271 107 43 31
-3.577557982104322 0.9165170637078031 -12.539025753154535 108 44 32
-3.6031653933658543 0.9299265767782496 -12.548425708376541 106 42 30
-3.631896657039537 0.9448856655626765 -12.55453357903194 107 43 31
-3.67646917126431 0.9677057367127904 -12.544100812123972 109 45 33
-3.7026396142411575 0.9813902068477891 -12.55268443863285 109 45 32
-3.7307647887234334 0.9960434958498878 -12.559165934191462 108 44 31
-3.7691515542356218 1.0157866928713775 -12.55481688782327 108 43 30
-3.793943879890104 1.0287832429123678 -12.564631047554974 109 43 30
