ply
format ascii 1.0
element vertex 842
property float x
property float y
property float z
property float nx
property float ny
property float nz
property uchar diffuse_red
property uchar diffuse_green
property uchar diffuse_blue
property uchar class
property uchar detection
end_header
3.8962 -2.7514 -16.7464 -0.446 0.236 0.863 112 111 107 0 0
4.1774 -3.1049 -16.6698 0.678 -0.232 0.697 199 199 201 0 0
-1.5466 4.1923 -12.5693 -0.321 -0.313 0.894 114 62 52 0 0
0.0608 2.1644 -12.5389 0.432 -0.429 0.793 127 52 33 0 0
0.1179 2.0913 -12.5785 0.145 -0.468 0.872 126 51 32 0 0
2.0450 -0.3730 -13.6910 0.278 0.019 0.960 121 43 23 0 0
2.0715 -0.4062 -13.6857 0.319 -0.165 0.933 125 46 27 0 0
3.0805 -1.6815 -13.7456 0.455 -0.194 0.869 143 67 45 0 0
3.0954 -1.7006 -13.7577 0.455 -0.194 0.869 138 61 39 0 0
3.5356 -2.2640 -14.0305 0.613 -0.580 0.537 86 12 0 0 0
3.5212 -2.2505 -14.1937 0.713 -0.605 -0.354 89 51 40 0 0
3.4953 -2.2208 -14.2951 0.686 -0.632 -0.360 52 43 42 0 0
3.4467 -2.1879 -15.2818 0.319 -0.504 0.802 6 6 8 0 0
3.4601 -2.2053 -15.2981 0.319 -0.504 0.802 6 6 8 0 0
3.4736 -2.2227 -15.3144 0.319 -0.504 0.802 10 10 12 0 0
4.1517 -3.1180 -16.6802 0.926 -0.141 0.351 199 199 201 0 0
4.2771 -3.2738 -16.5943 -0.070 -0.643 0.763 206 206 208 0 0
-0.0080 2.2032 -12.5209 0.309 -0.053 0.950 122 47 28 0 0
0.0362 2.1469 -12.5395 0.511 -0.405 0.759 122 47 28 0 0
0.0971 2.0692 -12.5741 0.509 -0.245 0.826 122 46 28 0 0
0.5203 1.5349 -12.6158 0.136 -0.345 0.929 132 52 30 0 0
2.9717 -1.5862 -13.7110 0.276 0.149 0.950 150 72 48 0 0
3.0619 -1.7007 -13.7408 0.295 -0.335 0.895 145 62 38 0 0
3.0823 -1.7265 -13.7417 0.361 -0.010 0.932 140 61 34 0 0
3.4713 -2.2335 -14.3019 0.786 -0.503 -0.358 51 42 40 0 0
3.4386 -2.2198 -15.2021 0.406 -0.876 0.259 5 5 7 0 0
3.4370 -2.2207 -15.3014 0.174 -0.457 0.872 3 3 5 0 0
3.9382 -2.8746 -16.0379 0.501 0.069 0.863 94 94 95 0 0
3.9526 -2.8931 -16.0515 0.640 -0.381 0.668 68 68 68 0 0
3.9573 -2.9002 -16.0906 0.741 -0.243 0.625 67 67 67 0 0
4.2611 -3.2977 -16.5779 0.052 -0.922 0.384 206 206 208 0 0
4.2646 -3.3051 -16.6773 -0.185 -0.886 0.425 207 207 207 0 0
-1.5740 4.1200 -12.6180 -0.278 -0.282 0.918 102 50 38 0 0
-0.3927 2.6419 -12.4084 -0.124 -0.465 0.877 120 49 34 0 0
0.0074 2.1345 -12.5455 0.254 -0.822 0.510 121 46 27 0 0
0.5764 1.4168 -12.6204 0.004 -0.581 0.814 132 48 24 0 0
1.5805 0.1197 -13.7063 0.719 0.067 0.692 120 41 22 0 0
2.9417 -1.5907 -13.6867 0.693 0.168 0.701 160 80 52 0 0
3.4459 -2.2333 -13.9623 0.499 -0.415 0.761 129 54 26 0 0
3.3979 -2.1964 -14.6878 0.782 -0.602 0.162 42 42 44 0 0
3.9405 -2.9231 -16.0776 0.828 -0.139 0.543 69 69 68 0 0
4.1428 -3.1971 -16.6900 0.883 -0.430 0.189 201 201 203 0 0
-0.6475 2.9117 -12.4248 -0.286 -0.372 0.883 115 48 31 0 0
1.0585 0.7556 -12.8950 0.510 -0.233 0.828 69 11 6 0 0
1.0235 0.7952 -13.0247 0.901 -0.300 0.314 66 21 13 0 0
1.2376 0.5039 -13.6941 0.710 -0.556 0.431 162 85 56 0 0
3.8531 -2.8516 -15.8917 0.828 -0.518 0.217 42 42 47 0 0
3.8460 -2.8450 -15.9609 0.599 -0.060 0.798 46 45 49 0 0
4.1271 -3.2218 -16.6722 0.859 -0.500 0.110 201 201 203 0 0
4.1968 -3.3118 -16.7467 -0.209 -0.053 0.976 207 207 207 0 0
-1.2328 3.5956 -12.4010 0.450 -0.144 0.881 109 47 36 0 0
0.2498 1.7344 -12.5434 0.546 -0.158 0.823 129 47 24 0 0
0.2954 1.6754 -12.5962 0.674 -0.463 0.575 126 44 22 0 0
0.3057 1.6616 -12.6203 0.516 -0.324 0.793 127 45 23 0 0
1.0364 0.7398 -12.8165 0.480 -0.666 0.571 105 26 5 0 0
1.0583 0.6827 -13.6543 -0.192 -0.829 0.525 15 9 10 0 0
1.2174 0.4822 -13.6890 0.710 -0.556 0.431 161 85 55 0 0
2.6365 -1.2961 -13.7359 0.243 -0.132 0.961 133 53 29 0 0
2.8655 -1.5835 -13.7528 0.444 -0.136 0.886 139 55 25 0 0
3.6490 -2.6198 -15.3125 0.516 -0.144 0.845 14 14 16 0 0
3.6611 -2.6390 -15.4279 0.741 -0.646 0.183 31 32 34 0 0
3.6744 -2.6562 -15.4440 0.764 -0.643 0.058 28 29 31 0 0
3.7058 -2.7139 -15.9604 0.648 -0.662 0.377 21 22 24 0 0
3.7521 -2.7713 -15.9435 -0.025 -0.372 0.928 29 30 35 0 0
3.8475 -2.8873 -15.8502 0.925 -0.311 0.219 38 39 44 0 0
3.8965 -2.9793 -16.7107 0.478 0.132 0.868 152 151 149 0 0
-1.2853 3.6104 -12.3936 0.078 -0.455 0.887 108 46 35 0 0
1.0290 0.6714 -13.6630 0.181 -0.838 0.515 12 7 7 0 0
2.4852 -1.1505 -13.7305 0.332 0.013 0.943 142 62 43 0 0
3.0294 -1.8316 -13.7630 0.124 -0.023 0.992 150 69 29 0 0
3.0800 -1.8957 -13.7870 0.114 -0.576 0.810 153 65 22 0 0
3.6251 -2.6337 -15.3185 0.765 -0.265 0.587 16 16 18 0 0
3.6892 -2.7372 -15.9471 0.804 -0.321 0.500 25 26 29 0 0
3.7290 -2.7870 -15.9468 0.459 -0.082 0.885 25 26 29 0 0
3.7499 -2.8130 -15.9441 0.072 -0.085 0.994 34 35 40 0 0
-0.9897 3.1903 -12.4016 0.614 -0.147 0.775 117 49 38 0 0
-0.7895 2.9381 -12.4673 0.650 -0.553 0.522 116 49 32 0 0
-0.7600 2.9012 -12.4698 0.201 -0.457 0.867 117 50 33 0 0
-0.0235 1.9803 -12.5361 0.246 -0.775 0.582 124 46 24 0 0
0.0500 1.8894 -12.5164 -0.022 -0.415 0.910 124 43 22 0 0
1.0006 0.6592 -13.6705 0.537 -0.762 0.361 11 6 6 0 0
1.6016 -0.0922 -13.7237 0.643 -0.351 0.680 160 123 96 0 0
1.6187 -0.1140 -13.7362 0.808 -0.313 0.499 126 75 50 0 0
1.6285 -0.1272 -13.7608 0.669 -0.133 0.731 127 65 41 0 0
1.9574 -0.5346 -13.6918 0.394 -0.546 0.739 125 46 19 0 0
3.4183 -2.3688 -14.0158 0.606 -0.398 0.689 99 19 2 0 0
3.4641 -2.4255 -14.0028 0.742 -0.230 0.630 86 13 2 0 0
3.5833 -2.6234 -15.2717 0.608 0.028 0.794 72 72 72 0 0
3.5981 -2.6424 -15.2840 0.590 -0.025 0.807 56 56 58 0 0
3.6084 -2.6561 -15.3069 0.765 -0.265 0.587 18 18 20 0 0
3.6370 -2.6965 -15.4302 0.773 -0.541 0.331 29 30 32 0 0
3.6604 -2.7426 -15.8641 0.768 0.145 0.623 24 24 26 0 0
3.6687 -2.7541 -15.8932 0.879 0.176 0.443 62 63 66 0 0
3.6810 -2.7702 -15.9125 0.838 0.078 0.540 32 33 36 0 0
3.7041 -2.8006 -15.9547 0.865 -0.191 0.464 19 20 22 0 0
4.0417 -3.2496 -16.6729 0.575 -0.171 0.800 199 199 201 0 0
-1.4238 3.6797 -12.4161 0.868 -0.354 0.347 107 47 36 0 0
-0.9273 3.0635 -12.3743 0.360 -0.079 0.929 117 51 39 0 0
-0.5106 2.5408 -12.4771 0.528 -0.691 0.494 121 48 29 0 0
-0.1961 2.1485 -12.4996 0.316 -0.318 0.894 125 45 28 0 0
-0.0205 1.9269 -12.5766 0.381 0.087 0.921 126 45 24 0 0
0.1066 1.7709 -12.5245 0.241 -0.304 0.922 125 44 23 0 0
0.1875 1.6699 -12.5313 0.454 -0.373 0.809 124 42 21 0 0
0.9863 0.6302 -13.6561 0.697 -0.709 0.108 10 6 7 0 0
1.6762 -0.2294 -13.6833 0.707 -0.228 0.670 155 84 50 0 0
3.4551 -2.4551 -13.9777 0.285 -0.176 0.942 84 13 4 0 0
3.5936 -2.6806 -15.2910 0.362 -0.432 0.826 20 21 23 0 0
3.6042 -2.6947 -15.3132 0.462 -0.612 0.642 11 11 13 0 0
3.6078 -2.7008 -15.3525 0.733 -0.617 0.286 13 13 15 0 0
3.6121 -2.7076 -15.3902 0.773 -0.541 0.331 33 34 37 0 0
3.6339 -2.7544 -15.8758 0.396 -0.103 0.913 13 14 14 0 0
3.6599 -2.7882 -15.9106 0.663 -0.191 0.724 41 42 45 0 0
3.6720 -2.8041 -15.9302 0.733 -0.140 0.666 11 12 16 0 0
3.6855 -2.8215 -15.9465 0.710 -0.176 0.682 14 15 19 0 0
3.7939 -2.9913 -16.8079 -0.524 -0.069 0.849 148 145 144 0 0
4.0492 -3.3046 -16.6988 0.797 -0.508 0.327 202 202 204 0 0
4.0574 -3.3161 -16.7299 0.369 -0.315 0.874 204 204 206 0 0
-1.9504 4.2784 -12.5113 0.465 0.314 0.827 100 53 43 0 0
-1.4404 3.6495 -12.4055 0.868 -0.354 0.347 108 48 37 0 0
-0.2445 2.1606 -12.4923 0.483 0.001 0.876 124 45 28 0 0
-0.2195 2.1293 -12.4984 0.311 -0.348 0.885 124 44 27 0 0
-0.0826 1.9587 -12.5123 0.758 -0.595 0.269 132 51 30 0 0
-0.0613 1.9318 -12.5226 0.356 -0.154 0.922 131 50 29 0 0
1.0397 0.5199 -13.5772 0.595 -0.537 0.598 11 7 8 0 0
2.7610 -1.6267 -13.7906 0.036 -0.187 0.982 164 84 32 0 0
2.8763 -1.7692 -13.7740 0.025 -0.196 0.980 159 67 22 0 0
2.9088 -1.8104 -13.7933 0.354 -0.314 0.881 170 80 36 0 0
3.2856 -2.3090 -14.5189 0.672 -0.728 -0.133 46 46 47 0 0
3.3203 -2.3777 -15.1249 0.597 -0.655 0.463 7 7 9 0 0
3.5752 -2.7009 -15.2838 0.179 -0.492 0.852 32 33 35 0 0
3.5859 -2.7151 -15.3057 0.362 -0.432 0.826 11 11 13 0 0
3.5940 -2.7264 -15.3340 0.525 -0.753 0.396 10 10 13 0 0
3.6127 -2.7724 -15.8741 0.337 -0.425 0.840 7 8 8 0 0
3.5338 -2.6848 -16.1213 0.801 0.395 0.450 47 49 48 0 0
3.6489 -2.8199 -15.9334 0.541 -0.525 0.657 15 16 20 0 0
3.6529 -2.8265 -15.9736 0.645 -0.638 0.420 12 13 16 0 0
3.8333 -3.0503 -15.9662 0.550 -0.817 0.172 30 30 30 0 0
3.8447 -3.0718 -16.1404 0.471 -0.870 0.143 66 66 64 0 0
4.0486 -3.3484 -16.6928 -0.061 -0.381 0.922 204 204 206 0 0
4.0718 -3.3767 -16.6818 0.163 -0.679 0.716 205 205 207 0 0
-1.5421 3.7240 -12.4145 0.051 0.272 0.961 109 49 38 0 0
-1.4770 3.6449 -12.3797 0.523 -0.416 0.743 110 49 38 0 0
-1.4805 3.6473 -12.4214 0.849 0.058 0.526 109 49 38 0 0
1.1361 0.3529 -13.5922 0.475 -0.081 0.876 145 83 54 0 0
1.1489 0.3362 -13.6125 0.844 -0.203 0.496 153 71 40 0 0
2.3325 -1.1358 -13.7275 -0.045 -0.217 0.975 139 53 27 0 0
2.6008 -1.4701 -13.7655 0.219 -0.154 0.963 118 52 31 0 0
2.6136 -1.4866 -13.7828 0.064 -0.708 0.703 133 64 35 0 0
2.8721 -1.8070 -13.7823 0.293 -0.175 0.940 158 79 40 0 0
2.8886 -1.8279 -13.7914 0.354 -0.314 0.881 162 85 42 0 0
3.2597 -2.3201 -14.5291 0.538 -0.834 -0.124 46 46 47 0 0
3.2998 -2.3958 -15.1225 0.664 -0.553 0.503 7 7 9 0 0
3.5042 -2.6552 -15.2591 0.058 -0.414 0.908 45 46 47 0 0
3.5521 -2.7159 -15.2876 0.179 -0.492 0.852 39 40 42 0 0
3.5643 -2.7318 -15.3062 0.256 -0.618 0.743 14 13 17 0 0
3.5851 -2.7787 -15.7892 0.790 -0.597 0.139 8 8 10 0 0
3.5384 -2.7347 -16.1051 0.949 0.084 0.305 62 63 66 0 0
3.9383 -3.2574 -16.7227 0.159 -0.422 0.892 193 193 195 0 0
3.9946 -3.3227 -16.6210 0.662 -0.383 0.645 195 195 197 0 0
4.0193 -3.3551 -16.6597 0.529 -0.786 0.320 200 200 202 0 0
4.0332 -3.3729 -16.6748 0.413 -0.270 0.870 202 202 204 0 0
0.6461 0.9505 -12.7574 0.526 0.105 0.844 152 78 56 0 0
0.8328 0.7195 -12.7588 0.333 -0.733 0.593 150 78 56 0 0
1.1214 0.3233 -13.6191 -0.057 -0.798 0.600 165 84 48 0 0
2.1901 -1.0022 -13.6990 0.353 -0.225 0.908 142 64 32 0 0
2.5758 -1.4827 -13.7721 0.097 -0.421 0.902 160 87 47 0 0
2.5874 -1.4978 -13.7917 0.064 -0.708 0.703 159 81 39 0 0
3.1053 -2.1378 -13.7755 0.799 -0.318 0.510 180 118 100 0 0
3.2346 -2.3323 -14.5375 0.184 -0.981 -0.055 45 44 46 0 0
3.2840 -2.4194 -15.1092 0.730 -0.366 0.577 6 6 8 0 0
3.5334 -2.7357 -15.2813 0.428 -0.290 0.856 48 49 52 0 0
3.5388 -2.7683 -15.8496 0.820 -0.258 0.510 8 8 10 0 0
3.7975 -3.0951 -15.9975 0.421 -0.790 0.446 34 33 34 0 0
3.8041 -3.1047 -16.0311 0.538 -0.767 0.351 55 55 54 0 0
3.8131 -3.1171 -16.0586 0.528 -0.629 0.571 60 60 61 0 0
3.8305 -3.1412 -16.1150 0.764 -0.025 0.645 69 66 64 0 0
3.9420 -3.3035 -16.6520 0.773 -0.387 0.503 192 192 194 0 0
3.9646 -3.3336 -16.6967 0.440 -0.825 0.355 199 199 201 0 0
3.9889 -3.3655 -16.7368 0.489 -0.582 0.649 202 202 204 0 0
-2.1259 4.3400 -12.4607 0.614 0.374 0.695 100 53 46 0 0
0.1053 1.5815 -12.5517 0.191 -0.274 0.943 123 41 19 0 0
0.8152 0.6903 -12.8653 0.484 -0.709 0.513 163 85 60 0 0
0.9384 0.5376 -12.8780 0.504 -0.454 0.735 69 11 5 0 0
1.7862 -0.5483 -13.7116 0.193 -0.263 0.945 116 47 18 0 0
1.8055 -0.5725 -13.7195 0.132 -0.253 0.959 128 55 26 0 0
2.2380 -1.1072 -13.7375 0.463 -0.160 0.872 115 45 22 0 0
2.4085 -1.3185 -13.7552 0.576 0.086 0.813 115 52 22 0 0
2.4291 -1.3441 -13.7583 0.310 -0.230 0.922 139 73 39 0 0
2.4490 -1.3688 -13.7626 -0.023 -0.219 0.975 149 79 43 0 0
3.0955 -2.1664 -13.7534 0.814 0.030 0.580 182 115 98 0 0
3.2974 -2.4178 -13.7986 0.076 -0.798 0.598 182 142 136 0 0
3.5281 -2.7730 -15.2901 0.531 -0.086 0.843 23 23 27 0 0
3.7767 -3.1154 -16.0459 0.787 -0.115 0.606 71 71 68 0 0
3.9361 -3.3388 -16.6078 0.415 -0.053 0.908 192 192 194 0 0
3.9384 -3.3463 -16.7083 0.549 -0.410 0.728 197 197 199 0 0
3.9648 -3.3805 -16.7427 0.413 -0.766 0.493 202 202 204 0 0
4.1064 -3.5493 -16.6162 -0.699 -0.244 0.672 207 207 207 0 0
-2.1793 4.3519 -12.4890 0.040 0.444 0.895 100 51 46 0 0
-0.1827 1.8926 -12.4794 0.112 -0.641 0.759 126 44 23 0 0
0.3599 1.2184 -12.5952 0.559 -0.094 0.824 127 43 19 0 0
1.7824 -0.5889 -13.7206 0.132 -0.253 0.959 114 41 28 0 0
1.9778 -0.8292 -13.7098 0.078 -0.387 0.919 140 61 30 0 0
2.2396 -1.1530 -13.7361 0.337 0.074 0.939 99 35 18 0 0
2.3927 -1.3420 -13.7443 0.505 -0.127 0.854 150 76 33 0 0
2.4099 -1.3636 -13.7538 0.477 -0.231 0.848 154 75 31 0 0
2.4264 -1.3844 -13.7644 0.025 -0.234 0.972 150 66 24 0 0
2.5487 -1.5361 -13.7835 0.037 -0.389 0.920 161 78 34 0 0
2.5862 -1.5828 -13.7954 0.035 -0.405 0.914 158 84 50 0 0
3.0649 -2.1776 -13.8984 0.314 -0.671 0.672 136 96 60 0 0
3.3186 -2.4975 -14.0490 0.503 -0.429 0.750 78 15 3 0 0
3.1963 -2.3790 -14.7065 0.936 0.033 0.350 40 40 45 0 0
3.2503 -2.4640 -15.0876 0.785 -0.294 0.545 8 7 12 0 0
3.2485 -2.4711 -15.2780 0.504 -0.688 0.523 7 7 9 0 0
3.5324 -2.8419 -15.7093 0.770 -0.446 0.457 10 10 12 0 0
3.5107 -2.8298 -16.0095 0.767 -0.061 0.638 47 46 50 0 0
3.5266 -2.8523 -16.0702 0.963 -0.170 0.208 16 15 21 0 0
3.9193 -3.3670 -16.7002 0.740 -0.082 0.667 197 197 199 0 0
3.9301 -3.3814 -16.7241 0.729 0.050 0.682 199 199 201 0 0
0.2584 1.2972 -12.5872 0.497 -0.403 0.768 130 45 24 0 0
0.5060 0.9906 -12.6279 0.081 -0.436 0.896 130 45 21 0 0
0.5233 0.9686 -12.6417 0.130 -0.468 0.874 130 46 22 0 0
0.7825 0.6397 -12.8460 0.534 -0.674 0.510 166 96 71 0 0
0.9051 0.4882 -12.8596 0.302 -0.467 0.831 66 11 2 0 0
1.0770 0.2427 -13.5392 0.201 -0.348 0.916 58 24 14 0 0
1.6157 -0.4248 -13.6386 0.167 -0.790 0.590 144 57 26 0 0
1.7263 -0.5636 -13.6963 0.103 -0.146 0.984 121 46 28 0 0
2.2213 -1.1739 -13.7296 0.329 0.030 0.944 121 55 26 0 0
2.3649 -1.3517 -13.7556 0.089 -0.401 0.912 149 62 23 0 0
2.5246 -1.5498 -13.7883 0.037 -0.389 0.920 149 78 42 0 0
2.5440 -1.5738 -13.7932 0.734 -0.226 0.641 129 62 33 0 0
3.0422 -2.1919 -13.9021 0.314 -0.671 0.672 150 106 65 0 0
3.0541 -2.2074 -13.9199 0.320 -0.578 0.751 87 48 25 0 0
3.2438 -2.4422 -13.9505 0.483 -0.687 0.543 134 54 25 0 0
3.2571 -2.4614 -14.0075 0.545 -0.487 0.682 117 31 4 0 0
3.2993 -2.5152 -14.0462 0.503 -0.429 0.750 78 14 1 0 0
3.2104 -2.4265 -14.4523 0.919 -0.161 0.360 44 45 47 0 0
3.5036 -2.8487 -15.6777 0.357 -0.913 0.197 11 11 13 0 0
3.4894 -2.8479 -16.0078 0.422 -0.348 0.837 35 35 38 0 0
3.5036 -2.8661 -16.0226 0.422 -0.348 0.837 46 45 50 0 0
3.7018 -3.1074 -15.9756 0.573 -0.219 0.790 70 67 74 0 0
3.7156 -3.1251 -15.9905 0.573 -0.219 0.790 44 41 48 0 0
3.9200 -3.4145 -16.7450 0.702 -0.433 0.566 201 201 203 0 0
0.8136 0.5498 -12.9591 0.454 -0.737 0.501 69 10 1 0 0
2.3655 -1.3959 -13.7557 0.150 -0.318 0.936 149 66 27 0 0
2.3828 -1.4176 -13.7649 0.449 -0.317 0.835 159 79 40 0 0
2.3989 -1.4379 -13.7764 0.104 -0.234 0.967 156 81 44 0 0
2.5005 -1.5634 -13.7933 0.137 -0.212 0.968 116 50 33 0 0
3.0354 -2.2262 -13.9154 0.327 -0.725 0.606 99 59 36 0 0
3.2918 -2.6161 -15.3609 0.163 -0.515 0.842 26 26 31 0 0
3.6861 -3.1311 -15.9603 0.621 -0.323 0.714 68 66 72 0 0
3.6986 -3.1474 -15.9786 0.621 -0.323 0.714 60 58 63 0 0
-0.5222 2.1658 -12.4751 0.500 -0.631 0.593 123 48 29 0 0
-0.0318 1.5663 -12.4564 0.526 -0.270 0.806 129 47 25 0 0
-0.0304 1.5626 -12.4918 0.536 -0.513 0.671 129 47 25 0 0
1.3035 -0.1407 -13.7923 0.372 -0.836 0.403 134 67 41 0 0
1.3622 -0.2095 -13.7377 0.117 -0.122 0.986 127 47 18 0 0
1.9215 -0.8920 -13.6920 0.138 -0.126 0.982 113 53 40 0 0
2.3799 -1.4577 -13.7714 0.036 -0.395 0.918 114 53 31 0 0
3.2561 -2.5432 -14.0075 0.185 -0.481 0.857 128 44 10 0 0
3.1717 -2.4971 -15.0723 0.475 -0.786 0.397 11 10 15 0 0
3.1853 -2.5146 -15.0879 0.259 -0.885 0.388 9 8 13 0 0
3.7233 -3.2257 -16.0609 0.321 -0.671 0.669 63 63 63 0 0
3.7162 -3.2206 -16.1298 0.071 -0.922 0.381 67 66 67 0 0
0.2864 1.1222 -12.6053 0.482 -0.589 0.649 130 46 22 0 0
0.3727 1.0148 -12.6390 0.267 -0.327 0.907 134 50 26 0 0
0.7829 0.4970 -12.9366 0.440 -0.641 0.629 77 10 1 0 0
1.1937 -0.0444 -13.6482 0.513 0.045 0.857 145 78 45 0 0
1.8772 -0.8819 -13.6896 -0.053 -0.352 0.934 102 44 26 0 0
1.8998 -0.9096 -13.6912 0.138 -0.126 0.982 120 63 46 0 0
3.1801 -2.4888 -13.9538 0.559 -0.356 0.749 123 47 26 0 0
3.4539 -2.9114 -15.5444 0.505 -0.717 0.481 20 20 23 0 0
3.6099 -3.1214 -15.8939 0.278 -0.064 0.958 34 35 40 0 0
3.6854 -3.2308 -16.2037 0.844 -0.266 0.466 68 66 65 0 0
3.6952 -3.2442 -16.2292 0.844 -0.266 0.466 75 71 65 0 0
3.7070 -3.2598 -16.2497 0.219 -0.856 0.468 81 77 73 0 0
-0.5946 2.1605 -12.4290 0.421 -0.169 0.891 119 43 24 0 0
-0.2039 1.6839 -12.4287 0.328 -0.349 0.878 124 42 21 0 0
-0.1997 1.6749 -12.4978 0.367 -0.455 0.812 125 43 21 0 0
0.3572 0.9882 -12.6283 0.279 -0.241 0.929 143 59 35 0 0
2.1896 -1.3106 -13.7522 0.276 -0.272 0.922 123 60 35 0 0
2.2058 -1.3311 -13.7637 0.013 -0.207 0.978 106 45 21 0 0
3.6835 -3.2988 -16.6672 0.456 -0.736 0.501 158 157 155 0 0
3.6812 -3.2993 -16.7259 0.701 -0.692 0.172 164 163 161 0 0
0.9932 0.1082 -13.6490 0.508 -0.298 0.808 138 72 53 0 0
1.1525 -0.0875 -13.6806 0.022 -0.806 0.591 115 34 10 0 0
2.0073 -1.1297 -13.7113 0.335 -0.133 0.933 142 72 42 0 0
2.1442 -1.2989 -13.7535 -0.018 -0.572 0.820 105 45 27 0 0
2.1596 -1.3184 -13.7667 -0.018 -0.572 0.820 114 53 37 0 0
2.5499 -1.7923 -13.7451 0.145 -0.198 0.969 144 59 32 0 0
2.5756 -1.8230 -13.7378 0.101 -0.458 0.883 131 48 21 0 0
3.0991 -2.5183 -14.7286 0.871 -0.368 0.325 41 42 47 0 0
3.1060 -2.5284 -14.7583 0.871 -0.368 0.325 40 41 46 0 0
3.1083 -2.5336 -14.7979 0.903 -0.228 0.364 40 41 46 0 0
3.3621 -2.9129 -16.0006 0.171 -0.407 0.897 7 7 9 0 0
3.3758 -2.9306 -16.0166 -0.148 -0.737 0.660 9 9 11 0 0
3.3843 -2.9426 -16.0455 0.016 -0.895 0.446 36 36 38 0 0
3.3832 -2.9444 -16.0975 0.322 -0.910 0.262 54 53 57 0 0
3.6469 -3.2978 -16.6529 0.679 -0.431 0.595 148 146 144 0 0
3.6580 -3.3127 -16.6761 0.774 -0.363 0.520 158 156 155 0 0
3.6663 -3.3276 -16.7593 0.764 -0.627 0.152 170 169 167 0 0
-0.7098 2.2062 -12.3973 0.356 -0.346 0.868 120 47 28 0 0
-0.0805 1.4307 -12.5826 0.539 -0.171 0.825 136 52 28 0 0
0.1648 1.1339 -12.5611 -0.041 -0.526 0.850 130 46 22 0 0
0.5202 0.6951 -12.6795 0.525 -0.257 0.812 155 78 57 0 0
0.6896 0.4270 -13.7162 -0.361 -0.834 0.417 11 7 8 0 0
1.1084 -0.0769 -13.6333 0.786 -0.061 0.615 130 72 50 0 0
1.9831 -1.1443 -13.7150 0.216 -0.819 0.531 123 64 39 0 0
1.9992 -1.1646 -13.7274 0.221 -0.647 0.730 107 52 34 0 0
2.3143 -1.5477 -13.7333 0.107 -0.540 0.835 142 66 36 0 0
3.6276 -3.3184 -16.6453 -0.204 -0.544 0.814 146 145 143 0 0
3.6413 -3.3360 -16.6617 0.705 -0.503 0.499 156 154 152 0 0
-0.5979 2.0166 -12.4924 0.328 -0.193 0.925 119 39 21 0 0
0.1338 1.1247 -12.5709 -0.030 -0.574 0.818 126 41 17 0 0
0.6093 0.5396 -12.7114 -0.134 -0.627 0.768 156 91 66 0 0
0.8909 0.1473 -13.5351 0.481 0.159 0.862 7 3 1 0 0
0.9542 0.0667 -13.5974 0.567 -0.683 0.460 143 59 28 0 0
0.9355 0.0851 -13.6661 0.673 -0.476 0.566 153 83 62 0 0
1.8354 -1.0073 -13.6899 0.133 -0.368 0.920 130 54 21 0 0
2.2924 -1.5641 -13.7339 0.152 -0.389 0.909 140 62 30 0 0
2.3096 -1.5855 -13.7432 0.059 -0.293 0.954 145 65 34 0 0
2.3450 -1.6269 -13.7193 0.080 -0.422 0.903 134 50 22 0 0
3.0638 -2.5409 -14.4061 0.333 -0.870 0.364 48 35 33 0 0
3.0704 -2.5507 -14.4355 0.333 -0.870 0.364 42 34 31 0 0
3.0770 -2.5605 -14.4650 0.333 -0.870 0.364 40 37 34 0 0
3.0989 -2.6397 -15.3157 0.741 -0.515 0.431 39 38 42 0 0
3.2714 -2.8504 -15.3438 -0.115 -0.763 0.636 13 12 14 0 0
3.2888 -2.9074 -15.9237 0.267 -0.454 0.850 13 13 15 0 0
3.6097 -3.3026 -16.0244 0.889 -0.138 0.436 47 46 44 0 0
3.6248 -3.3216 -16.0361 0.923 -0.345 0.173 78 77 73 0 0
3.6077 -3.3067 -16.1293 0.463 -0.808 0.364 70 68 64 0 0
3.6098 -3.3120 -16.1740 0.537 -0.843 0.008 69 65 62 0 0
3.6156 -3.3497 -16.6711 0.222 -0.854 0.470 156 154 152 0 0
3.6250 -3.3629 -16.6986 0.652 -0.700 0.292 163 162 160 0 0
3.9054 -3.6954 -16.5784 0.694 -0.564 0.448 206 206 206 0 0
0.5617 0.5522 -12.7081 0.421 -0.670 0.612 154 101 91 0 0
0.7041 0.3167 -13.7030 -0.299 0.058 0.953 11 7 8 0 0
0.8770 0.1191 -13.5209 0.254 -0.042 0.966 8 3 3 0 0
0.9568 0.0075 -13.7576 -0.286 -0.664 0.691 114 73 51 0 0
0.9671 -0.0065 -13.7819 -0.316 -0.350 0.882 143 85 65 0 0
1.7975 -1.0045 -13.6764 0.265 -0.730 0.630 135 67 38 0 0
1.9335 -1.1721 -13.7246 0.309 -0.691 0.653 113 49 33 0 0
2.1474 -1.4301 -13.7124 -0.121 -0.519 0.846 139 54 27 0 0
2.6939 -2.0996 -13.8423 0.534 -0.366 0.762 142 79 63 0 0
2.8258 -2.2638 -13.9159 0.454 0.295 0.841 149 74 48 0 0
2.8462 -2.2886 -13.9170 0.202 0.303 0.931 160 82 55 0 0
2.9392 -2.4051 -13.9815 0.357 -0.508 0.784 145 83 43 0 0
3.0441 -2.5895 -14.8872 0.888 -0.384 0.255 30 30 35 0 0
3.0506 -2.5994 -14.9179 0.564 -0.810 0.162 24 24 28 0 0
3.3826 -3.0689 -15.9880 0.404 -0.091 0.910 41 42 47 0 0
3.3925 -3.0825 -16.0130 0.634 -0.186 0.750 13 15 19 0 0
3.4147 -3.1090 -16.0083 0.478 0.143 0.866 22 23 27 0 0
3.5900 -3.3282 -16.1188 0.692 -0.367 0.621 73 73 71 0 0
3.5923 -3.3662 -16.6738 0.725 -0.544 0.421 155 154 152 0 0
3.6038 -3.3815 -16.6959 0.652 -0.700 0.292 161 161 159 0 0
3.6120 -3.3933 -16.7269 0.779 -0.625 0.046 168 167 165 0 0
-0.4719 1.7683 -12.5012 0.663 0.113 0.740 127 47 24 0 0
-0.3806 1.6583 -12.4994 0.273 -0.224 0.936 131 49 26 0 0
0.6614 0.3199 -13.7319 0.238 -0.575 0.783 11 7 8 0 0
0.8816 0.0704 -13.4786 0.307 -0.556 0.773 8 3 4 0 0
0.8723 0.0782 -13.5323 0.218 -0.906 0.362 7 4 2 0 0
0.8896 0.0434 -13.7451 0.727 -0.040 0.685 208 164 158 0 0
0.9117 0.0164 -13.7511 0.563 -0.301 0.770 167 128 112 0 0
2.1229 -1.4439 -13.7173 0.284 0.051 0.958 124 49 26 0 0
2.6843 -2.1312 -13.8612 0.338 -0.184 0.923 125 46 13 0 0
2.7502 -2.2105 -13.8572 0.684 -0.377 0.624 155 86 46 0 0
2.7957 -2.2703 -13.9337 0.515 -0.279 0.810 149 76 53 0 0
2.8555 -2.3403 -13.8986 0.568 0.192 0.800 162 81 46 0 0
3.3759 -3.1053 -16.0001 0.497 -0.544 0.675 17 19 23 0 0
3.3880 -3.1212 -16.0199 0.463 -0.473 0.750 19 19 24 0 0
3.5732 -3.3505 -16.1064 0.828 -0.385 0.408 71 71 71 0 0
3.5639 -3.3806 -16.7422 0.656 -0.702 0.277 161 161 159 0 0
3.5744 -3.3949 -16.7671 0.693 -0.424 0.584 168 167 165 0 0
3.5927 -3.4207 -16.8239 0.595 -0.334 0.731 179 179 179 0 0
3.6045 -3.4363 -16.8456 0.564 -0.642 0.520 186 186 186 0 0
3.8569 -3.7246 -16.5921 0.393 -0.721 0.571 207 207 207 0 0
-0.8665 2.2013 -12.4295 0.547 -0.450 0.706 121 47 28 0 0
-0.1487 1.3284 -12.5476 0.483 -0.407 0.775 126 44 20 0 0
0.3477 0.7217 -12.6761 0.138 -0.436 0.889 137 54 30 0 0
0.4909 0.5497 -12.6673 0.317 -0.700 0.640 171 110 94 0 0
1.6018 -0.8544 -13.6501 -0.157 -0.699 0.698 121 54 26 0 0
1.7575 -1.0434 -13.6691 0.389 -0.027 0.921 111 46 27 0 0
2.6880 -2.1771 -13.8545 0.046 -0.397 0.917 159 81 37 0 0
3.0636 -2.6633 -14.3603 0.995 -0.098 -0.004 22 11 8 0 0
3.0632 -2.6658 -14.4042 0.995 -0.098 -0.004 15 7 7 0 0
3.3541 -3.1227 -15.9999 0.463 -0.473 0.750 14 16 20 0 0
3.3668 -3.1392 -16.0182 0.463 -0.473 0.750 20 20 25 0 0
3.5379 -3.3908 -16.6998 0.372 -0.636 0.676 155 155 153 0 0
3.5484 -3.4051 -16.7248 0.379 -0.897 0.227 161 161 159 0 0
3.5555 -3.4159 -16.7584 0.612 -0.527 0.589 168 167 165 0 0
3.5558 -3.4197 -16.8098 0.190 -0.492 0.849 174 173 171 0 0
3.5649 -3.4325 -16.8386 0.750 -0.355 0.558 178 178 178 0 0
3.5827 -3.4544 -16.8444 0.564 -0.642 0.520 184 184 184 0 0
-1.0154 2.3349 -12.3902 0.443 -0.314 0.839 119 47 28 0 0
-0.0374 1.1472 -12.5596 0.295 -0.506 0.810 126 44 20 0 0
0.4649 0.5355 -12.6713 0.662 -0.481 0.575 163 106 90 0 0
0.4953 0.4941 -12.7415 0.575 -0.513 0.637 152 77 56 0 0
0.8036 0.0671 -13.5658 -0.226 -0.871 0.436 6 3 1 0 0
1.5692 -0.8605 -13.6670 -0.039 -0.570 0.821 100 42 28 0 0
1.9189 -1.2817 -13.6760 0.241 -0.350 0.905 149 66 35 0 0
1.9423 -1.3125 -13.7158 0.452 -0.515 0.728 128 50 27 0 0
2.7445 -2.2849 -13.8280 0.764 -0.264 0.589 114 50 23 0 0
3.3433 -3.1548 -16.0219 0.099 -0.846 0.525 22 23 27 0 0
3.3491 -3.1641 -16.0571 0.332 -0.790 0.516 37 35 41 0 0
3.3660 -3.1851 -16.0651 0.442 -0.755 0.485 39 36 43 0 0
3.4964 -3.3402 -16.0410 0.366 -0.244 0.898 63 61 67 0 0
3.5440 -3.3994 -16.0710 0.903 -0.238 0.357 91 90 90 0 0
3.4589 -3.3289 -16.5366 0.540 -0.796 -0.273 94 89 86 0 0
3.5785 -3.4764 -16.5894 0.540 -0.754 0.374 163 162 160 0 0
3.7375 -3.6674 -16.5865 -0.035 -0.979 0.201 201 201 203 0 0
3.7396 -3.6731 -16.6329 0.023 -0.990 0.142 203 203 205 0 0
3.7521 -3.6894 -16.6517 -0.207 -0.935 0.289 205 205 207 0 0
-1.0400 2.3163 -12.3899 0.327 -0.401 0.856 119 48 28 0 0
-0.0532 1.1208 -12.5495 0.405 -0.376 0.833 125 43 19 0 0
0.4594 0.4987 -12.6474 0.583 -0.806 0.103 169 108 93 0 0
0.8404 -0.0275 -13.6332 0.812 -0.195 0.551 138 67 44 0 0
2.1129 -1.5622 -13.7403 0.152 -0.456 0.877 165 103 63 0 0
2.3895 -1.9017 -13.8468 -0.108 -0.561 0.821 169 90 43 0 0
2.4567 -1.9793 -13.8036 0.325 -0.219 0.920 151 83 63 0 0
3.0397 -2.8029 -15.5767 0.910 -0.395 0.123 7 5 5 0 0
3.1951 -3.0211 -16.0308 0.313 0.055 0.948 21 21 23 0 0
3.4406 -3.3154 -16.0264 0.735 -0.331 0.592 57 55 60 0 0
3.5330 -3.4345 -16.1433 0.773 -0.634 -0.017 88 90 85 0 0
3.7032 -3.6684 -16.5678 -0.203 -0.924 0.324 198 198 200 0 0
3.7077 -3.6766 -16.6076 0.041 -0.927 0.374 201 201 203 0 0
3.8039 -3.7924 -16.6111 0.636 -0.439 0.635 207 207 208 0 0
-1.0708 2.3045 -12.3968 -0.014 -0.596 0.803 119 48 28 0 0
-0.9559 2.1685 -12.3735 0.134 -0.156 0.979 119 44 25 0 0
-0.0756 1.1016 -12.5478 0.501 -0.271 0.822 127 45 21 0 0
0.7326 0.0582 -13.6025 -0.086 -0.035 0.996 9 5 4 0 0
0.7549 0.0311 -13.6085 0.113 -0.206 0.972 9 4 4 0 0
0.8221 -0.0507 -13.6256 0.506 -0.161 0.848 133 61 32 0 0
0.8366 -0.0693 -13.6432 0.797 -0.121 0.592 147 83 63 0 0
1.3501 -0.6894 -13.7123 0.138 -0.741 0.657 111 48 37 0 0
2.0884 -1.5760 -13.7453 0.302 -0.500 0.812 184 124 77 0 0
2.9402 -2.6159 -14.0196 0.485 -0.229 0.844 81 14 2 0 0
3.0221 -2.8014 -15.2431 0.634 -0.760 0.140 54 17 10 0 0
3.0243 -2.8070 -15.2839 0.634 -0.760 0.140 52 16 11 0 0
3.0266 -2.8127 -15.3248 0.634 -0.760 0.140 50 17 13 0 0
3.0232 -2.8124 -15.3784 0.543 -0.831 0.118 37 11 8 0 0
3.0098 -2.8185 -15.6888 0.618 -0.786 0.004 12 7 9 0 0
3.0428 -2.8765 -15.9473 0.333 -0.328 0.884 7 7 9 0 0
3.4652 -3.3870 -16.0108 0.646 -0.411 0.643 61 58 66 0 0
3.5081 -3.4413 -16.0524 0.638 -0.479 0.604 109 108 106 0 0
3.5167 -3.4537 -16.0803 0.599 -0.755 0.266 117 117 115 0 0
3.5196 -3.4601 -16.1227 0.535 -0.817 0.213 97 97 94 0 0
3.5251 -3.4694 -16.1583 0.551 -0.772 0.317 86 83 79 0 0
3.6192 -3.6229 -16.7308 -0.031 0.254 0.967 199 199 201 0 0
3.6784 -3.6864 -16.6272 0.170 -0.933 0.318 201 201 203 0 0
3.7893 -3.8168 -16.5920 0.316 -0.527 0.789 207 207 208 0 0
0.1480 0.7820 -12.6325 0.340 -0.621 0.706 132 48 24 0 0
0.1606 0.7656 -12.6530 0.340 -0.621 0.706 139 55 30 0 0
0.4454 0.4178 -12.7521 0.234 -0.599 0.766 158 75 45 0 0
0.5420 0.2957 -12.8428 0.740 -0.522 0.424 155 82 54 0 0
0.5901 0.2322 -12.9258 0.713 -0.258 0.651 73 11 1 0 0
0.5907 0.2288 -12.9627 0.530 -0.539 0.654 67 11 2 0 0
0.7737 -0.0383 -13.6241 0.198 0.014 0.980 140 60 25 0 0
0.8169 -0.0910 -13.6378 0.455 -0.358 0.815 154 89 61 0 0
1.5039 -0.9141 -13.6638 0.153 -0.365 0.918 136 59 32 0 0
1.5212 -0.9356 -13.6753 0.153 -0.365 0.918 143 61 29 0 0
1.5384 -0.9571 -13.6867 0.153 -0.365 0.918 141 57 25 0 0
2.1718 -1.7254 -13.8404 0.596 0.009 0.803 169 88 42 0 0
2.8747 -2.5945 -14.2353 0.893 -0.229 0.387 62 12 4 0 0
2.9996 -2.8010 -15.0183 0.506 -0.858 0.092 79 36 27 0 0
2.9993 -2.8139 -15.1998 0.624 -0.769 0.143 50 14 8 0 0
3.0016 -2.8196 -15.2404 0.624 -0.769 0.143 55 19 12 0 0
3.0039 -2.8253 -15.2811 0.624 -0.769 0.143 52 16 11 0 0
2.9992 -2.8272 -15.3834 0.489 -0.865 0.112 41 11 7 0 0
2.9878 -2.8358 -15.6887 0.618 -0.786 0.004 14 8 8 0 0
3.0212 -2.8946 -15.9459 0.333 -0.328 0.884 6 6 8 0 0
3.3826 -3.3753 -16.6120 -0.195 0.252 0.948 113 108 105 0 0
3.5514 -3.5755 -16.5915 0.224 -0.623 0.750 177 176 174 0 0
3.6042 -3.6512 -16.7643 0.728 -0.686 0.012 201 201 203 0 0
-0.5449 1.5741 -12.4862 0.280 -0.381 0.881 126 44 22 0 0
-0.1210 1.0640 -12.5454 0.413 -0.345 0.843 129 46 22 0 0
0.5848 0.1926 -12.9385 0.640 -0.320 0.698 61 12 3 0 0
1.5921 -1.0675 -13.7201 0.154 -0.548 0.822 122 48 24 0 0
2.2444 -1.8540 -13.8322 0.275 -0.325 0.905 141 72 27 0 0
2.9780 -2.8012 -14.7962 0.549 -0.831 0.091 88 51 42 0 0
2.9688 -2.8563 -15.6819 0.731 -0.681 0.055 15 9 9 0 0
3.7321 -3.8375 -16.6285 -0.165 -0.386 0.908 207 207 208 0 0
-0.4602 1.4254 -12.4997 0.171 -0.250 0.953 125 43 21 0 0
-0.3008 1.2311 -12.5589 0.129 -0.414 0.901 127 43 19 0 0
0.3637 0.4329 -12.6521 0.545 -0.776 0.317 163 92 78 0 0
0.5311 0.2170 -12.8687 0.499 -0.617 0.608 117 29 7 0 0
0.5991 0.1347 -12.8858 0.549 -0.380 0.744 59 9 1 0 0
1.3634 -0.8343 -13.6608 0.002 -0.341 0.940 158 69 32 0 0
1.5439 -1.0540 -13.7232 0.426 -0.065 0.902 113 38 21 0 0
2.1443 -1.7726 -13.7717 0.099 -0.306 0.947 129 53 22 0 0
2.1678 -1.8035 -13.8102 0.364 -0.106 0.925 177 110 64 0 0
2.1969 -1.8373 -13.7982 0.066 -0.244 0.968 148 83 49 0 0
2.2300 -1.8783 -13.8191 0.330 -0.079 0.941 116 49 21 0 0
2.3014 -1.9626 -13.8106 0.675 -0.019 0.737 129 66 47 0 0
2.3121 -1.9769 -13.8315 0.574 0.016 0.819 119 49 32 0 0
2.9531 -2.7812 -14.3706 0.778 -0.598 0.192 58 12 6 0 0
2.9569 -2.7916 -14.4484 0.787 -0.616 0.041 58 10 4 0 0
2.9588 -2.7969 -14.4872 0.726 -0.687 -0.022 64 18 10 0 0
2.9453 -2.8439 -15.3142 0.162 -0.964 0.211 48 11 6 0 0
2.9530 -2.8587 -15.3891 0.365 -0.906 0.215 53 16 11 0 0
3.4340 -3.4873 -16.1239 0.142 -0.859 0.492 81 80 80 0 0
3.4180 -3.5135 -16.7173 0.280 -0.138 0.950 171 170 168 0 0
3.6532 -3.7787 -16.5215 -0.354 -0.295 0.887 202 202 204 0 0
3.6655 -3.8065 -16.6950 0.254 -0.628 0.735 206 206 208 0 0
0.4665 0.2532 -12.8143 0.491 -0.760 0.425 149 91 80 0 0
0.5727 0.1210 -12.8906 0.480 -0.706 0.521 60 9 2 0 0
1.5496 -1.1040 -13.7167 0.514 -0.180 0.839 147 81 49 0 0
2.2100 -1.8965 -13.8165 -0.093 -0.528 0.844 119 47 29 0 0
2.2640 -1.9594 -13.7992 0.068 -0.589 0.806 122 54 38 0 0
2.2816 -1.9809 -13.8076 0.528 -0.270 0.805 124 55 36 0 0
2.2967 -1.9998 -13.8204 0.622 -0.057 0.781 125 51 30 0 0
3.3824 -3.4595 -16.0011 0.460 -0.499 0.735 26 24 29 0 0
3.3922 -3.4730 -16.0260 0.467 -0.776 0.424 39 37 41 0 0
3.4070 -3.4955 -16.0874 0.429 -0.723 0.541 80 78 79 0 0
3.6417 -3.8220 -16.7000 0.254 -0.628 0.735 207 207 209 0 0
-0.4053 1.2657 -12.5194 0.278 -0.367 0.888 129 44 23 0 0
-0.1851 1.0003 -12.5733 0.332 -0.172 0.927 129 45 21 0 0
0.2262 0.5083 -12.6269 0.407 -0.403 0.820 136 53 28 0 0
0.2990 0.4179 -12.6769 0.449 -0.534 0.716 162 87 72 0 0
2.0951 -1.7997 -13.7824 0.032 -0.424 0.905 126 68 48 0 0
2.1132 -1.8218 -13.7904 0.219 -0.306 0.926 110 46 29 0 0
2.8226 -2.6966 -14.2126 0.369 -0.634 0.679 80 39 31 0 0
2.8331 -2.7107 -14.2336 0.342 -0.427 0.837 65 22 15 0 0
2.8767 -2.8416 -15.2325 -0.013 -0.963 0.269 46 15 12 0 0
2.8790 -2.8476 -15.2728 0.249 -0.920 0.301 48 18 14 0 0
2.8850 -2.8573 -15.3054 0.286 -0.902 0.322 40 11 7 0 0
2.8916 -2.8676 -15.3364 0.519 -0.769 0.373 31 5 1 0 0
2.8965 -2.8762 -15.3716 0.458 -0.832 0.313 27 4 1 0 0
-0.8826 1.7934 -12.4079 0.294 -0.268 0.918 123 45 23 0 0
-0.2039 0.9772 -12.5671 0.254 -0.428 0.867 130 46 22 0 0
-0.1768 0.9450 -12.5694 0.137 -0.424 0.895 129 45 21 0 0
-0.1586 0.9223 -12.5829 0.137 -0.424 0.895 136 52 28 0 0
-0.1385 0.8976 -12.5939 0.862 -0.337 0.379 130 46 22 0 0
0.2801 0.3960 -12.6714 0.602 -0.425 0.676 149 78 62 0 0
0.6734 -0.1542 -13.7181 0.513 -0.105 0.852 147 85 69 0 0
1.9169 -1.6274 -13.7368 0.253 -0.017 0.967 132 74 49 0 0
1.9328 -1.6472 -13.7491 0.541 -0.006 0.841 115 52 36 0 0
1.9533 -1.6718 -13.7535 0.407 -0.018 0.913 110 46 23 0 0
1.9725 -1.6951 -13.7598 0.263 -0.009 0.965 122 60 34 0 0
1.9923 -1.7190 -13.7652 0.159 -0.076 0.984 130 68 47 0 0
2.0854 -1.8289 -13.7612 0.450 0.035 0.892 118 49 29 0 0
2.8913 -2.9361 -15.6583 0.581 -0.329 0.744 8 2 3 0 0
3.0109 -3.0825 -15.7178 0.453 -0.863 0.224 6 6 8 0 0
3.1087 -3.2185 -15.9682 0.355 -0.275 0.893 43 42 48 0 0
3.2207 -3.4051 -16.6361 -0.122 -0.834 0.539 118 114 111 0 0
3.2051 -3.3938 -16.7252 0.082 -0.940 0.330 127 123 122 0 0
-0.9865 1.8674 -12.4280 0.634 -0.548 0.545 121 44 26 0 0
-0.2309 0.9630 -12.5713 0.332 -0.160 0.930 131 47 23 0 0
-0.2042 0.9312 -12.5741 0.238 -0.232 0.943 129 45 21 0 0
-0.1883 0.9111 -12.5906 0.495 -0.143 0.857 131 47 23 0 0
0.2137 0.4310 -12.6555 0.308 -0.417 0.855 143 63 40 0 0
0.4920 0.0845 -12.8698 0.521 -0.511 0.684 89 20 3 0 0
1.5349 -1.2231 -13.7895 0.503 -0.464 0.729 128 51 21 0 0
1.9174 -1.6707 -13.7380 0.532 -0.017 0.847 119 57 42 0 0
1.9354 -1.6927 -13.7467 0.296 -0.028 0.955 108 43 28 0 0
1.9630 -1.7246 -13.7385 0.327 0.006 0.945 113 47 29 0 0
2.1385 -1.9426 -13.8692 0.618 -0.278 0.736 137 48 21 0 0
2.7413 -2.7647 -15.2034 0.060 -0.927 0.370 55 12 6 0 0
2.7487 -2.7758 -15.2326 0.060 -0.927 0.370 59 17 8 0 0
2.7418 -2.7726 -15.2924 0.441 -0.857 0.266 59 16 6 0 0
2.8306 -2.8995 -15.5578 0.310 -0.940 0.144 14 3 3 0 0
3.1834 -3.4081 -16.6728 -0.119 -0.849 0.514 124 120 119 0 0
3.5648 -3.8548 -16.6266 0.462 0.092 0.882 205 205 207 0 0
-1.0052 1.8427 -12.4211 0.510 -0.542 0.667 122 45 27 0 0
-0.2511 0.9416 -12.5670 0.359 -0.137 0.923 132 48 24 0 0
-0.2016 0.8823 -12.5775 0.313 -0.145 0.939 125 41 17 0 0
0.6515 -0.2062 -13.5628 0.528 -0.339 0.778 72 31 16 0 0
1.5093 -1.2335 -13.7551 0.316 -0.492 0.811 155 87 66 0 0
1.7983 -1.5701 -13.7065 0.335 0.100 0.937 121 68 49 0 0
1.8315 -1.6112 -13.7291 -0.044 -0.218 0.975 107 39 29 0 0
2.0533 -1.8804 -13.8216 0.561 -0.358 0.747 139 54 27 0 0
2.0891 -1.9240 -13.8383 0.659 -0.590 0.467 142 57 29 0 0
2.1050 -1.9437 -13.8502 0.501 -0.261 0.825 142 52 24 0 0
2.1209 -1.9634 -13.8620 0.253 -0.309 0.917 149 57 28 0 0
3.1624 -3.4229 -16.6189 -0.067 -0.924 0.376 124 119 116 0 0
3.1690 -3.4335 -16.6532 -0.018 -0.947 0.320 129 125 123 0 0
3.1912 -3.4678 -16.7505 0.164 -0.681 0.714 154 150 151 0 0
3.3230 -3.6127 -16.6261 0.275 -0.840 0.467 177 175 176 0 0
3.3318 -3.6256 -16.6545 0.275 -0.840 0.467 182 180 181 0 0
-0.3831 1.0584 -12.4831 0.275 -0.700 0.659 134 50 26 0 0
1.0853 -0.7725 -13.6897 0.520 -0.424 0.742 169 125 106 0 0
2.5796 -2.5523 -13.9457 0.457 -0.824 0.334 113 43 24 0 0
3.2623 -3.5845 -16.6208 0.643 -0.454 0.616 169 167 169 0 0
-1.0214 1.7676 -12.4192 0.296 -0.393 0.871 122 45 25 0 0
-1.0093 1.7514 -12.4417 0.046 -0.619 0.784 122 45 25 0 0
-0.4112 1.0451 -12.4884 0.285 -0.664 0.691 129 45 21 0 0
0.5984 -0.2381 -13.6118 0.576 -0.280 0.768 160 85 47 0 0
0.8369 -0.5314 -13.7635 0.453 0.032 0.891 178 114 80 0 0
1.0568 -0.7839 -13.6987 0.420 -0.361 0.833 170 123 102 0 0
1.1102 -0.8462 -13.6935 -0.085 -0.505 0.859 117 72 69 0 0
2.5529 -2.5594 -13.9158 0.385 -0.562 0.733 111 44 26 0 0
2.5699 -2.5908 -14.0463 0.616 -0.536 0.577 86 24 11 0 0
3.1540 -3.4504 -16.0413 0.239 -0.159 0.958 69 62 62 0 0
3.1711 -3.4712 -16.0490 0.239 -0.159 0.958 76 72 69 0 0
3.2425 -3.6043 -16.6150 0.792 -0.399 0.462 173 171 174 0 0
3.2567 -3.6223 -16.6301 0.691 -0.116 0.714 178 176 179 0 0
1.1020 -0.8821 -13.7102 -0.083 -0.343 0.936 129 75 53 0 0
2.0498 -2.0035 -13.8333 0.171 -0.592 0.788 133 46 18 0 0
2.5585 -2.6206 -14.0687 0.222 -0.519 0.825 85 25 12 0 0
2.5719 -2.6376 -14.0840 0.176 -0.581 0.794 85 25 10 0 0
2.5968 -2.6698 -14.1181 0.220 -0.718 0.660 94 30 13 0 0
3.1428 -3.4780 -16.0160 0.282 -0.529 0.801 71 66 64 0 0
3.1594 -3.4982 -16.0252 0.345 -0.694 0.633 80 75 74 0 0
-0.6801 1.2636 -12.5403 0.331 -0.511 0.794 125 43 21 0 0
0.0881 0.3537 -12.6682 0.214 -0.483 0.849 148 71 50 0 0
0.5462 -0.2644 -13.5809 0.388 -0.483 0.785 24 5 3 0 0
1.0952 -0.9194 -13.7245 -0.083 -0.343 0.936 157 83 44 0 0
1.6344 -1.5564 -13.7956 0.111 -0.422 0.900 137 50 23 0 0
3.0421 -3.4641 -16.6934 0.383 -0.568 0.729 139 137 138 0 0
-0.7310 1.2806 -12.4995 0.439 -0.604 0.666 123 41 19 0 0
-0.7196 1.2652 -12.5223 0.291 -0.561 0.775 127 45 23 0 0
0.3614 -0.0275 -12.8598 0.465 -0.407 0.786 106 28 7 0 0
0.6629 -0.4588 -13.7251 0.344 -0.404 0.847 131 80 59 0 0
0.9955 -0.8435 -13.6877 0.252 -0.620 0.743 183 114 79 0 0
1.5562 -1.5092 -13.8103 0.483 0.141 0.864 142 56 30 0 0
1.6229 -1.5804 -13.7384 0.172 -0.721 0.672 152 68 39 0 0
2.7431 -3.0841 -15.8778 -0.078 -0.993 0.092 19 19 21 0 0
2.9356 -3.3255 -16.0599 -0.014 -0.443 0.896 28 24 25 0 0
2.9900 -3.4400 -16.6146 0.376 -0.713 0.592 119 116 116 0 0
-1.1459 1.7291 -12.3768 0.695 -0.372 0.616 122 45 25 0 0
-0.1546 0.5509 -12.6301 0.274 -0.121 0.954 127 43 18 0 0
0.7911 -0.6499 -13.6924 0.609 -0.513 0.605 132 65 40 0 0
1.4148 -1.3872 -13.8095 0.503 -0.697 0.512 140 55 24 0 0
2.4038 -2.6388 -14.8765 -0.087 -0.987 -0.134 32 8 5 0 0
2.3838 -2.6314 -15.0470 -0.516 -0.838 0.175 45 16 15 0 0
2.8572 -3.2760 -16.0452 -0.198 -0.108 0.974 30 28 28 0 0
2.8737 -3.2962 -16.0553 0.186 -0.502 0.844 28 24 23 0 0
2.8763 -3.3031 -16.0970 0.078 -0.830 0.552 28 24 23 0 0
2.9095 -3.3391 -16.0691 0.075 -0.547 0.834 29 25 24 0 0
2.9850 -3.4788 -16.6229 0.736 -0.493 0.463 129 125 127 0 0
-0.1816 0.5369 -12.6346 0.294 -0.360 0.885 136 52 25 0 0
0.3595 -0.1113 -12.8365 0.533 -0.402 0.745 94 18 3 0 0
1.3789 -1.3832 -13.7527 0.422 -0.383 0.822 146 59 29 0 0
1.5061 -1.5337 -13.7804 0.323 0.207 0.924 143 58 30 0 0
1.5369 -1.5721 -13.8084 0.176 -0.232 0.957 141 58 28 0 0
2.9679 -3.5014 -16.6103 0.808 -0.557 0.193 131 130 131 0 0
2.9660 -3.5044 -16.6643 0.758 -0.270 0.594 138 138 138 0 0
2.9441 -3.4887 -16.7664 0.441 -0.239 0.865 147 147 148 0 0
2.9481 -3.4971 -16.8072 0.237 0.055 0.970 155 155 157 0 0
3.3565 -3.9676 -16.7610 -0.515 0.245 0.821 206 206 208 0 0
1.3188 -1.3548 -13.7354 0.483 -0.265 0.835 153 71 38 0 0
1.3357 -1.3756 -13.7473 0.467 -0.266 0.843 142 61 27 0 0
1.3550 -1.3987 -13.7554 0.392 -0.653 0.648 142 58 26 0 0
1.5846 -1.6704 -13.8104 0.665 -0.135 0.734 144 61 34 0 0
2.3779 -2.7365 -15.3231 -0.044 -0.903 0.427 136 83 52 0 0
2.9421 -3.5160 -16.6182 0.831 -0.325 0.451 132 130 132 0 0
2.9526 -3.5306 -16.6429 0.865 -0.171 0.472 139 138 139 0 0
2.9583 -3.5407 -16.6790 0.917 -0.188 0.353 149 148 149 0 0
3.3927 -4.0433 -16.6645 -0.629 0.126 0.767 206 206 208 0 0
-0.8861 1.2764 -12.4965 0.254 -0.650 0.716 127 45 23 0 0
0.3029 -0.1458 -12.9624 0.112 -0.274 0.955 64 11 3 0 0
0.4135 -0.3406 -13.6435 0.165 0.341 0.926 24 5 1 0 0
0.4894 -0.4291 -13.6491 0.263 -0.048 0.964 171 110 86 0 0
1.4249 -1.5233 -13.7623 0.243 -0.173 0.955 158 75 43 0 0
1.4963 -1.6060 -13.7629 0.305 -0.092 0.948 136 51 24 0 0
1.5051 -1.6186 -13.7878 0.671 -0.325 0.667 137 51 23 0 0
2.7074 -3.2223 -15.9481 0.999 -0.021 0.024 41 41 43 0 0
2.9273 -3.5408 -16.6002 0.865 -0.171 0.472 135 133 134 0 0
3.3453 -4.0373 -16.7289 -0.602 0.177 0.779 206 206 208 0 0
0.7843 -0.8215 -13.7195 0.394 -0.228 0.890 115 33 17 0 0
1.3097 -1.4323 -13.7565 0.419 -0.471 0.777 145 60 28 0 0
1.4476 -1.5927 -13.7674 0.576 0.071 0.814 144 59 31 0 0
1.4614 -1.6104 -13.7839 0.858 0.018 0.514 141 55 28 0 0
2.5006 -2.9701 -15.3820 0.066 0.154 0.986 145 89 76 0 0
2.7844 -3.3419 -15.8226 0.468 -0.558 0.685 42 42 44 0 0
2.7877 -3.3496 -15.8619 0.750 -0.460 0.475 42 42 44 0 0
2.8574 -3.4999 -16.5641 0.075 -0.997 -0.007 115 114 112 0 0
2.9000 -3.5441 -16.5136 0.362 -0.880 0.308 122 121 119 0 0
2.9198 -3.5673 -16.5160 0.706 -0.115 0.699 128 127 125 0 0
2.9167 -3.5742 -16.6218 0.888 -0.373 0.268 144 142 143 0 0
3.2597 -3.9871 -16.7873 -0.647 -0.049 0.761 205 205 207 0 0
3.3438 -4.0733 -16.6773 -0.521 0.320 0.791 206 206 208 0 0
3.3883 -4.1186 -16.6156 -0.592 0.221 0.775 206 206 208 0 0
-0.1508 0.3202 -12.6575 0.190 -0.441 0.877 131 47 21 0 0
2.0906 -2.4017 -14.0138 -0.233 -0.430 0.873 118 68 48 0 0
2.2823 -2.7609 -15.3818 -0.038 -0.798 0.602 119 49 28 0 0
2.6079 -3.1545 -15.5610 0.260 -0.494 0.830 22 10 8 0 0
2.7457 -3.3436 -15.8594 0.484 -0.659 0.576 43 43 45 0 0
2.6373 -3.3060 -16.7250 0.542 0.310 0.781 74 69 67 0 0
2.6569 -3.3291 -16.7295 0.542 0.310 0.781 82 80 76 0 0
2.6759 -3.3515 -16.7352 0.350 0.539 0.766 91 90 88 0 0
2.8879 -3.5811 -16.5875 0.350 -0.088 0.932 138 136 137 0 0
2.9182 -3.6188 -16.6146 0.510 0.035 0.860 156 154 155 0 0
3.1539 -3.9188 -16.8942 -0.624 0.013 0.781 202 202 204 0 0
-0.4443 0.6232 -12.5626 0.531 -0.585 0.612 127 43 19 0 0
0.7957 -0.9216 -13.7104 0.470 -0.529 0.706 117 41 26 0 0
2.2953 -2.8207 -15.3996 -0.163 -0.236 0.958 105 36 18 0 0
2.3144 -2.8433 -15.4055 0.080 -0.158 0.984 115 47 25 0 0
2.7146 -3.3430 -15.7868 0.371 -0.364 0.854 43 43 45 0 0
2.6329 -3.3409 -16.6831 0.179 0.123 0.976 77 72 70 0 0
2.6607 -3.3713 -16.6688 0.208 0.336 0.919 86 82 81 0 0
2.6834 -3.3972 -16.6658 0.127 0.282 0.951 94 92 89 0 0
2.7411 -3.4651 -16.6803 -0.399 -0.886 0.238 113 111 112 0 0
3.0748 -3.8493 -16.6823 0.563 0.183 0.806 193 193 195 0 0
3.1272 -3.9119 -16.7042 0.751 -0.175 0.636 197 197 199 0 0
-1.1400 1.3917 -12.4262 0.550 -0.031 0.835 125 45 23 0 0
-0.9488 1.1652 -12.4924 0.475 -0.565 0.675 125 43 21 0 0
-0.4737 0.6114 -12.5699 0.627 -0.333 0.704 131 47 23 0 0
-0.2842 0.3920 -12.5862 0.528 -0.297 0.795 131 47 21 0 0
0.6960 -0.8428 -13.6321 0.681 -0.349 0.644 153 71 44 0 0
2.0875 -2.6358 -15.5038 -0.581 0.099 0.808 24 9 7 0 0
2.2917 -2.8602 -15.4064 0.080 -0.158 0.984 121 50 19 0 0
2.4748 -3.0826 -15.5226 0.476 -0.494 0.727 12 6 5 0 0
2.6280 -3.3700 -16.5939 -0.082 0.235 0.969 75 68 66 0 0
3.2076 -4.0522 -16.7523 0.733 -0.157 0.662 204 204 206 0 0
3.1764 -4.0297 -16.8797 -0.676 -0.137 0.724 204 204 205 0 0
-1.1575 1.3664 -12.4182 0.532 -0.137 0.835 125 45 23 0 0
2.0504 -2.6397 -15.5326 -0.492 0.124 0.861 16 13 13 0 0
2.3247 -2.9431 -15.4281 -0.102 0.044 0.994 73 33 15 0 0
2.3434 -2.9653 -15.4345 -0.027 -0.008 1.000 54 21 7 0 0
2.3505 -2.9766 -15.4645 -0.154 -0.865 0.478 46 18 7 0 0
2.4535 -3.1006 -15.5210 0.476 -0.494 0.727 8 5 3 0 0
2.4764 -3.1266 -15.5182 0.098 -0.709 0.698 4 3 3 0 0
2.5843 -3.3688 -16.6413 -0.006 -0.005 1.000 79 72 72 0 0
2.5989 -3.3872 -16.6569 0.144 0.339 0.930 84 78 79 0 0
2.6662 -3.4636 -16.6505 0.478 -0.251 0.842 107 104 102 0 0
2.8945 -3.7264 -16.6600 0.792 0.018 0.610 175 175 177 0 0
3.1720 -4.0525 -16.7355 0.336 -0.156 0.929 203 203 205 0 0
3.1909 -4.0744 -16.7390 0.733 -0.157 0.662 204 204 206 0 0
-1.2541 1.4335 -12.3927 0.209 -0.050 0.977 122 43 24 0 0
-1.1523 1.3141 -12.4202 0.518 0.055 0.854 124 44 21 0 0
-0.9074 1.0298 -12.4587 0.416 -0.362 0.834 124 42 20 0 0
0.7205 -0.9677 -13.7204 0.188 -0.245 0.951 120 42 23 0 0
2.0192 -2.6494 -15.5496 -0.503 0.097 0.859 5 4 3 0 0
2.4398 -3.1304 -15.5486 -0.246 -0.667 0.703 5 6 6 0 0
2.5395 -3.3616 -16.6423 -0.110 0.072 0.991 77 69 69 0 0
2.5614 -3.3866 -16.6415 -0.006 -0.005 1.000 82 75 75 0 0
-1.2468 1.3791 -12.3926 0.267 0.018 0.964 123 42 23 0 0
-0.9246 1.0049 -12.4506 0.562 -0.245 0.790 124 42 20 0 0
-0.5204 0.5298 -12.5761 0.388 -0.166 0.907 131 47 22 0 0
-0.9126 0.9426 -12.4801 0.183 -0.060 0.981 127 45 23 0 0
0.3329 -0.6091 -13.6832 0.170 -0.324 0.931 182 119 95 0 0
0.3642 -0.6441 -13.6763 -0.170 -0.255 0.952 168 113 93 0 0
0.3921 -0.6757 -13.6744 -0.219 -0.556 0.802 162 100 90 0 0
2.2641 -3.0251 -15.6394 -0.520 -0.480 0.706 137 130 126 0 0
2.5645 -3.4872 -16.7268 0.214 -0.162 0.963 112 108 109 0 0
2.8113 -3.7598 -16.6486 0.328 -0.250 0.911 167 167 169 0 0
0.3122 -0.6295 -13.6794 0.360 -0.247 0.900 180 113 89 0 0
0.3419 -0.6628 -13.6750 -0.106 -0.235 0.966 161 99 82 0 0
2.1493 -2.9334 -15.6025 -0.312 -0.846 0.433 14 13 16 0 0
2.2473 -3.0526 -15.6732 -0.228 -0.667 0.710 163 158 156 0 0
2.5463 -3.5092 -16.7165 0.790 -0.248 0.561 111 107 108 0 0
2.5843 -3.5537 -16.7280 0.368 -0.292 0.883 120 118 119 0 0
2.6007 -3.5736 -16.7397 0.208 -0.246 0.947 126 124 125 0 0
3.1566 -4.1966 -16.6567 -0.328 -0.139 0.934 204 204 204 0 0
0.1315 -0.3869 -12.9565 0.422 -0.752 0.507 62 11 2 0 0
0.2056 -0.4973 -13.1890 0.050 -0.417 0.908 11 9 7 0 0
0.4750 -0.8628 -13.7170 0.201 -0.137 0.970 157 81 64 0 0
1.5993 -2.3624 -15.6941 -0.139 -0.919 0.370 3 3 5 0 0
1.5848 -2.3592 -15.8111 0.588 -0.381 0.713 4 3 7 0 0
1.6588 -2.4475 -15.8494 -0.538 -0.443 0.717 13 13 13 0 0
1.7445 -2.5363 -15.7739 -0.516 0.276 0.811 30 30 32 0 0
1.9806 -2.7824 -15.5813 -0.327 -0.504 0.799 14 10 14 0 0
2.1245 -2.9640 -15.7420 0.533 -0.002 0.846 16 11 10 0 0
2.1416 -2.9846 -15.7525 0.586 0.388 0.711 28 19 17 0 0
2.3773 -3.2381 -15.6297 0.385 -0.239 0.891 20 17 17 0 0
2.4855 -3.4770 -16.6564 0.196 -0.822 0.535 93 90 89 0 0
2.5938 -3.6109 -16.7526 -0.082 -0.556 0.827 131 128 129 0 0
2.6269 -3.6454 -16.7259 0.253 -0.474 0.843 134 131 132 0 0
-0.1413 -0.1089 -12.8481 -0.069 -0.729 0.681 147 61 36 0 0
0.1766 -0.5091 -13.1971 0.085 -0.739 0.668 8 7 5 0 0
1.5544 -2.3656 -15.7800 0.787 -0.335 0.519 3 3 5 0 0
1.5664 -2.3818 -15.8020 0.662 -0.527 0.532 4 4 5 0 0
1.5653 -2.3859 -15.8489 0.550 -0.792 0.264 7 7 8 0 0
1.5723 -2.3975 -15.8806 0.666 -0.371 0.647 28 28 29 0 0
1.6014 -2.4293 -15.8700 0.510 0.672 0.537 51 51 52 0 0
2.6029 -3.6621 -16.7289 0.355 -0.540 0.763 131 128 128 0 0
2.7364 -3.8062 -16.6664 0.317 0.397 0.861 158 158 160 0 0
-0.9791 0.8411 -12.4453 0.063 -0.146 0.987 127 45 23 0 0
-0.7190 0.5373 -12.5300 0.144 -0.554 0.820 129 47 23 0 0
-0.6933 0.5035 -12.5708 0.409 -0.614 0.675 129 47 23 0 0
-0.4896 0.2688 -12.6087 0.062 -0.628 0.775 132 48 22 0 0
0.0916 -0.4319 -12.9851 0.517 -0.708 0.481 63 10 1 0 0
0.1472 -0.5204 -13.2059 0.085 -0.739 0.668 7 6 4 0 0
0.3151 -0.7620 -13.6514 0.568 0.225 0.792 157 85 61 0 0
0.3569 -0.8111 -13.6678 0.520 0.393 0.759 158 94 77 0 0
0.4070 -0.8727 -13.7104 0.878 -0.302 0.371 158 93 79 0 0
0.4448 -0.9180 -13.7322 0.297 -0.015 0.955 157 82 60 0 0
1.4530 -2.0919 -14.0260 0.166 -0.422 0.892 122 65 46 0 0
1.4704 -2.1127 -14.0364 -0.318 -0.453 0.833 110 56 36 0 0
1.5724 -2.4110 -15.6133 0.257 -0.951 -0.171 4 4 6 0 0
1.5261 -2.3792 -15.7895 0.374 -0.895 0.244 7 7 8 0 0
1.5348 -2.3923 -15.8178 0.513 -0.788 0.341 32 32 32 0 0
1.5411 -2.4032 -15.8507 0.651 -0.579 0.491 59 59 59 0 0
1.5760 -2.4402 -15.8293 0.622 0.625 0.472 67 67 67 0 0
1.7034 -2.5767 -15.7645 -0.067 0.605 0.794 33 33 35 0 0
-1.6270 1.5279 -12.4380 0.134 0.208 0.969 121 44 24 0 0
-1.5022 1.3908 -12.4069 0.420 -0.335 0.843 123 46 25 0 0
-0.7535 0.5300 -12.5430 0.215 -0.551 0.807 129 47 22 0 0
-0.7381 0.5106 -12.5603 0.215 -0.551 0.807 127 46 22 0 0
-0.7227 0.4912 -12.5777 0.215 -0.551 0.807 128 46 22 0 0
-0.3550 0.0748 -12.5912 0.415 -0.548 0.726 136 52 27 0 0
-0.1471 -0.1667 -12.6505 0.667 -0.535 0.518 156 89 73 0 0
0.3023 -0.7897 -13.6364 0.131 0.130 0.983 168 93 69 0 0
0.3559 -0.8501 -13.6356 0.127 0.212 0.969 147 82 64 0 0
1.4242 -2.1026 -14.0373 -0.217 -0.700 0.681 94 41 21 0 0
1.4725 -2.3488 -15.6684 0.988 0.149 -0.045 4 4 6 0 0
1.5068 -2.3852 -15.6486 0.083 -0.993 0.080 4 4 6 0 0
1.4921 -2.3823 -15.7651 0.351 -0.870 0.346 5 5 7 0 0
1.4982 -2.3931 -15.7983 0.351 -0.870 0.346 33 33 35 0 0
1.5074 -2.4067 -15.8257 0.482 -0.769 0.419 65 65 65 0 0
1.6769 -2.5863 -15.7265 0.509 0.733 0.451 65 64 66 0 0
2.5699 -3.6689 -16.3657 0.525 -0.777 -0.347 96 81 77 0 0
3.0117 -4.2063 -16.6962 0.204 -0.344 0.917 201 201 201 0 0
-1.3587 1.1843 -12.3972 0.060 -0.247 0.967 123 43 22 0 0
-0.3782 0.0572 -12.5911 0.415 -0.548 0.726 136 54 30 0 0
-0.3696 0.0445 -12.6163 0.484 -0.625 0.613 137 55 31 0 0
0.3354 -0.8794 -13.7088 0.341 -0.461 0.819 159 100 86 0 0
1.3545 -2.0660 -14.0376 -0.358 -0.715 0.600 104 50 28 0 0
1.3739 -2.0887 -14.0449 -0.345 -0.747 0.568 94 35 15 0 0
1.4595 -2.3762 -15.6494 0.789 0.513 0.337 5 5 7 0 0
1.4598 -2.3922 -15.7822 0.280 -0.917 0.284 8 8 10 0 0
1.4706 -2.4074 -15.8063 0.351 -0.870 0.346 40 40 42 0 0
1.4882 -2.4285 -15.8180 0.590 -0.478 0.650 70 68 69 0 0
1.5621 -2.5058 -15.7675 0.547 0.564 0.619 76 74 75 0 0
1.6413 -2.5823 -15.6618 0.640 0.676 0.365 77 75 76 0 0
2.5429 -3.6826 -16.3759 0.525 -0.777 -0.347 99 81 75 0 0
-0.4708 0.1114 -12.6418 0.473 -0.500 0.726 132 48 24 0 0
0.2697 -0.8428 -13.6549 0.648 -0.048 0.760 150 73 47 0 0
0.2960 -0.8724 -13.6553 0.562 -0.265 0.783 160 86 61 0 0
1.2526 -1.9903 -14.0112 -0.015 -0.180 0.984 111 54 34 0 0
1.2909 -2.0353 -14.0270 -0.280 -0.606 0.745 99 49 31 0 0
1.6504 -2.6289 -15.6009 0.616 0.691 0.378 80 78 79 0 0
2.5248 -3.7383 -16.6528 0.404 -0.524 0.750 101 92 88 0 0
2.8769 -4.1358 -16.6669 0.030 -0.143 0.989 190 188 189 0 0
2.9108 -4.1760 -16.6845 0.363 -0.359 0.860 194 194 194 0 0
2.9496 -4.2203 -16.6900 0.232 0.089 0.969 197 197 197 0 0
-0.8280 0.4798 -12.5469 0.195 -0.601 0.775 132 51 25 0 0
-0.7797 0.4195 -12.5964 0.549 -0.166 0.819 142 58 34 0 0
-0.5372 0.1487 -12.5874 0.610 -0.409 0.679 129 45 21 0 0
0.0074 -0.4959 -12.8651 0.277 -0.488 0.828 100 19 1 0 0
-0.0254 -0.4824 -13.0552 0.448 -0.887 0.113 63 12 3 0 0
0.0900 -0.6425 -13.3069 0.613 -0.637 0.467 13 7 7 0 0
0.1376 -0.7293 -13.5807 0.484 -0.527 0.698 11 6 6 0 0
0.2463 -0.8603 -13.6552 0.936 -0.278 0.218 152 79 51 0 0
0.2565 -0.8747 -13.6789 0.841 -0.497 0.212 137 65 36 0 0
0.2648 -0.8871 -13.7054 0.257 -0.370 0.893 142 70 51 0 0
1.0214 -1.7567 -13.8774 0.415 -0.466 0.781 135 73 60 0 0
1.3620 -2.3503 -15.6117 0.582 -0.719 0.380 10 10 11 0 0
1.3691 -2.3674 -15.6868 0.429 -0.895 0.122 5 5 7 0 0
2.6749 -3.8187 -15.5780 0.653 -0.633 0.416 93 50 40 0 0
2.6826 -3.8308 -15.6062 0.678 -0.583 0.448 92 50 39 0 0
2.6798 -3.8338 -15.6572 0.581 -0.732 0.356 91 51 41 0 0
2.5006 -3.7548 -16.6564 0.425 -0.432 0.795 97 87 83 0 0
