ply
format ascii 1.0
element vertex 859
property float x
property float y
property float z
property float nx
property float ny
property float nz
property uchar diffuse_red
property uchar diffuse_green
property uchar diffuse_blue
property uchar class
property uchar detection
end_header
-2.1885 4.2876 -13.3741 0.941 -0.267 -0.210 6 4 5 0 0
-2.0397 4.4468 -14.6099 -0.073 0.739 0.670 68 15 4 0 0
-1.9263 4.5440 -15.1118 -0.420 0.868 0.265 86 30 15 0 0
-1.5607 4.7915 -15.5314 0.552 0.569 0.610 24 15 15 0 0
-1.5622 4.7931 -15.5777 0.795 0.606 0.030 42 36 38 0 0
-1.5875 4.8119 -16.2023 0.735 0.578 0.355 28 17 16 0 0
-1.3799 4.9626 -16.6257 0.646 0.494 0.582 40 30 29 0 0
1.0966 6.4984 -16.8984 0.099 0.506 0.857 213 213 213 0 0
-2.1545 4.2259 -12.4634 0.444 0.041 0.895 117 46 30 0 0
-1.8718 4.4604 -13.5914 0.710 0.611 0.351 82 28 7 0 0
-1.8278 4.4912 -13.6599 0.206 0.577 0.790 73 28 14 0 0
-1.8294 4.5336 -14.4666 0.426 0.175 0.888 77 23 11 0 0
-1.7652 4.5779 -14.5570 0.546 -0.201 0.814 27 3 2 0 0
-1.5444 4.7686 -15.5769 0.614 0.779 0.131 37 29 29 0 0
-1.5469 4.8065 -16.3113 0.589 0.461 0.664 20 12 11 0 0
1.1152 6.4736 -16.8442 0.510 0.644 0.571 214 214 214 0 0
1.1332 6.4883 -16.9130 0.455 0.655 0.604 212 212 212 0 0
1.1672 6.5114 -16.9533 0.616 0.557 0.556 213 213 213 0 0
-2.1698 4.1835 -12.4576 0.651 -0.035 0.758 120 50 32 0 0
-2.1399 4.2023 -12.4640 0.343 0.262 0.902 121 49 31 0 0
-2.0782 4.2959 -13.5222 0.618 0.437 0.653 8 3 3 0 0
-1.8814 4.4183 -13.5416 0.631 0.566 0.530 31 6 3 0 0
-1.8627 4.4329 -13.5989 0.088 0.632 0.770 68 18 4 0 0
-1.7769 4.4890 -13.6603 0.208 0.698 0.685 68 10 2 0 0
-1.7937 4.5155 -14.3616 0.153 0.906 0.395 76 16 6 0 0
-1.7899 4.5307 -14.6059 0.510 0.780 0.363 28 3 1 0 0
-1.2873 4.8527 -14.8355 0.440 0.857 0.268 91 52 42 0 0
-1.3168 4.9366 -16.7793 0.042 0.548 0.835 73 53 49 0 0
1.1569 6.4689 -16.9001 0.645 0.653 0.397 206 206 206 0 0
1.2050 6.5020 -16.9656 0.706 -0.255 0.661 213 213 213 0 0
-4.0243 3.0073 -12.5142 -0.447 0.524 0.725 100 52 46 0 0
-2.2644 4.1421 -13.4279 0.676 0.444 -0.588 13 7 8 0 0
-1.7376 4.4804 -13.6734 0.368 0.751 0.547 80 20 9 0 0
-1.7056 4.5105 -13.8744 0.351 0.808 0.473 67 15 6 0 0
-1.5128 4.7335 -15.8962 0.742 0.400 0.538 102 97 94 0 0
-1.2573 4.9338 -16.7202 0.359 0.933 -0.018 69 47 43 0 0
1.1681 6.4429 -16.9095 0.618 0.212 0.757 211 211 211 0 0
1.1862 6.4550 -16.9277 0.618 0.212 0.757 208 208 208 0 0
1.2116 6.4736 -16.9836 0.706 -0.255 0.661 213 213 213 0 0
-2.2624 4.0631 -12.5068 0.485 0.423 0.765 123 51 35 0 0
-1.7257 4.4524 -13.6387 0.208 0.698 0.685 88 35 18 0 0
-1.7124 4.4619 -13.6630 0.437 0.703 0.562 68 13 2 0 0
-1.6854 4.4890 -13.8697 0.491 0.510 0.707 67 13 4 0 0
-1.6745 4.5052 -14.0575 0.846 0.530 0.050 64 15 3 0 0
-1.6985 4.5164 -14.5784 -0.009 0.540 0.842 25 6 1 0 0
-1.2298 4.9160 -16.7546 0.447 0.890 -0.089 83 66 62 0 0
1.1771 6.4182 -16.9737 0.837 0.120 0.534 208 208 208 0 0
-2.6667 3.7777 -12.4780 -0.171 0.410 0.896 117 50 34 0 0
-2.6324 3.7991 -12.4816 -0.103 0.520 0.848 119 52 36 0 0
-2.6110 3.8132 -12.4974 0.010 0.378 0.926 120 53 36 0 0
-1.6721 4.4002 -12.5793 0.660 0.249 0.709 67 13 7 0 0
-2.2756 4.0788 -13.6689 0.218 0.028 0.976 7 1 1 0 0
-1.7185 4.4200 -13.5702 -0.031 0.930 0.367 98 46 21 0 0
-1.6727 4.4632 -13.8736 0.426 0.413 0.805 68 13 4 0 0
-1.6542 4.4796 -13.9723 0.829 0.268 0.490 104 49 29 0 0
-2.1929 4.0832 -13.4032 0.030 0.954 -0.298 48 36 34 0 0
-2.2947 4.0269 -13.5497 0.080 0.969 -0.235 41 35 36 0 0
-2.3147 4.0173 -13.6102 0.053 0.996 -0.065 30 26 27 0 0
-2.3471 4.0007 -13.6839 0.350 0.937 -0.004 13 9 10 0 0
-1.6487 4.4439 -13.8644 0.578 0.424 0.697 70 15 6 0 0
-1.6426 4.4531 -13.9775 0.911 0.193 0.366 107 52 35 0 0
-1.6355 4.4590 -14.0095 0.889 0.258 0.379 85 30 14 0 0
-1.1770 4.8767 -16.7784 0.360 0.926 -0.112 98 88 86 0 0
-1.8377 4.2264 -12.4542 0.473 0.494 0.730 120 44 25 0 0
-1.8103 4.2661 -12.9400 -0.028 0.942 -0.336 101 54 42 0 0
-2.1235 4.1024 -13.6187 -0.034 -0.563 0.826 8 2 2 0 0
-1.6366 4.4141 -13.7894 0.603 0.718 0.348 97 40 17 0 0
-1.6187 4.4354 -14.0088 0.768 0.590 0.251 93 39 20 0 0
-1.6632 4.4234 -14.3460 0.688 0.709 0.156 90 20 10 0 0
-1.8197 4.2050 -12.4514 0.473 0.494 0.730 119 43 26 0 0
-2.1902 4.0306 -13.7083 0.081 -0.711 0.699 7 3 1 0 0
-2.1304 4.0668 -13.6830 -0.030 -0.699 0.714 8 2 1 0 0
-1.8607 4.2291 -13.5458 0.322 0.481 0.815 15 5 6 0 0
-1.6094 4.4094 -14.0571 0.731 0.680 0.056 81 25 11 0 0
-1.6012 4.4196 -14.1694 0.906 0.064 0.417 108 40 17 0 0
-1.5729 4.4377 -14.1770 0.365 -0.109 0.925 109 36 13 0 0
-1.5987 4.4248 -14.2482 0.604 0.796 0.040 105 31 12 0 0
-1.6292 4.4092 -14.3253 0.675 0.723 0.146 95 22 11 0 0
-1.1986 4.6925 -14.6360 -0.671 0.277 0.687 83 27 12 0 0
-1.2971 4.6641 -15.3662 0.308 0.951 0.023 39 21 21 0 0
-1.1115 4.8401 -16.6869 0.374 0.819 0.434 75 51 47 0 0
-1.8017 4.1836 -12.4486 0.473 0.494 0.730 118 42 26 0 0
-1.5994 4.3819 -14.0643 0.751 0.636 0.175 85 28 12 0 0
-1.2420 4.6611 -15.3166 -0.147 0.982 0.120 47 29 28 0 0
-1.3309 4.6388 -16.0685 0.694 0.675 0.250 51 38 36 0 0
-1.3568 4.6261 -16.1502 0.571 0.809 0.138 55 36 34 0 0
-1.0797 4.8226 -16.6666 0.332 0.889 0.316 73 48 45 0 0
-4.8787 2.2305 -12.7056 -0.208 0.228 0.951 211 211 212 0 0
-1.8504 4.1218 -12.4772 0.462 -0.062 0.885 119 44 26 0 0
-1.5805 4.2964 -12.5995 0.108 0.601 0.792 63 12 5 0 0
-1.5669 4.3091 -12.6951 0.755 0.551 0.357 80 23 14 0 0
-1.8585 4.1691 -13.6966 0.609 0.758 0.233 28 6 5 0 0
-1.5880 4.3586 -14.1512 0.502 0.865 -0.015 68 14 5 0 0
-1.1960 4.6532 -15.2787 -0.168 0.981 0.101 56 37 35 0 0
-4.8979 2.1809 -12.6979 -0.208 0.228 0.951 213 212 213 0 0
-1.9196 4.0430 -12.4176 0.429 0.566 0.704 124 52 30 0 0
-1.8818 4.0682 -12.4520 0.500 0.153 0.852 127 53 34 0 0
-1.4760 4.3258 -12.5061 0.472 0.389 0.791 61 11 4 0 0
-1.5364 4.3365 -13.6691 0.586 0.792 0.174 65 11 3 0 0
-1.0131 4.7874 -16.5734 0.918 0.352 -0.183 68 44 41 0 0
-1.4543 4.3069 -12.4992 0.473 0.700 0.535 62 11 4 0 0
-1.4326 4.3212 -12.5127 0.242 0.325 0.914 63 13 5 0 0
-1.5075 4.3220 -13.6938 0.168 0.628 0.760 72 17 5 0 0
-1.6043 4.2852 -14.2907 -0.065 0.783 0.619 104 38 13 0 0
-1.2657 4.5573 -15.7288 0.666 0.676 0.316 26 15 16 0 0
-1.2568 4.5642 -15.7626 0.628 0.628 0.460 30 20 23 0 0
-1.2445 4.5732 -15.7917 0.628 0.628 0.460 35 25 29 0 0
-1.2327 4.5818 -15.8217 0.598 0.756 0.266 34 26 27 0 0
-1.2250 4.5881 -15.8571 0.598 0.756 0.266 29 20 18 0 0
-0.8209 4.8895 -17.0033 -0.506 0.425 0.751 186 186 186 0 0
-0.7785 4.9157 -16.9895 -0.506 0.425 0.751 188 188 190 0 0
-4.7872 2.1753 -12.6717 -0.145 0.248 0.958 188 183 181 0 0
-4.7399 2.2051 -12.6698 -0.041 0.315 0.948 124 109 106 0 0
-1.4300 4.2896 -12.4895 0.135 0.707 0.694 71 13 4 0 0
-1.5871 4.2663 -14.4142 0.502 0.840 -0.207 102 26 10 0 0
-1.0989 4.6136 -15.3949 0.272 0.928 -0.256 25 14 16 0 0
-1.2440 4.5366 -15.7684 0.882 0.354 0.311 27 15 15 0 0
-1.2404 4.5405 -15.8094 0.845 0.190 0.500 26 14 14 0 0
-1.2232 4.5523 -15.8320 0.834 0.382 0.398 22 10 10 0 0
-1.2161 4.5582 -15.8684 0.838 0.288 0.464 19 7 6 0 0
-1.1230 4.6551 -16.8307 0.226 -0.185 0.956 75 48 45 0 0
-4.8245 2.1148 -12.6791 -0.361 0.193 0.912 205 201 200 0 0
-4.7135 2.1844 -12.6618 -0.041 0.315 0.948 109 85 82 0 0
-1.5601 4.2481 -14.4017 0.555 0.813 -0.176 107 31 11 0 0
-0.9528 4.6609 -15.1358 0.622 0.753 0.216 51 40 36 0 0
-1.2061 4.5271 -15.8322 0.765 0.421 0.488 31 14 12 0 0
-1.1881 4.5394 -15.8539 0.551 0.681 0.482 22 8 7 0 0
-1.1261 4.5932 -16.2348 0.601 0.675 0.428 49 27 25 0 0
-1.0091 4.6942 -16.9375 0.315 0.507 0.802 150 149 154 0 0
-4.5987 2.2185 -12.6171 -0.334 0.254 0.908 99 60 56 0 0
-4.6315 2.2002 -12.6823 -0.358 0.258 0.897 98 58 51 0 0
-4.5670 2.2418 -12.7033 -0.174 0.463 0.869 100 53 44 0 0
-1.4546 4.2718 -14.1717 0.605 0.796 -0.032 79 20 4 0 0
-1.4545 4.2734 -14.2127 0.496 0.700 0.513 108 41 14 0 0
-1.4435 4.2814 -14.2407 0.678 0.622 0.392 107 38 8 0 0
-1.4367 4.2869 -14.2739 0.468 0.318 0.824 109 35 12 0 0
-1.4642 4.2831 -14.6417 0.148 0.934 0.326 22 3 3 0 0
-0.9490 4.6291 -15.1526 0.640 0.633 0.436 50 36 31 0 0
-0.9547 4.6274 -15.2042 0.451 0.666 0.594 51 40 37 0 0
-0.8423 4.7388 -16.2856 0.763 -0.017 0.646 41 32 32 0 0
-4.7538 2.0840 -12.6484 -0.406 0.187 0.895 167 157 154 0 0
-4.6210 2.1699 -12.6877 0.168 -0.014 0.986 98 56 49 0 0
-4.5753 2.1990 -12.6868 -0.279 0.470 0.838 100 55 47 0 0
-1.9387 3.8673 -12.4412 0.214 0.253 0.944 122 47 28 0 0
-1.3590 4.2381 -12.4988 0.757 0.462 0.463 62 10 2 0 0
-2.0462 3.8424 -13.6535 0.417 0.715 -0.561 28 26 29 0 0
-1.4315 4.2344 -13.6797 0.861 0.280 0.424 69 13 1 0 0
-1.4228 4.2584 -14.1944 0.683 0.666 0.300 104 38 14 0 0
-1.4085 4.2698 -14.2597 0.833 0.371 0.411 110 36 13 0 0
-0.9325 4.6046 -15.1529 0.587 0.482 0.651 46 26 22 0 0
-2.1945 3.6691 -12.3834 0.471 0.603 0.644 126 53 35 0 0
-2.1686 3.6860 -12.3943 0.173 0.701 0.692 125 52 35 0 0
-1.6708 4.0024 -12.3668 0.295 0.366 0.882 122 47 26 0 0
-1.6468 4.0181 -12.3784 0.226 0.415 0.881 121 45 25 0 0
-1.6282 4.0306 -12.3956 0.535 0.424 0.730 123 46 28 0 0
-1.4155 4.2107 -13.6797 0.933 0.242 0.265 70 15 1 0 0
-1.4141 4.2129 -13.7179 0.528 0.238 0.816 65 14 5 0 0
-1.4573 4.1899 -13.8476 0.633 0.501 0.591 119 72 45 0 0
-1.4430 4.1998 -13.8712 0.633 0.501 0.591 89 35 12 0 0
-1.4033 4.2348 -14.1495 0.630 0.760 0.157 74 17 7 0 0
-1.3904 4.2439 -14.1752 0.491 0.871 0.009 97 33 14 0 0
-1.3922 4.2442 -14.2185 0.697 0.677 -0.237 108 39 13 0 0
-0.9147 4.5810 -15.1515 0.587 0.482 0.651 46 21 17 0 0
-0.9088 4.5860 -15.1877 0.336 0.516 0.788 46 24 21 0 0
-0.9447 4.5679 -15.3241 0.475 0.805 -0.356 57 47 48 0 0
-4.4868 2.1785 -12.6027 0.228 0.733 0.641 100 55 45 0 0
-1.6306 3.9958 -12.3774 0.171 0.638 0.751 129 53 34 0 0
-1.6080 4.0106 -12.3904 0.601 0.188 0.777 122 45 27 0 0
-1.3203 4.1978 -12.4897 0.740 0.624 0.249 69 14 2 0 0
-1.4112 4.1787 -13.6534 0.960 0.176 0.219 119 68 30 0 0
-1.4022 4.1867 -13.7225 0.545 0.400 0.737 61 12 5 0 0
-1.4168 4.1820 -13.8595 0.822 0.351 0.448 98 44 19 0 0
-1.3917 4.1998 -13.9108 0.293 0.630 0.719 66 13 1 0 0
-1.4098 4.1902 -13.9724 0.283 0.618 0.733 65 13 2 0 0
-1.3548 4.2246 -13.9484 0.668 0.225 0.710 88 34 19 0 0
-1.3710 4.2272 -14.3368 0.794 0.356 0.493 88 20 10 0 0
-1.3337 4.2524 -14.3750 0.563 0.641 0.522 49 8 2 0 0
-0.9564 4.5161 -15.0526 0.435 0.824 0.364 89 47 37 0 0
-0.8906 4.5626 -15.1857 0.674 0.224 0.704 42 20 16 0 0
-1.7935 3.8612 -12.4501 0.957 0.097 0.272 125 48 30 0 0
-1.8890 3.8350 -13.5349 0.372 0.807 -0.458 46 44 49 0 0
-1.3979 4.1546 -13.6962 0.955 0.264 0.139 92 37 13 0 0
-1.3594 4.1817 -13.7714 0.626 0.143 0.767 117 71 47 0 0
-1.4034 4.1565 -13.8626 0.088 0.613 0.785 105 58 27 0 0
-1.3719 4.1781 -13.9064 0.620 0.508 0.598 67 11 1 0 0
-1.3516 4.2048 -14.3332 0.698 0.708 -0.102 94 22 9 0 0
-1.3050 4.2355 -14.3601 0.360 0.823 0.439 50 7 3 0 0
-0.9207 4.5045 -15.0715 0.441 0.750 0.492 88 48 40 0 0
-0.8772 4.5362 -15.1901 0.674 0.224 0.704 40 16 11 0 0
-0.8603 4.5477 -15.2119 0.722 0.180 0.669 39 19 14 0 0
-0.8552 4.5522 -15.2494 0.851 0.319 0.417 46 27 24 0 0
-0.9795 4.5063 -16.2941 0.913 0.309 0.265 53 44 45 0 0
-1.8354 3.8336 -13.4938 0.408 0.803 -0.435 47 45 48 0 0
-1.3978 4.1200 -13.6746 0.673 0.727 0.138 129 82 42 0 0
-1.3942 4.1235 -13.7103 0.673 0.727 0.138 112 59 29 0 0
-1.3706 4.1402 -13.7629 0.589 0.530 0.610 76 21 12 0 0
-1.3488 4.1737 -14.3913 0.868 -0.013 0.496 78 16 9 0 0
-1.3332 4.1844 -14.4143 0.811 0.112 0.574 55 9 4 0 0
-1.3724 4.1754 -14.9315 0.069 0.451 0.890 64 16 9 0 0
-1.0097 4.4032 -14.7742 0.156 -0.630 0.761 69 20 11 0 0
-0.9226 4.4664 -15.0082 0.505 0.648 0.570 85 28 14 0 0
-0.9194 4.4696 -15.0478 0.648 0.393 0.652 85 36 24 0 0
-0.8972 4.4843 -15.0624 0.591 0.644 0.486 87 44 36 0 0
-0.8953 4.4868 -15.1039 0.671 0.624 0.401 89 50 42 0 0
-1.0152 4.4389 -16.0379 0.149 0.635 0.758 50 26 22 0 0
-4.3835 2.1303 -12.4829 0.597 -0.566 0.569 101 56 46 0 0
-1.7884 3.7991 -12.4761 0.823 0.136 0.551 130 53 35 0 0
-1.5677 3.9396 -12.4321 0.229 0.353 0.907 123 46 28 0 0
-1.3401 4.0887 -12.5223 0.118 0.459 0.880 149 72 22 0 0
-1.3768 4.0993 -13.6689 0.393 0.797 0.459 129 78 40 0 0
-1.3453 4.1221 -13.7521 0.470 0.735 0.488 70 14 8 0 0
-1.3184 4.1432 -13.8815 0.370 0.845 0.387 68 13 1 0 0
-1.3311 4.1367 -13.9368 0.223 0.975 0.019 66 14 3 0 0
-1.3172 4.1599 -14.4148 0.625 0.251 0.739 60 12 5 0 0
-1.0476 4.3461 -14.8440 -0.136 -0.173 0.976 67 19 11 0 0
-0.9858 4.3860 -14.8510 -0.294 0.560 0.775 68 20 12 0 0
-0.8875 4.4559 -15.0715 0.695 0.194 0.692 88 38 28 0 0
-0.8456 4.4864 -15.1924 0.709 0.681 0.181 53 21 16 0 0
-0.7318 4.6064 -16.7617 0.945 0.320 -0.071 150 149 154 0 0
-4.4304 2.0649 -12.5365 0.328 0.480 0.814 102 55 45 0 0
-2.1839 3.5091 -12.4126 0.333 0.495 0.803 124 51 33 0 0
-2.1006 3.5636 -12.4399 0.396 0.775 0.492 125 51 35 0 0
-1.8188 3.7455 -12.4497 0.308 0.368 0.877 124 47 28 0 0
-1.7855 3.7681 -12.4889 0.149 0.512 0.846 123 46 27 0 0
-1.3087 4.0822 -12.7263 0.059 0.751 0.657 89 35 23 0 0
-1.3417 4.0873 -13.6468 0.707 0.666 0.238 125 74 36 0 0
-1.3422 4.0881 -13.6872 0.764 0.639 0.091 122 72 35 0 0
-1.3287 4.0975 -13.7115 0.729 0.564 0.386 81 26 7 0 0
-1.2709 4.1409 -13.9254 0.321 0.905 0.279 65 10 1 0 0
-1.2452 4.1659 -14.2224 0.334 0.922 0.195 104 38 10 0 0
-1.3326 4.1150 -14.4117 0.178 0.327 0.928 90 20 12 0 0
-1.2853 4.1451 -14.3959 0.641 0.739 0.206 63 13 6 0 0
-0.8269 4.4632 -15.1898 0.787 0.577 0.218 79 42 36 0 0
-0.8201 4.4686 -15.2251 0.709 0.681 0.181 53 20 15 0 0
-0.7797 4.4969 -15.3045 0.903 0.293 0.315 57 39 36 0 0
-0.7709 4.5035 -15.3374 0.920 0.280 0.274 42 27 25 0 0
-0.8336 4.4908 -16.3044 0.236 0.492 0.838 50 39 41 0 0
-2.0612 3.5547 -12.4163 0.329 0.639 0.695 126 53 36 0 0
-2.0428 3.5671 -12.4345 0.253 0.675 0.693 127 54 37 0 0
-1.7172 3.7795 -12.5080 0.543 0.404 0.736 124 47 27 0 0
-1.3049 4.0764 -13.6228 0.804 0.589 0.078 107 57 20 0 0
-1.3086 4.0752 -13.6668 0.735 0.678 -0.011 124 75 37 0 0
-1.2464 4.1210 -13.8750 0.528 0.841 0.118 72 15 8 0 0
-1.3063 4.0967 -14.3997 0.546 0.802 0.242 94 21 13 0 0
-1.2588 4.1269 -14.3837 0.819 0.566 0.092 68 14 9 0 0
-0.7568 4.4642 -14.8557 0.775 0.317 0.547 73 20 11 0 0
-0.7425 4.4741 -14.8803 0.763 0.518 0.387 78 22 12 0 0
-0.8095 4.4392 -15.1889 0.787 0.577 0.218 89 51 45 0 0
-0.8020 4.4741 -16.2841 0.079 0.434 0.898 52 41 42 0 0
-0.8771 4.4502 -17.1817 0.630 0.744 0.224 169 169 171 0 0
-4.4695 1.9651 -12.5228 -0.020 -0.648 0.761 101 56 49 0 0
-2.0185 3.5490 -12.4257 0.253 0.675 0.693 128 55 38 0 0
-1.5592 3.8775 -13.6136 0.815 0.551 0.181 6 1 2 0 0
-1.5412 3.8896 -13.6331 0.324 0.091 0.942 25 14 12 0 0
-1.2783 4.0592 -13.6105 0.371 0.928 0.022 94 44 15 0 0
-1.2420 4.0921 -13.9700 0.631 -0.056 0.774 86 30 17 0 0
-1.2544 4.0943 -14.3564 0.663 0.744 -0.085 98 24 12 0 0
-1.2327 4.1087 -14.3718 0.872 0.480 -0.101 74 15 9 0 0
-1.1811 4.1549 -14.8615 0.668 0.192 0.720 58 15 9 0 0
-1.1473 4.1779 -14.9053 0.609 0.123 0.784 62 17 9 0 0
-1.0651 4.2318 -14.9306 -0.396 0.898 0.195 64 18 9 0 0
-0.7388 4.4410 -14.8536 0.706 0.538 0.460 69 19 12 0 0
-0.7922 4.4152 -15.1881 0.787 0.577 0.218 87 48 40 0 0
-0.7859 4.4203 -15.2241 0.787 0.577 0.218 89 51 43 0 0
-0.7799 4.4251 -15.2606 0.845 0.524 0.107 81 46 39 0 0
-0.7533 4.4679 -16.2392 0.411 -0.068 0.909 60 46 44 0 0
-2.3492 3.3003 -12.4004 0.307 -0.096 0.947 124 52 37 0 0
-2.3149 3.3226 -12.4037 0.115 0.003 0.993 124 53 36 0 0
-1.2478 4.0537 -13.9553 0.593 0.590 0.548 66 12 4 0 0
-0.6995 4.4332 -14.9106 0.808 0.312 0.500 73 20 9 0 0
-0.7705 4.3939 -15.1814 0.845 0.524 0.107 89 44 34 0 0
-0.7673 4.3970 -15.2217 0.845 0.524 0.107 88 47 38 0 0
-0.7641 4.4000 -15.2620 0.845 0.524 0.107 89 51 43 0 0
-0.7335 4.4419 -16.1405 0.685 0.548 0.480 51 42 42 0 0
-2.2906 3.3033 -12.3587 0.749 0.304 0.589 124 52 37 0 0
-1.5132 3.8101 -12.4181 0.562 0.251 0.788 122 46 23 0 0
-1.4860 3.8280 -12.4264 0.337 0.198 0.920 122 45 23 0 0
-1.2269 4.0326 -13.9497 0.412 0.859 0.303 64 12 4 0 0
-1.1911 4.0578 -14.0295 0.806 0.514 0.294 112 53 33 0 0
-1.2492 4.0398 -14.8600 0.518 0.676 0.524 26 6 3 0 0
-0.7336 4.3916 -15.5596 0.800 0.555 0.230 46 24 19 0 0
-0.7268 4.3969 -15.5959 0.800 0.555 0.230 42 23 19 0 0
-0.7164 4.4121 -15.9520 0.240 0.474 0.847 51 40 40 0 0
-0.7074 4.4188 -15.9863 0.415 0.770 0.484 51 41 42 0 0
-1.5016 3.7848 -12.4218 0.387 0.308 0.869 123 47 24 0 0
-1.4811 3.7985 -12.4371 0.284 0.444 0.850 124 47 25 0 0
-1.4499 3.8189 -12.4411 0.059 0.291 0.955 120 42 22 0 0
-1.1735 4.0348 -14.0277 0.842 0.183 0.508 111 53 34 0 0
-1.2275 4.0182 -14.8537 0.518 0.676 0.524 21 6 4 0 0
-1.2221 4.0225 -14.8903 0.512 0.795 0.325 32 7 3 0 0
-0.7179 4.3682 -15.6530 0.945 0.298 0.137 51 28 25 0 0
-0.7140 4.3717 -15.6937 0.938 0.340 0.072 47 26 23 0 0
-1.9730 3.4436 -12.4056 0.223 0.133 0.966 127 52 34 0 0
-1.4624 3.7776 -12.4335 0.283 0.144 0.948 129 51 30 0 0
-1.1953 3.9808 -13.7883 0.422 0.781 0.460 78 22 10 0 0
-1.2057 3.9966 -14.8474 0.518 0.676 0.524 26 7 6 0 0
-1.1940 4.0049 -14.8760 0.443 0.773 0.454 24 4 1 0 0
-0.6812 4.3587 -15.7642 0.625 0.773 0.106 58 35 32 0 0
-0.6620 4.3736 -15.8769 0.835 0.541 0.099 57 37 35 0 0
-0.7821 4.3111 -16.6249 0.560 0.681 0.472 83 60 53 0 0
-1.9559 3.4210 -12.4039 -0.053 0.335 0.941 130 55 36 0 0
-1.1475 4.0016 -14.9692 0.483 0.241 0.842 46 12 4 0 0
-0.6528 4.3437 -15.8882 0.349 0.935 0.058 60 36 32 0 0
-0.5851 4.3946 -16.2174 0.531 0.555 0.641 82 53 45 0 0
-0.6125 4.3795 -16.3536 0.542 0.794 0.276 86 60 53 0 0
-1.9325 3.4025 -12.3960 -0.053 0.335 0.941 127 52 33 0 0
-1.0997 3.9742 -13.7535 0.412 0.710 0.571 94 42 20 0 0
-1.1383 3.9720 -14.9790 0.143 0.595 0.791 38 10 3 0 0
-1.0305 4.0417 -14.9280 0.830 0.002 0.558 51 13 5 0 0
-0.6983 4.2894 -16.5049 0.544 0.527 0.652 83 63 57 0 0
-2.1448 3.2293 -12.4023 0.477 -0.139 0.868 125 52 35 0 0
-1.5479 3.6220 -12.4234 0.034 0.236 0.971 129 51 29 0 0
-1.1203 3.9054 -12.5598 0.704 0.151 0.694 80 27 7 0 0
-1.1897 3.8657 -12.8976 0.196 0.922 -0.335 75 45 40 0 0
-1.4191 3.7215 -13.2671 0.337 0.782 -0.525 50 45 48 0 0
-1.0931 3.9488 -14.0089 0.711 0.633 0.307 97 38 27 0 0
-1.1135 3.9524 -14.9687 0.143 0.595 0.791 30 8 4 0 0
-0.5952 4.3005 -15.3942 0.798 0.603 -0.010 87 47 35 0 0
-0.5950 4.3014 -15.4393 0.652 0.758 -0.005 87 50 37 0 0
-1.2759 3.7682 -12.4481 0.061 0.390 0.919 126 45 24 0 0
-1.1094 3.8798 -12.5644 -0.013 0.268 0.963 105 47 19 0 0
-1.0767 3.9025 -12.6402 0.641 0.493 0.589 80 14 5 0 0
-1.3522 3.7304 -13.2103 0.382 0.752 -0.538 48 45 48 0 0
-1.0744 3.9264 -14.0059 0.711 0.633 0.307 86 28 18 0 0
-1.0955 3.9283 -14.9673 0.428 0.610 0.667 24 5 3 0 0
-0.7840 4.1392 -15.3132 0.782 -0.500 0.372 57 17 11 0 0
-0.5497 4.2994 -15.6752 0.442 0.767 0.464 87 54 47 0 0
-0.5270 4.3200 -16.0176 0.701 0.608 0.372 83 54 46 0 0
-1.1640 3.8303 -13.8463 0.632 0.771 -0.075 61 10 2 0 0
-1.0579 3.9027 -14.0055 0.379 0.830 0.408 81 28 18 0 0
-1.0380 3.9161 -14.0225 0.518 0.781 0.348 105 52 34 0 0
-1.1960 3.8212 -14.6378 0.848 -0.192 0.494 97 25 10 0 0
-1.0775 3.9044 -14.9657 0.493 0.662 0.565 19 4 1 0 0
-1.0626 3.9145 -14.9906 0.493 0.662 0.565 25 5 1 0 0
-0.7531 4.1248 -15.3848 0.713 -0.448 0.539 56 17 10 0 0
-0.5230 4.2816 -15.7079 0.870 0.470 0.146 82 52 44 0 0
-2.3541 2.9872 -12.3217 0.395 0.108 0.912 125 54 37 0 0
-1.9023 3.2870 -12.3912 0.137 0.796 0.589 125 49 31 0 0
-1.8496 3.3222 -12.4117 0.303 0.595 0.744 126 51 32 0 0
-1.4662 3.5754 -12.3864 0.001 0.592 0.806 125 47 25 0 0
-1.3643 3.6434 -12.4266 0.424 0.783 0.454 126 45 23 0 0
-1.0320 3.8850 -13.9937 0.379 0.830 0.408 67 17 7 0 0
-1.0379 3.8949 -14.9805 0.759 0.347 0.551 21 3 0 0 0
-1.0142 3.9113 -15.0380 0.689 -0.084 0.720 35 8 2 0 0
-2.4126 2.9148 -12.3933 0.833 0.047 0.551 125 53 37 0 0
-2.0575 3.1500 -12.3777 0.217 0.331 0.918 126 54 39 0 0
-1.4479 3.5542 -12.3832 0.095 0.377 0.922 131 53 31 0 0
-1.3149 3.6429 -12.4275 0.503 0.096 0.859 127 47 24 0 0
-1.2869 3.6616 -12.4346 0.783 0.123 0.610 125 44 22 0 0
-1.2623 3.6780 -12.4454 0.454 0.015 0.891 126 45 24 0 0
-1.0105 3.8645 -13.9873 0.533 0.759 0.374 63 14 5 0 0
-1.1126 3.8054 -14.6612 0.539 -0.150 0.829 69 12 3 0 0
-1.0040 3.8822 -15.0468 0.655 0.072 0.752 29 8 3 0 0
-0.9845 3.8955 -15.0656 0.689 0.121 0.715 33 10 3 0 0
-1.0023 3.8857 -15.2228 0.506 0.654 0.563 45 13 8 0 0
-1.4696 3.5065 -12.3850 0.437 0.091 0.895 128 49 27 0 0
-1.4459 3.5224 -12.3970 0.406 0.032 0.913 128 49 27 0 0
-1.0013 3.8195 -12.5499 -0.038 0.669 0.742 107 50 15 0 0
-1.4283 3.5461 -13.4453 0.558 0.673 -0.485 46 44 49 0 0
-1.0623 3.7921 -13.7020 0.004 0.988 0.156 119 68 35 0 0
-0.9719 3.8547 -13.9190 0.052 0.863 0.502 63 11 4 0 0
-0.9986 3.8378 -13.9924 0.686 0.638 0.349 63 14 6 0 0
-1.1476 3.7457 -14.5969 0.128 0.966 -0.223 115 40 16 0 0
-1.0919 3.7834 -14.6561 0.768 0.174 0.616 69 12 3 0 0
-0.9943 3.8478 -14.6189 0.809 0.099 0.579 61 12 3 0 0
-0.9978 3.8501 -15.0163 0.636 -0.066 0.769 18 3 0 0 0
-0.9883 3.8567 -15.0482 0.409 0.188 0.893 23 6 1 0 0
-0.9650 3.8724 -15.0622 0.409 0.188 0.893 27 8 2 0 0
-0.9866 3.8589 -15.1350 0.533 0.799 0.279 33 8 3 0 0
-1.0187 3.8406 -15.4027 0.999 -0.037 -0.007 48 13 7 0 0
-2.0250 3.1028 -12.3397 0.030 -0.012 0.999 126 54 39 0 0
-0.9791 3.8012 -12.5423 0.248 0.638 0.729 115 46 10 0 0
-1.3921 3.5352 -13.4226 0.376 0.815 -0.442 46 44 47 0 0
-1.0329 3.7775 -13.7265 0.849 0.505 0.157 115 66 21 0 0
-0.9353 3.8442 -13.8942 0.269 0.826 0.495 64 10 2 0 0
-0.9848 3.8187 -14.6279 0.860 -0.126 0.494 63 12 5 0 0
-0.9733 3.8267 -14.6564 0.690 0.077 0.720 60 12 2 0 0
-0.9882 3.8224 -15.2042 0.627 0.742 0.240 31 8 3 0 0
-0.7417 3.9891 -15.4620 0.798 0.324 0.507 46 14 9 0 0
-0.5742 4.1049 -15.8782 0.984 -0.173 0.052 60 46 45 0 0
-4.1480 1.6534 -12.4867 -0.223 0.251 0.942 106 56 44 0 0
-2.0610 3.0441 -12.2806 -0.003 0.472 0.882 127 55 40 0 0
-2.0539 3.0490 -12.3103 0.336 0.895 0.292 126 57 41 0 0
-1.8692 3.1726 -12.3469 0.665 0.262 0.700 126 53 34 0 0
-1.4068 3.4812 -12.3516 0.716 0.581 0.387 128 46 25 0 0
-0.9941 3.7694 -13.7805 0.459 0.512 0.726 71 12 4 0 0
-0.9211 3.8199 -13.9787 0.417 0.905 0.086 76 24 14 0 0
-0.9624 3.7984 -14.6638 0.690 0.077 0.720 63 13 4 0 0
-0.9383 3.8146 -14.6763 0.278 0.709 0.648 63 13 5 0 0
-0.9493 3.8118 -15.1753 0.930 0.206 0.305 25 7 3 0 0
-0.5986 4.0509 -15.7494 0.762 -0.587 0.274 40 25 24 0 0
-0.5756 4.0668 -15.8105 0.964 0.191 -0.183 47 37 35 0 0
-0.5886 4.0588 -15.8760 0.985 0.064 -0.159 51 41 40 0 0
-0.5766 4.0670 -15.9061 1.000 -0.015 0.012 54 43 44 0 0
-4.1175 1.6362 -12.4748 -0.223 0.251 0.942 107 57 44 0 0
-1.4674 3.4074 -12.3570 0.260 0.319 0.911 131 50 29 0 0
-1.4242 3.4365 -12.3855 0.430 0.474 0.769 128 46 25 0 0
-0.8955 3.8022 -13.9670 0.689 0.724 0.039 73 19 12 0 0
-0.9396 3.7821 -15.1849 0.930 0.206 0.305 18 5 3 0 0
-4.5558 1.3065 -12.7113 0.232 0.121 0.965 177 172 167 0 0
-4.1544 1.5743 -12.5209 0.108 -0.027 0.994 107 56 43 0 0
-1.9578 3.0454 -12.3930 0.044 0.608 0.793 126 54 33 0 0
-1.4535 3.3831 -12.3585 0.491 0.314 0.813 130 48 27 0 0
-1.4342 3.3962 -12.3751 0.491 0.314 0.813 130 49 28 0 0
-0.8889 3.7626 -12.5303 0.633 0.567 0.527 86 31 8 0 0
-0.9143 3.7546 -13.9273 0.221 0.654 0.724 73 14 5 0 0
-0.8122 3.8356 -15.8631 0.819 -0.573 0.025 33 15 11 0 0
-0.5930 3.9870 -16.5612 0.925 -0.359 0.125 101 99 97 0 0
-4.1402 1.5461 -12.5233 0.108 -0.027 0.994 106 54 42 0 0
-1.7613 3.1430 -12.3955 0.572 -0.205 0.795 124 47 27 0 0
-0.8716 3.7412 -12.5280 0.633 0.567 0.527 97 35 7 0 0
-0.9067 3.7235 -13.6523 0.762 0.371 0.531 130 76 38 0 0
-0.9794 3.6785 -14.3621 0.814 0.119 -0.569 105 54 33 0 0
-0.9359 3.7148 -15.7299 0.914 0.402 0.045 32 10 6 0 0
-0.9353 3.7154 -15.7759 0.922 0.350 0.163 31 10 6 0 0
-0.9274 3.7209 -15.8119 0.900 0.102 0.424 31 11 7 0 0
-0.7802 3.8209 -16.0322 0.735 -0.634 0.242 38 28 27 0 0
-1.9159 3.0047 -12.3455 0.748 0.490 0.447 126 53 34 0 0
-1.9042 3.0127 -12.3706 0.465 0.447 0.764 126 54 33 0 0
-1.3119 3.4117 -12.4636 0.573 0.256 0.779 130 49 28 0 0
-0.8544 3.7198 -12.5257 0.633 0.567 0.527 114 43 8 0 0
-0.9080 3.6845 -12.7351 0.507 0.661 0.553 82 23 12 0 0
-1.1624 3.5171 -13.6911 0.596 -0.429 0.678 36 16 13 0 0
-1.1210 3.5450 -13.6829 0.082 -0.579 0.811 36 7 4 0 0
-0.8551 3.7251 -13.9769 0.045 0.663 0.747 63 12 7 0 0
-0.8812 3.7100 -14.6017 0.917 0.325 0.230 74 16 4 0 0
-0.8695 3.7180 -14.6301 0.896 0.432 0.098 79 21 9 0 0
-1.9003 2.9809 -12.3455 0.748 0.490 0.447 125 52 33 0 0
-1.8895 2.9882 -12.3716 0.748 0.490 0.447 124 51 31 0 0
-1.6100 3.1768 -12.3835 0.169 0.580 0.797 129 51 29 0 0
-1.5852 3.1935 -12.3949 0.226 0.419 0.880 131 52 31 0 0
-1.5275 3.2324 -12.3724 0.573 -0.041 0.819 134 56 34 0 0
-0.8826 3.6683 -12.7238 0.781 0.273 0.562 74 16 5 0 0
-0.8096 3.7176 -12.7174 0.465 0.884 0.052 96 50 39 0 0
-0.8783 3.6737 -13.6566 0.878 0.441 0.185 112 57 21 0 0
-0.8563 3.6894 -13.9569 0.514 0.134 0.848 65 13 4 0 0
-0.8317 3.7060 -13.9681 0.270 0.140 0.953 61 12 6 0 0
-0.8266 3.7095 -14.0033 0.694 0.610 0.382 70 18 8 0 0
-0.9206 3.6516 -15.9928 -0.020 0.974 0.226 30 20 19 0 0
-0.9081 3.6601 -16.0229 0.105 0.978 0.180 33 22 21 0 0
-3.9991 1.5281 -12.4828 -0.121 -0.058 0.991 106 52 40 0 0
-1.7671 3.0366 -12.3748 0.197 0.733 0.651 124 47 27 0 0
-1.5193 3.2041 -12.3798 0.188 0.016 0.982 134 55 34 0 0
-1.4929 3.2219 -12.3895 0.252 0.135 0.958 135 56 34 0 0
-1.3992 3.2853 -12.4398 0.231 0.429 0.873 129 47 26 0 0
-0.8676 3.6451 -12.7242 0.496 0.578 0.648 70 13 2 0 0
-0.8390 3.6662 -13.9556 0.667 0.490 0.561 67 14 9 0 0
-0.8078 3.6873 -13.9586 0.314 0.131 0.940 61 11 7 0 0
-0.8083 3.6870 -14.0006 0.694 0.610 0.382 69 16 7 0 0
-0.8785 3.6426 -16.0539 0.226 0.972 0.070 33 25 23 0 0
-0.8901 3.6349 -16.1663 0.035 0.775 0.631 34 28 25 0 0
-0.8995 3.6294 -16.7197 -0.625 0.383 0.680 82 82 84 0 0
-0.6919 3.7699 -16.8149 0.880 -0.466 0.092 111 109 110 0 0
-1.5703 3.1356 -12.3745 0.181 0.236 0.955 129 48 27 0 0
-1.5434 3.1538 -12.3838 0.031 0.239 0.971 131 50 29 0 0
-1.5065 3.1788 -12.3826 0.147 0.111 0.983 134 56 34 0 0
-1.4792 3.1973 -12.3912 0.077 0.479 0.874 132 52 31 0 0
-1.3810 3.2639 -12.4368 0.314 0.491 0.813 130 48 27 0 0
-0.8946 3.5936 -13.6334 0.263 0.091 0.960 50 10 3 0 0
-0.9233 3.5747 -16.1899 0.572 0.411 0.710 31 26 23 0 0
-0.9272 3.5721 -16.2437 0.830 0.396 0.393 32 27 26 0 0
-0.8395 3.6316 -16.7585 -0.297 0.330 0.896 94 94 96 0 0
-0.8259 3.6408 -16.7887 0.114 -0.055 0.992 99 98 100 0 0
-1.4445 3.1869 -12.4082 0.420 0.273 0.865 129 47 26 0 0
-1.0479 3.4561 -12.4694 0.342 0.598 0.725 124 41 24 0 0
-0.7523 3.6553 -13.8474 0.353 0.725 0.591 95 40 15 0 0
-1.0896 3.4234 -16.6476 0.623 0.574 -0.531 39 33 33 0 0
-1.1355 3.3919 -16.9648 -0.530 0.738 0.418 67 63 62 0 0
-2.3356 2.5469 -12.3545 -0.182 0.335 0.924 125 53 37 0 0
-1.3152 3.2410 -12.4001 0.791 0.475 0.386 129 47 26 0 0
-1.0089 3.4492 -12.4809 0.344 0.612 0.712 126 46 25 0 0
-0.7421 3.6275 -13.8546 0.382 0.690 0.615 106 50 22 0 0
-0.7398 3.6288 -13.9758 0.211 0.805 0.555 64 13 5 0 0
-0.8758 3.5345 -14.7457 0.022 0.346 0.938 104 50 37 0 0
-0.8597 3.5454 -14.7686 0.457 -0.039 0.888 91 39 28 0 0
-1.4503 3.1150 -12.4094 0.420 0.066 0.905 129 47 26 0 0
-1.4303 3.1286 -12.4256 0.324 0.176 0.929 130 48 27 0 0
-1.0092 3.4156 -12.4605 0.278 0.557 0.783 129 46 25 0 0
-0.7572 3.5863 -12.7826 -0.027 0.463 0.886 94 46 31 0 0
-0.7185 3.6089 -13.8454 0.203 0.697 0.688 112 59 29 0 0
-0.7009 3.6205 -13.9476 0.622 0.625 0.472 63 13 6 0 0
-1.0471 3.3737 -16.9405 -0.428 0.082 0.900 75 70 71 0 0
-0.9291 3.4543 -16.9200 -0.036 0.442 0.897 93 92 94 0 0
-3.9608 1.3652 -12.5225 0.994 -0.106 -0.020 105 53 40 0 0
-1.9096 2.7674 -12.3746 -0.018 0.526 0.850 128 57 39 0 0
-1.4399 3.0881 -12.4146 0.324 0.176 0.929 128 46 25 0 0
-1.4148 3.1051 -12.4256 0.250 0.317 0.915 128 46 25 0 0
-1.0264 3.3703 -12.4586 0.514 0.008 0.857 128 46 25 0 0
-1.0034 3.3861 -12.4708 0.558 0.112 0.823 125 44 22 0 0
-0.9665 3.4112 -12.4680 0.670 0.620 0.408 121 40 18 0 0
-0.7090 3.5862 -12.6696 0.541 0.446 0.713 78 14 5 0 0
-0.6936 3.5913 -13.7935 0.272 0.822 0.501 122 80 53 0 0
-0.6788 3.6013 -13.8163 0.243 0.824 0.511 115 66 34 0 0
-0.8362 3.4840 -15.8320 0.773 0.633 0.038 20 15 18 0 0
-0.8275 3.4897 -15.8673 0.790 0.608 0.077 21 17 17 0 0
-0.8820 3.4512 -16.1352 0.746 0.615 0.255 23 21 19 0 0
-1.0459 3.3355 -16.9148 -0.754 0.284 0.592 69 61 62 0 0
-1.8803 2.7528 -12.3610 -0.107 0.569 0.815 128 57 40 0 0
-1.0124 3.3464 -12.4599 0.527 0.066 0.847 127 46 25 0 0
-0.9917 3.3604 -12.4748 0.643 0.010 0.765 128 47 26 0 0
-0.9618 3.3809 -12.4794 0.601 0.204 0.772 126 44 23 0 0
-0.7013 3.5583 -12.6404 0.227 0.431 0.873 79 15 5 0 0
-1.0275 3.3288 -13.6436 -0.480 0.785 0.392 6 2 3 0 0
-0.6724 3.5713 -13.7461 0.131 0.603 0.787 74 18 6 0 0
-0.6511 3.5858 -13.7608 0.131 0.603 0.787 109 64 40 0 0
-0.6446 3.5901 -13.7938 0.388 0.909 0.153 130 84 52 0 0
-0.6542 3.5826 -13.9297 0.231 0.966 0.118 61 13 6 0 0
-0.8114 3.4632 -15.8693 0.767 0.641 0.012 28 24 23 0 0
-2.3151 2.4199 -12.3219 0.078 0.728 0.681 124 52 36 0 0
-1.7439 2.8117 -12.3508 0.557 0.591 0.584 126 53 34 0 0
-1.3704 3.0675 -12.4115 0.204 0.106 0.973 131 49 26 0 0
-1.0052 3.3177 -12.4688 0.618 0.005 0.787 127 46 25 0 0
-0.8814 3.4025 -12.4827 0.064 0.598 0.799 128 46 25 0 0
-0.6293 3.5670 -13.6312 0.801 0.339 0.493 120 70 38 0 0
-0.6076 3.5781 -14.1426 0.130 0.938 0.321 95 52 39 0 0
-0.8423 3.4083 -15.3290 0.865 0.345 0.365 89 52 43 0 0
-0.9929 3.2957 -16.5893 0.939 -0.113 -0.325 32 30 31 0 0
-1.0118 3.2818 -16.7166 0.924 0.025 -0.382 41 35 34 0 0
-1.7248 2.7902 -12.3473 0.557 0.591 0.584 129 56 37 0 0
-1.3538 3.0448 -12.4103 0.115 0.384 0.916 133 51 27 0 0
-1.0582 3.2482 -12.3937 0.509 0.352 0.785 132 50 29 0 0
-0.6580 3.5211 -12.6637 0.629 0.614 0.477 75 12 5 0 0
-0.9329 3.3239 -13.6103 -0.304 0.441 0.845 6 1 1 0 0
-0.8342 3.3913 -13.6549 0.775 0.479 0.411 53 14 7 0 0
-0.6801 3.4887 -14.6439 0.252 0.564 0.786 109 50 38 0 0
-0.7515 3.4289 -15.8821 0.553 0.804 0.219 39 37 36 0 0
-1.7032 2.7703 -12.3782 0.410 0.044 0.911 124 49 30 0 0
-0.6877 3.4519 -14.2009 0.851 0.379 0.364 109 55 35 0 0
-0.7005 3.4386 -14.6484 0.424 0.317 0.848 116 57 42 0 0
-0.6692 3.4602 -14.6513 0.351 -0.072 0.934 116 55 41 0 0
-0.6597 3.4664 -14.6828 0.418 0.242 0.876 106 50 36 0 0
-0.6514 3.4718 -14.7159 0.959 0.191 0.208 103 50 36 0 0
-0.8207 3.3475 -15.4848 0.886 0.331 0.325 86 46 38 0 0
-1.8971 2.6018 -12.3665 0.343 -0.011 0.939 124 53 36 0 0
-1.6391 2.7796 -12.4033 0.560 0.195 0.805 129 53 31 0 0
-1.3547 2.9763 -12.3694 0.086 0.304 0.949 128 46 22 0 0
-0.5977 3.4796 -14.1075 -0.111 0.256 0.960 111 56 36 0 0
-0.6528 3.4355 -14.6517 0.787 0.149 0.598 118 57 44 0 0
-0.6353 3.4473 -14.6726 0.683 -0.000 0.731 111 54 41 0 0
-0.7067 3.3935 -15.0792 0.332 0.926 0.182 102 51 41 0 0
-1.7804 2.6474 -12.3767 0.764 -0.063 0.642 127 52 33 0 0
-1.6666 2.7258 -12.4102 0.151 0.255 0.955 127 50 30 0 0
-1.0080 3.1818 -12.3891 0.077 0.364 0.928 125 43 22 0 0
-0.8903 3.2630 -12.4103 0.237 0.343 0.909 137 56 32 0 0
-0.8674 3.2787 -12.4225 0.495 0.634 0.593 129 49 25 0 0
-0.6461 3.4039 -14.6647 0.693 0.681 0.237 117 56 43 0 0
-0.6329 3.4121 -14.7355 0.926 0.273 0.260 106 54 40 0 0
-0.9306 3.1802 -16.8057 0.783 0.410 -0.468 44 40 39 0 0
-0.8554 3.2534 -12.4261 0.571 0.196 0.797 130 50 26 0 0
-0.8366 3.2662 -12.4427 0.571 0.196 0.797 124 43 22 0 0
-0.5797 3.4275 -13.6682 0.524 0.312 0.793 100 59 41 0 0
-0.6286 3.3793 -14.7077 0.583 0.783 0.215 119 57 46 0 0
-0.6114 3.3866 -15.0420 0.974 0.225 -0.012 107 55 44 0 0
-0.6118 3.3857 -15.0877 0.974 0.225 -0.012 103 57 44 0 0
-0.6442 3.3504 -16.0216 0.848 0.453 0.275 35 33 34 0 0
-0.8612 3.1908 -16.6804 0.539 -0.577 0.614 37 35 34 0 0
-2.0968 2.3581 -12.3508 0.645 -0.431 0.631 125 53 38 0 0
-1.3702 2.8618 -12.4343 0.087 0.491 0.867 133 53 29 0 0
-0.8712 3.2088 -12.4227 0.567 -0.022 0.824 135 56 31 0 0
-0.4952 3.4465 -13.9971 0.857 0.376 0.352 95 29 12 0 0
-0.4914 3.4485 -14.0343 0.421 0.421 0.803 116 57 41 0 0
-0.5636 3.3858 -14.8657 0.292 0.908 0.301 121 65 48 0 0
-0.5826 3.3702 -15.0260 0.786 0.606 -0.119 114 56 45 0 0
-0.5893 3.3640 -15.1257 0.565 0.818 -0.106 110 61 47 0 0
-0.6287 3.3232 -16.0247 0.848 0.453 0.275 36 34 35 0 0
-0.9002 3.1233 -16.7641 0.812 0.583 -0.021 35 33 33 0 0
-0.9031 3.1205 -16.8191 0.826 0.346 -0.445 41 37 36 0 0
-2.1688 2.2723 -12.3624 0.229 -0.346 0.910 123 52 35 0 0
-1.9650 2.4145 -12.3481 0.451 0.546 0.706 127 55 40 0 0
-1.9562 2.4201 -12.3767 0.362 0.194 0.912 126 53 38 0 0
-1.7154 2.5875 -12.3959 0.569 0.594 0.568 127 54 35 0 0
-1.3467 2.8438 -12.4260 0.339 0.294 0.894 131 49 25 0 0
-1.1553 2.9774 -12.4103 0.087 0.671 0.736 128 48 25 0 0
-0.5906 3.3630 -12.8835 0.789 0.614 0.014 92 49 37 0 0
-0.5964 3.3531 -13.2430 0.479 0.873 0.090 78 24 9 0 0
-0.5916 3.3559 -13.2771 0.541 0.820 0.187 87 36 19 0 0
-0.5458 3.3794 -13.7893 0.662 0.712 0.234 114 56 35 0 0
-0.5341 3.3871 -13.8162 0.699 0.543 0.465 115 56 36 0 0
-0.5236 3.3940 -13.8445 0.744 0.584 0.325 119 59 40 0 0
-0.4952 3.4116 -13.9757 0.725 0.538 0.430 94 26 10 0 0
-0.4492 3.4433 -14.0012 0.636 -0.062 0.769 119 64 45 0 0
-0.7877 3.1678 -16.4263 0.143 0.936 -0.320 33 31 32 0 0
-0.8522 3.1181 -16.7207 0.215 0.882 0.419 34 33 31 0 0
-0.7953 3.1583 -16.6877 0.971 0.219 0.090 36 35 33 0 0
-1.9103 2.4167 -12.3841 0.838 -0.015 0.545 127 54 39 0 0
-1.8431 2.4635 -12.3915 0.786 -0.079 0.613 126 52 37 0 0
-1.7007 2.5628 -12.3970 0.552 0.489 0.675 128 55 36 0 0
-1.6005 2.6325 -12.4067 0.086 0.009 0.996 127 50 31 0 0
-1.2431 2.8807 -12.4829 0.512 0.501 0.698 131 51 26 0 0
-1.2148 2.9003 -12.4902 0.331 0.211 0.920 136 56 33 0 0
-1.1910 2.9167 -12.5024 0.307 0.248 0.919 135 55 32 0 0
-0.6070 3.3250 -12.4629 -0.110 0.227 0.968 155 92 82 0 0
-0.5835 3.3399 -12.5493 0.626 0.738 0.251 183 97 77 0 0
-0.5670 3.3388 -13.2664 0.748 0.618 0.242 111 58 37 0 0
-0.5602 3.3430 -13.2981 0.748 0.618 0.242 116 62 42 0 0
-0.5536 3.3470 -13.3302 0.675 0.663 0.323 114 60 39 0 0
-0.4695 3.3938 -14.0057 0.591 0.615 0.522 114 71 45 0 0
-0.4463 3.4098 -14.0181 0.454 0.559 0.694 115 71 53 0 0
-0.5743 3.2980 -15.2891 0.540 0.841 -0.021 112 78 63 0 0
-0.5755 3.2964 -15.3369 0.491 0.871 -0.008 111 78 63 0 0
-0.8439 3.0871 -16.5839 -0.369 0.929 0.029 34 32 33 0 0
-0.8108 3.1084 -16.6866 -0.173 0.829 0.532 31 30 28 0 0
-1.9819 2.3317 -12.3591 0.320 0.245 0.915 127 55 40 0 0
-1.8495 2.4241 -12.3764 0.876 -0.074 0.477 126 54 39 0 0
-1.8358 2.4332 -12.4001 0.876 -0.074 0.477 127 53 38 0 0
-1.7925 2.4636 -12.3939 0.040 0.307 0.951 129 53 39 0 0
-1.6712 2.5501 -12.3083 -0.229 0.477 0.849 127 54 37 0 0
-1.1966 2.8786 -12.4875 0.119 0.223 0.968 132 52 29 0 0
-1.1688 2.8979 -12.4953 0.119 0.223 0.968 132 52 29 0 0
-0.5392 3.3225 -13.3319 0.763 0.509 0.399 107 56 35 0 0
-0.5369 3.3234 -13.3692 0.782 0.592 0.195 103 52 34 0 0
-0.5261 3.3274 -13.5583 0.838 0.268 0.476 114 66 44 0 0
-0.4306 3.3847 -14.0610 0.675 0.668 0.312 104 62 50 0 0
-0.4221 3.3900 -14.0925 0.762 0.630 0.151 95 54 44 0 0
-0.5463 3.2817 -15.2282 0.556 0.831 -0.008 85 52 50 0 0
-0.5466 3.2806 -15.2746 0.540 0.841 -0.021 87 53 51 0 0
-0.5462 3.2800 -15.3202 0.491 0.871 -0.008 88 53 52 0 0
-0.8892 3.0087 -16.9823 0.570 0.632 -0.525 42 40 35 0 0
-2.0838 2.2240 -12.4009 -0.042 0.688 0.725 125 53 38 0 0
-1.6437 2.5346 -12.2963 -0.118 0.242 0.963 128 53 37 0 0
-1.1763 2.8585 -12.4824 0.181 0.270 0.946 132 51 28 0 0
-0.5178 3.3031 -13.3250 0.686 0.563 0.461 104 62 43 0 0
-0.5111 3.3072 -13.3571 0.697 0.650 0.302 97 53 38 0 0
-0.4017 3.3691 -14.0871 0.715 0.675 0.183 95 55 46 0 0
-0.5212 3.2634 -15.1713 0.525 0.849 0.057 79 39 36 0 0
-0.5213 3.2624 -15.2173 0.523 0.853 -0.004 77 37 34 0 0
-0.5176 3.2642 -15.2582 0.560 0.829 -0.009 83 41 38 0 0
-0.5173 3.2635 -15.3040 0.560 0.829 -0.009 79 35 34 0 0
-0.5013 3.2628 -15.8947 0.418 0.607 0.676 36 35 35 0 0
-0.4788 3.2782 -15.9104 0.564 0.486 0.668 36 34 35 0 0
-0.4532 3.2959 -15.9218 0.059 0.603 0.795 36 34 35 0 0
-0.7182 3.0964 -16.6041 -0.339 -0.470 0.815 30 29 27 0 0
-0.8535 2.9944 -16.9568 0.583 0.614 -0.531 41 39 34 0 0
-2.0882 2.1864 -12.3459 0.518 0.665 0.538 124 52 36 0 0
-2.0763 2.1942 -12.3717 0.384 0.793 0.473 124 52 37 0 0
-1.9698 2.2689 -12.3786 0.249 0.165 0.954 126 53 38 0 0
-1.9641 2.2722 -12.4105 0.315 0.039 0.948 126 53 38 0 0
-1.8581 2.3465 -12.4170 -0.159 0.493 0.856 127 54 39 0 0
-1.8239 2.3704 -12.4200 0.024 0.622 0.783 129 53 39 0 0
-1.2811 2.7525 -12.3850 0.478 0.500 0.722 130 50 26 0 0
-0.9531 2.9816 -12.4461 0.152 0.376 0.914 132 52 27 0 0
-0.4945 3.2969 -12.7664 0.785 0.535 0.312 87 22 9 0 0
-0.3888 3.3436 -14.0490 0.622 0.717 0.316 113 68 46 0 0
-0.3804 3.3488 -14.0806 0.644 0.727 0.237 102 51 36 0 0
-0.4878 3.2484 -15.2408 0.410 0.912 0.003 101 44 27 0 0
-0.4880 3.2473 -15.2871 0.352 0.936 -0.017 92 34 19 0 0
-0.4557 3.2568 -15.9024 0.424 0.614 0.666 37 35 35 0 0
-1.1278 2.8241 -12.4636 0.109 0.654 0.749 128 46 22 0 0
-0.9201 2.9711 -12.4269 0.300 0.229 0.926 132 51 27 0 0
-0.8824 2.9977 -12.4233 0.225 -0.081 0.971 136 56 31 0 0
-0.4800 3.2801 -12.4632 0.635 0.588 0.501 191 145 136 0 0
-0.4971 3.2491 -13.2981 0.710 0.640 0.294 93 53 38 0 0
-0.4396 3.2781 -13.7986 0.582 0.711 0.396 102 62 42 0 0
-0.3674 3.3234 -14.0423 0.569 0.743 0.353 120 69 37 0 0
-0.3590 3.3286 -14.0739 0.622 0.717 0.316 116 60 39 0 0
-0.4611 3.2346 -15.0444 0.284 0.958 0.049 120 54 34 0 0
-0.4624 3.2295 -15.2292 0.497 0.867 0.039 125 58 37 0 0
-0.4601 3.2301 -15.2722 0.497 0.867 0.039 121 54 33 0 0
-0.4526 3.2217 -15.8751 0.386 0.662 0.643 40 35 34 0 0
-0.4373 3.2319 -15.9012 0.542 0.561 0.626 39 36 36 0 0
-0.4038 3.2554 -15.9010 0.143 0.596 0.790 37 35 36 0 0
-1.9475 2.2131 -12.3881 0.280 0.410 0.868 125 52 37 0 0
-1.3534 2.6315 -12.4189 0.261 -0.054 0.964 131 50 29 0 0
-0.9154 2.9401 -12.4386 0.277 -0.168 0.946 128 47 22 0 0
-0.5116 3.2230 -12.5164 0.525 0.716 0.460 228 197 194 0 0
-0.4264 3.2791 -12.6847 0.238 0.508 0.828 84 16 8 0 0
-0.4586 3.2345 -13.5946 0.858 0.456 0.236 105 59 37 0 0
-0.4518 3.2385 -13.6272 0.858 0.456 0.236 111 65 43 0 0
-0.4449 3.2425 -13.6598 0.858 0.456 0.236 116 68 46 0 0
-0.4318 3.2512 -13.6847 0.756 0.403 0.516 111 62 39 0 0
-0.4190 3.2596 -13.7100 0.756 0.403 0.516 110 61 36 0 0
-0.4004 3.2713 -13.7695 0.713 0.644 0.277 113 64 40 0 0
-0.3549 3.2977 -14.0049 0.591 0.753 0.291 92 27 9 0 0
-0.3472 3.3024 -14.0372 0.622 0.682 0.384 105 41 16 0 0
-0.3382 3.3080 -14.0680 0.622 0.717 0.316 98 40 20 0 0
-0.4262 3.2230 -15.0198 0.284 0.958 0.049 124 65 46 0 0
-0.3924 3.2254 -15.9099 0.399 0.457 0.795 37 35 36 0 0
-1.9082 2.2049 -12.4023 -0.111 0.885 0.453 125 53 38 0 0
-1.4574 2.5229 -12.4311 0.687 0.361 0.630 132 54 33 0 0
-1.1174 2.7647 -12.3731 0.322 -0.022 0.947 130 48 24 0 0
-1.0937 2.7812 -12.3852 0.520 0.017 0.854 129 47 23 0 0
-0.6638 3.0837 -12.4411 0.330 0.275 0.903 128 47 26 0 0
-0.6512 3.0920 -12.4647 0.641 0.463 0.612 128 47 26 0 0
-0.4154 3.2461 -12.9607 0.618 0.705 0.348 110 66 48 0 0
-0.4301 3.2179 -13.6613 0.846 0.488 0.215 108 58 38 0 0
-0.4146 3.2283 -13.6832 0.631 0.558 0.539 110 61 40 0 0
-0.4013 3.2371 -13.7078 0.631 0.558 0.539 111 61 41 0 0
-0.3700 3.2570 -13.7930 0.338 0.858 0.388 113 61 38 0 0
-0.3806 3.1956 -15.9183 0.586 0.256 0.769 37 36 34 0 0
-1.9313 2.1538 -12.3662 0.191 0.192 0.963 125 52 35 0 0
-1.9049 2.1722 -12.3773 0.221 0.181 0.958 125 53 38 0 0
-1.8789 2.1903 -12.3890 0.105 0.627 0.772 125 53 38 0 0
-1.4462 2.4956 -12.4358 0.638 0.281 0.717 129 51 30 0 0
-1.0466 2.7790 -12.4263 0.212 0.466 0.859 129 47 23 0 0
-0.9233 2.8659 -12.4432 0.588 0.045 0.807 130 48 26 0 0
-0.6451 3.0621 -12.4750 0.228 0.832 0.506 126 45 24 0 0
-0.3967 3.2059 -13.6809 0.631 0.558 0.539 111 66 48 0 0
-0.3823 3.2156 -13.7041 0.689 0.476 0.547 113 67 49 0 0
-0.3119 3.2633 -13.7813 0.659 0.688 0.304 108 57 29 0 0
-0.3874 3.1519 -15.9536 0.613 0.659 0.437 39 36 34 0 0
-0.8958 2.8514 -12.4301 0.424 0.150 0.893 136 54 32 0 0
-0.6144 3.0504 -12.4578 0.197 0.798 0.569 128 47 26 0 0
-0.3207 3.2043 -14.4108 0.601 0.178 0.779 100 48 38 0 0
-0.3819 3.1398 -15.1663 0.884 0.446 0.138 107 52 36 0 0
-0.3590 3.1330 -15.9866 0.791 0.526 0.312 39 37 38 0 0
0.7228 3.8782 -16.8052 0.935 0.346 0.077 193 193 195 0 0
0.7242 3.8778 -16.8553 0.951 0.308 0.031 193 193 195 0 0
-1.8312 2.1533 -12.3729 0.314 0.479 0.820 125 51 36 0 0
-1.0660 2.6968 -12.4053 0.546 0.372 0.751 129 47 24 0 0
-1.0280 2.7228 -12.4398 0.591 0.289 0.753 129 46 23 0 0
-0.8850 2.8247 -12.4351 0.202 0.478 0.855 131 49 27 0 0
-0.4465 3.1367 -12.4361 0.296 0.313 0.903 128 50 33 0 0
-0.3757 3.1538 -13.5710 0.684 0.723 0.094 88 53 47 0 0
-0.3522 3.1677 -13.6652 0.480 0.730 0.486 83 50 43 0 0
-0.2776 3.2101 -14.0311 0.697 0.363 0.618 61 11 2 0 0
-0.3362 3.1598 -14.3225 0.332 0.926 0.178 124 64 46 0 0
-0.2661 3.2061 -14.4475 0.251 0.960 0.123 99 45 36 0 0
-0.2587 3.2104 -14.4814 0.242 0.959 0.148 102 47 37 0 0
-0.2492 3.2149 -14.5568 0.239 0.929 0.281 100 54 43 0 0
-0.2399 3.2206 -14.5884 0.236 0.951 0.202 68 39 34 0 0
-0.2315 3.2256 -14.6215 0.236 0.951 0.202 83 45 35 0 0
-0.2180 3.2344 -14.6475 0.176 0.943 0.281 119 68 53 0 0
-0.3700 3.1068 -15.3124 0.733 0.574 0.365 111 52 40 0 0
-0.4372 3.0451 -15.7864 0.354 0.699 0.621 82 32 20 0 0
-0.3870 3.0787 -15.8587 0.517 0.230 0.825 75 34 25 0 0
-0.3266 3.1186 -15.9649 0.586 0.682 0.438 38 36 37 0 0
-0.9059 2.7765 -12.3995 0.389 0.578 0.718 132 50 28 0 0
-0.8774 2.7954 -12.4437 0.710 0.631 0.312 133 51 29 0 0
-0.8591 2.8080 -12.4614 0.418 0.203 0.885 126 44 22 0 0
-0.3458 3.1684 -12.6417 0.620 0.520 0.588 64 13 6 0 0
-0.3303 3.1484 -13.6578 0.480 0.730 0.486 93 53 39 0 0
-0.2851 3.1773 -13.7668 0.801 0.410 0.437 43 7 2 0 0
-0.2585 3.1883 -14.0274 0.822 0.334 0.461 66 14 3 0 0
-0.2567 3.1751 -14.5010 0.731 0.681 -0.033 100 46 36 0 0
-0.2813 3.1552 -14.5781 0.788 0.320 0.526 110 54 42 0 0
-0.2676 3.1642 -14.6040 0.788 0.320 0.526 114 65 49 0 0
-0.2524 3.1743 -14.6279 0.788 0.203 0.582 71 41 34 0 0
-0.2373 3.1843 -14.6519 0.788 0.203 0.582 70 40 34 0 0
-0.2220 3.1945 -14.6756 0.786 0.165 0.596 114 66 52 0 0
-0.2058 3.2054 -14.6981 0.608 0.189 0.771 116 58 42 0 0
-0.3167 3.1202 -14.8950 0.876 0.420 -0.236 113 58 47 0 0
-0.8984 2.7472 -12.4081 0.325 0.407 0.854 134 52 30 0 0
-0.8775 2.7617 -12.4230 0.325 0.407 0.854 135 54 31 0 0
-0.6667 2.9101 -12.4923 0.650 0.135 0.748 132 52 29 0 0
-0.6421 2.9273 -12.5027 0.555 0.526 0.644 128 48 25 0 0
-0.3122 3.1262 -13.6552 0.748 0.551 0.369 117 70 42 0 0
-0.3023 3.1324 -13.6842 0.687 0.574 0.445 113 67 45 0 0
-0.2330 3.1714 -14.0153 0.475 0.637 0.607 62 10 2 0 0
-0.2248 3.1762 -14.0471 0.749 0.300 0.590 88 24 6 0 0
-0.2552 3.1365 -14.6098 0.828 0.168 0.534 118 70 50 0 0
-0.2409 3.1459 -14.6349 0.828 0.168 0.534 80 48 38 0 0
-0.2106 3.1660 -14.6828 0.786 0.165 0.596 96 57 48 0 0
-1.2825 2.4372 -12.4219 0.653 0.047 0.756 130 50 29 0 0
-0.9065 2.7073 -12.3961 0.301 -0.005 0.954 128 45 25 0 0
-0.8537 2.7445 -12.4139 0.390 0.013 0.921 126 45 24 0 0
-0.8122 2.7732 -12.4438 0.411 0.228 0.883 126 44 22 0 0
-0.1993 3.1607 -13.9925 0.048 0.745 0.665 63 13 3 0 0
-0.2888 3.0753 -14.6332 0.439 0.891 -0.118 105 54 41 0 0
-0.2163 3.1290 -14.5796 0.905 0.291 0.309 118 67 46 0 0
-0.2071 3.1345 -14.6116 0.905 0.291 0.309 95 57 41 0 0
-0.2452 3.0890 -15.1629 0.872 0.145 0.468 124 67 46 0 0
-0.8940 2.6816 -12.3994 0.265 0.125 0.956 129 46 26 0 0
-0.7271 2.7973 -12.5183 0.437 0.361 0.824 129 51 28 0 0
-0.6288 2.8677 -12.5223 0.348 0.480 0.806 131 49 29 0 0
-0.4437 3.0012 -12.5024 0.719 0.133 0.682 126 46 29 0 0
-0.2867 3.1056 -12.7418 0.565 0.154 0.811 87 19 9 0 0
-3.0921 1.0674 -12.3724 0.252 0.255 0.934 110 52 40 0 0
-3.0644 1.0869 -12.3852 0.252 0.255 0.934 110 52 40 0 0
-1.2746 2.3717 -12.4467 0.407 -0.118 0.906 130 49 28 0 0
-1.0330 2.5452 -12.4536 0.246 0.245 0.938 133 51 30 0 0
-0.2717 3.0823 -12.7423 0.491 0.430 0.757 85 19 10 0 0
-0.2344 3.0391 -14.6941 0.302 0.944 0.135 116 70 53 0 0
-0.2306 3.0404 -14.7338 0.220 0.959 0.181 72 48 40 0 0
-0.0293 3.1435 -15.8980 0.646 0.469 -0.603 39 37 38 0 0
-1.9825 1.8297 -12.3559 0.161 0.295 0.942 126 53 36 0 0
-1.9502 1.8528 -12.3616 0.089 0.713 0.695 125 52 35 0 0
-1.8688 1.9117 -12.3558 0.167 0.265 0.950 125 52 35 0 0
-1.0109 2.5265 -12.4465 0.285 0.290 0.913 131 49 28 0 0
-0.5925 2.8254 -12.5162 0.465 0.356 0.811 132 50 29 0 0
-0.5627 2.8467 -12.5205 0.137 0.266 0.954 126 44 23 0 0
-0.4312 2.9413 -12.5233 0.442 0.732 0.519 120 41 24 0 0
-0.4271 2.9431 -12.5566 0.729 -0.036 0.684 123 48 30 0 0
-0.2251 3.0443 -13.7509 0.879 0.191 0.436 113 69 34 0 0
-3.2080 0.9054 -12.4323 0.073 0.049 0.996 107 50 39 0 0
-1.8628 1.8795 -12.3659 0.282 -0.021 0.959 124 51 34 0 0
-1.5167 2.1298 -12.3543 0.707 0.501 0.500 126 50 34 0 0
-0.9937 2.5041 -12.4448 0.285 0.290 0.913 130 48 27 0 0
-0.4790 2.8743 -12.4811 0.596 0.766 0.242 126 44 23 0 0
-0.2203 3.0117 -13.7654 0.927 0.062 0.370 114 69 35 0 0
-0.1994 3.0263 -13.7805 0.699 0.593 0.400 105 58 32 0 0
-0.1761 2.9755 -15.5379 0.714 -0.138 0.686 111 62 49 0 0
-0.1558 2.9894 -15.5562 0.714 -0.138 0.686 91 50 39 0 0
-0.2151 3.0227 -12.6913 0.741 0.369 0.561 68 13 7 0 0
-0.2264 3.0109 -12.7823 0.311 0.744 0.592 82 20 9 0 0
-0.2163 2.9785 -13.7809 0.756 0.005 0.655 127 79 49 0 0
-0.2094 2.9822 -13.8141 0.874 0.260 0.410 110 63 31 0 0
-0.0989 3.0458 -14.2253 0.933 0.354 -0.064 88 45 40 0 0
-0.1282 3.0143 -14.4840 0.618 0.551 0.561 101 50 39 0 0
-0.1635 2.9833 -14.6210 0.297 0.955 -0.021 104 55 41 0 0
-0.6355 2.6915 -12.5023 0.167 0.341 0.925 130 48 27 0 0
-0.3893 2.8722 -12.4517 0.207 0.785 0.584 126 44 23 0 0
-0.3224 2.9191 -12.4890 0.818 0.321 0.477 125 47 27 0 0
-0.2164 2.9869 -12.7109 0.703 0.429 0.567 66 11 5 0 0
-0.1993 2.9969 -12.7683 0.487 0.597 0.637 78 17 7 0 0
-0.1052 2.9950 -14.4752 0.481 0.781 0.398 105 52 41 0 0
-0.3133 2.8913 -12.4962 0.881 0.198 0.429 122 44 24 0 0
-0.3519 2.8139 -13.6591 0.359 0.139 0.923 5 1 1 0 0
-0.1796 2.9396 -13.6496 0.731 0.360 0.579 33 9 7 0 0
-0.1654 2.9488 -13.6732 0.731 0.360 0.579 54 12 2 0 0
-0.1706 2.9413 -13.7636 0.757 0.162 0.633 110 57 28 0 0
-0.0731 2.9865 -14.3659 0.817 0.544 0.189 120 59 48 0 0
-0.0669 2.9895 -14.4015 0.817 0.544 0.189 122 58 49 0 0
-0.1827 2.8596 -15.4797 0.893 0.236 0.383 105 54 37 0 0
-0.2055 2.8294 -15.8014 0.240 0.927 0.290 84 42 34 0 0
-0.9267 2.4079 -12.5545 0.907 0.283 0.313 130 49 28 0 0
-0.6793 2.5918 -12.4716 0.526 -0.024 0.850 130 48 27 0 0
-0.3230 2.8506 -12.4869 0.559 0.218 0.800 123 45 24 0 0
-0.3006 2.8664 -12.4991 0.769 0.287 0.570 125 49 27 0 0
-0.5249 2.6454 -13.8124 0.569 0.133 0.811 6 1 3 0 0
-0.1423 2.9270 -13.7479 0.438 0.895 0.083 94 38 11 0 0
-0.0893 2.9537 -14.0185 0.453 0.777 0.438 71 14 7 0 0
-0.0517 2.9661 -14.3592 0.718 0.683 0.133 123 62 49 0 0
-0.0441 2.9702 -14.3929 0.663 0.718 0.213 121 58 47 0 0
-0.0524 2.9617 -14.4485 0.497 0.810 0.311 121 57 49 0 0
-0.0441 2.9663 -14.4815 0.480 0.842 0.247 120 58 47 0 0
-0.1568 2.8432 -15.4197 0.732 0.647 0.215 104 51 38 0 0
-0.1652 2.8345 -15.4793 0.514 0.580 0.632 103 52 37 0 0
-0.1594 2.8370 -15.5186 0.746 0.571 0.344 114 61 48 0 0
-0.1420 2.8466 -15.5891 0.678 0.605 0.417 114 60 48 0 0
-0.1317 2.8525 -15.6223 0.682 0.597 0.422 108 57 45 0 0
-1.6459 1.8540 -12.4170 0.524 0.230 0.820 124 51 34 0 0
-1.6254 1.8682 -12.4341 0.524 0.230 0.820 125 52 35 0 0
-1.5223 1.9414 -12.4803 -0.020 -0.125 0.992 126 51 35 0 0
-0.3054 2.8293 -12.4842 0.354 0.360 0.863 122 44 24 0 0
-0.2848 2.8437 -12.4986 0.705 0.250 0.664 121 44 22 0 0
-0.5122 2.6183 -13.8169 0.569 0.133 0.811 6 2 3 0 0
-0.0313 2.9588 -14.0492 0.347 0.388 0.854 81 16 3 0 0
-0.1190 2.8364 -15.3428 0.754 0.647 0.114 116 58 46 0 0
-0.1207 2.8329 -15.3926 0.419 0.878 0.230 108 53 41 0 0
5.6324 6.9713 -16.7309 -0.377 0.629 0.680 217 217 217 0 0
5.7200 7.0365 -16.7042 -0.456 0.302 0.837 216 216 216 0 0
-1.6393 1.8222 -12.4266 0.516 0.154 0.843 125 52 35 0 0
-1.1695 2.1674 -12.3928 0.129 0.212 0.969 128 50 29 0 0
-0.2877 2.8082 -12.4815 0.528 0.270 0.805 123 45 25 0 0
-0.2114 2.8627 -12.5076 0.592 0.662 0.459 125 48 34 0 0
-0.4954 2.5942 -13.8164 0.563 0.124 0.817 6 2 3 0 0
-0.4552 2.6240 -13.8082 0.640 0.288 0.712 6 0 2 0 0
-0.4428 2.6319 -13.8348 -0.276 0.169 0.946 4 1 2 0 0
-0.2397 2.7826 -13.7880 0.196 0.373 0.907 29 9 8 0 0
-0.0138 2.9357 -14.0475 0.266 0.497 0.826 80 17 5 0 0
0.0255 2.9426 -14.5203 0.455 0.852 0.258 122 67 46 0 0
5.6558 6.9590 -16.7017 -0.317 0.427 0.847 204 204 204 0 0
5.6758 6.9737 -16.7016 -0.317 0.427 0.847 175 175 175 0 0
-1.5669 1.8381 -12.4450 0.405 0.541 0.737 127 54 37 0 0
-0.3061 2.7604 -12.4822 0.186 0.524 0.831 126 46 26 0 0
-0.1937 2.8417 -12.5047 0.428 0.558 0.711 125 47 32 0 0
-0.1373 2.8788 -12.5922 0.070 0.647 0.759 164 91 59 0 0
-0.4814 2.5680 -13.8193 0.272 0.763 0.587 6 2 4 0 0
-0.1914 2.7800 -13.8315 0.484 0.874 -0.040 42 9 6 0 0
