ply
format ascii 1.0
element vertex 861
property float x
property float y
property float z
property float nx
property float ny
property float nz
property uchar diffuse_red
property uchar diffuse_green
property uchar diffuse_blue
property uchar class
property uchar detection
end_header
1.0338 1.9167 -15.0092 0.855 0.462 0.236 116 71 57 0 0
1.1252 1.6676 -16.0399 0.751 0.572 0.329 53 43 41 0 0
1.1595 1.5608 -16.4400 0.668 0.721 -0.182 39 35 32 0 0
1.1996 1.5424 -16.7990 -0.466 -0.338 0.818 100 100 102 0 0
0.5048 -1.5968 -13.8075 0.009 0.897 -0.442 212 213 217 0 0
0.8272 1.9662 -12.9566 0.806 0.587 -0.076 98 56 47 0 0
0.8374 1.6753 -13.3336 0.964 0.255 -0.068 61 56 60 0 0
0.8417 1.6406 -13.4042 0.964 0.255 -0.068 59 57 61 0 0
0.9733 1.9824 -14.1708 0.645 0.754 0.121 104 60 44 0 0
0.9882 2.0362 -14.2423 0.013 0.528 0.849 114 69 51 0 0
0.9931 2.0604 -14.2600 0.191 0.856 0.480 119 72 56 0 0
1.0590 1.8898 -14.9857 0.870 0.463 0.168 116 66 53 0 0
1.1565 1.6988 -15.9983 0.575 0.818 -0.013 50 42 40 0 0
1.1687 1.5886 -16.2113 0.632 0.627 0.454 48 42 42 0 0
1.1742 1.6007 -16.2454 0.738 0.673 -0.049 48 42 42 0 0
1.1797 1.6115 -16.2810 0.753 0.625 -0.206 47 42 42 0 0
2.1097 8.9373 -16.7815 0.518 0.797 0.311 216 216 216 0 0
0.5501 -1.6927 -13.9992 -0.432 0.523 0.735 175 163 156 0 0
0.8724 1.3131 -13.7341 -0.320 0.423 0.847 55 54 58 0 0
0.8776 1.3463 -13.7442 -0.310 0.277 0.910 49 45 49 0 0
0.9133 1.6000 -13.7932 0.274 0.461 0.844 28 13 11 0 0
1.0077 1.9556 -14.2316 0.640 0.600 0.481 99 62 48 0 0
1.0895 1.8538 -15.0153 0.845 0.524 0.107 118 69 54 0 0
1.0948 1.8434 -15.0697 0.821 0.565 0.084 111 68 53 0 0
1.1382 1.7365 -15.5373 0.600 0.797 -0.060 110 64 50 0 0
1.1435 1.7551 -15.5629 0.770 0.625 0.129 110 62 49 0 0
1.1946 1.6152 -16.1273 0.771 0.635 -0.039 45 42 41 0 0
1.2015 1.5052 -16.2938 0.534 0.837 0.118 45 41 40 0 0
1.2064 1.5679 -16.2729 0.658 0.742 -0.125 46 41 40 0 0
1.2125 1.5396 -16.3513 0.581 0.793 -0.185 45 40 39 0 0
1.2908 1.7062 -16.8418 0.154 -0.405 0.901 136 136 140 0 0
1.2956 1.7643 -16.8247 0.342 -0.321 0.883 139 139 141 0 0
2.1375 8.9124 -16.8244 -0.018 0.619 0.785 216 216 216 0 0
2.1404 8.9388 -16.8229 0.320 0.754 0.574 212 212 212 0 0
0.5835 -1.6832 -13.9853 -0.312 0.334 0.889 161 141 131 0 0
0.7091 0.6205 -12.7984 -0.361 -0.124 0.924 117 67 54 0 0
0.8117 1.6177 -12.6836 0.030 0.397 0.917 109 41 27 0 0
1.1750 1.6999 -15.6134 0.864 0.436 0.253 108 61 48 0 0
1.1820 1.5643 -15.8023 0.246 0.658 0.711 99 55 47 0 0
1.1874 1.5785 -15.8333 0.028 0.774 0.632 88 48 41 0 0
1.2208 1.5999 -16.0889 0.269 0.929 -0.253 48 41 40 0 0
1.2268 1.5716 -16.1665 -0.570 0.764 0.303 44 42 40 0 0
1.2398 1.4659 -16.3759 0.658 0.705 0.265 45 40 39 0 0
1.2449 1.5104 -16.3750 0.581 0.793 -0.185 44 38 37 0 0
1.2878 1.3837 -16.8529 -0.319 -0.235 0.918 96 92 93 0 0
2.1586 8.8883 -16.8094 0.163 0.380 0.911 216 216 216 0 0
2.1629 8.9051 -16.8289 -0.131 0.658 0.741 216 216 216 0 0
2.1664 8.9270 -16.8372 -0.036 0.792 0.610 211 211 211 0 0
2.1704 8.9461 -16.8516 0.033 0.813 0.582 213 213 213 0 0
2.1772 8.9460 -16.9081 -0.303 0.796 0.525 215 215 215 0 0
2.1819 8.9601 -16.9335 -0.198 0.876 0.439 215 215 215 0 0
0.7332 0.5713 -12.7943 -0.026 -0.303 0.953 114 74 64 0 0
0.9520 1.4349 -13.7709 0.283 0.632 0.722 8 2 2 0 0
0.9773 1.6552 -13.7689 -0.010 0.530 0.848 29 9 5 0 0
1.1400 1.8106 -14.9574 0.617 0.787 0.012 107 61 51 0 0
1.1843 1.6797 -15.4461 0.682 0.712 -0.168 106 59 45 0 0
1.2068 1.6435 -15.6651 0.799 0.395 0.453 103 58 47 0 0
1.2135 1.5538 -15.8056 0.222 0.547 0.807 94 53 46 0 0
1.2189 1.5745 -15.8297 0.028 0.774 0.632 80 41 33 0 0
1.2243 1.5894 -15.8599 -0.132 0.683 0.718 84 39 28 0 0
1.2594 1.5214 -16.2126 0.692 0.534 0.486 43 42 40 0 0
1.2664 1.4442 -16.3437 0.629 0.769 0.110 43 41 39 0 0
1.2723 1.4387 -16.3973 0.546 0.785 0.292 44 39 38 0 0
2.1842 8.8794 -16.8174 -0.134 0.167 0.977 216 216 216 0 0
2.1916 8.9207 -16.8396 -0.093 0.553 0.828 212 212 212 0 0
2.1955 8.9405 -16.8524 -0.093 0.553 0.828 214 214 214 0 0
2.1992 8.9616 -16.8623 0.096 0.787 0.610 215 215 215 0 0
0.7677 0.5863 -12.8141 0.361 -0.028 0.932 125 88 74 0 0
0.9615 1.3020 -13.7244 0.358 0.169 0.918 14 10 8 0 0
0.9666 1.3445 -13.7261 0.346 0.268 0.899 11 4 3 0 0
0.9967 1.5552 -13.7744 0.068 0.781 0.621 29 11 12 0 0
1.2038 1.7149 -15.3125 0.463 0.861 -0.210 112 63 53 0 0
1.2150 1.6960 -15.4215 0.446 0.893 0.053 105 60 46 0 0
1.2439 1.6207 -15.7269 0.785 0.555 0.275 86 47 40 0 0
1.2504 1.5653 -15.8315 0.407 0.603 0.686 73 36 24 0 0
1.2716 1.6585 -15.9168 0.193 0.477 0.857 49 42 36 0 0
1.2915 1.5048 -16.2225 0.770 0.594 0.234 41 40 38 0 0
1.3340 1.4293 -16.6394 0.492 0.726 0.480 72 70 68 0 0
1.3396 1.4472 -16.6680 0.326 0.532 0.781 83 82 82 0 0
1.3452 1.4622 -16.7000 0.494 0.723 0.482 93 92 94 0 0
1.3562 1.5073 -16.7470 -0.337 -0.345 0.876 111 111 114 0 0
2.2110 8.9077 -16.8005 0.121 0.477 0.871 216 216 216 0 0
2.2153 8.9246 -16.8196 -0.087 0.343 0.935 215 215 215 0 0
2.2199 8.9399 -16.8423 -0.067 0.686 0.724 213 213 213 0 0
2.2245 8.9546 -16.8662 -0.002 0.685 0.729 215 215 215 0 0
0.9862 1.2609 -13.7148 -0.095 0.102 0.990 9 3 3 0 0
0.9912 1.3069 -13.7134 -0.299 0.205 0.932 8 2 2 0 0
1.2348 1.6964 -15.3240 0.279 0.928 -0.247 105 58 49 0 0
1.2524 1.6382 -15.5191 0.298 0.918 -0.262 92 51 42 0 0
1.2580 1.6338 -15.5689 0.646 0.756 -0.104 107 60 48 0 0
1.2929 1.5806 -15.8996 0.619 0.668 0.413 73 49 41 0 0
1.2984 1.5948 -15.9307 0.619 0.668 0.413 50 39 36 0 0
1.4123 1.5242 -16.9154 -0.360 -0.327 0.874 132 132 134 0 0
1.0159 1.2755 -13.6950 -0.370 0.217 0.903 8 2 2 0 0
1.0209 1.3124 -13.7018 -0.370 0.217 0.903 7 1 1 0 0
1.0901 1.7462 -13.8656 0.188 0.664 0.723 62 19 5 0 0
1.1202 1.8099 -14.0495 0.592 0.643 0.485 61 14 6 0 0
1.2615 1.6045 -15.3668 0.732 0.676 -0.088 110 62 51 0 0
1.2719 1.6502 -15.4090 0.622 0.783 0.000 99 53 43 0 0
1.2777 1.6402 -15.4643 0.661 0.734 0.158 104 61 50 0 0
1.2838 1.6134 -15.5373 0.462 0.868 -0.179 90 48 40 0 0
1.3565 1.4438 -16.2722 0.816 0.446 0.369 40 39 37 0 0
0.7771 -1.1467 -13.7008 -0.277 0.175 0.945 121 75 58 0 0
0.7832 -1.0648 -13.6774 0.404 -0.081 0.911 143 88 69 0 0
1.0107 1.8614 -12.8925 0.384 0.908 0.165 105 54 38 0 0
1.0801 1.5250 -13.7421 0.036 0.677 0.735 27 8 4 0 0
1.1046 1.6806 -13.7992 0.241 0.674 0.698 105 49 22 0 0
1.1096 1.7009 -13.8205 0.241 0.674 0.698 120 72 37 0 0
1.2515 1.7274 -14.9254 0.443 0.895 0.053 109 66 51 0 0
1.2814 1.5924 -15.2825 0.687 0.723 -0.073 90 53 39 0 0
1.2872 1.5813 -15.3385 0.687 0.723 -0.073 110 64 51 0 0
1.2928 1.5815 -15.3829 0.764 0.644 0.047 109 58 45 0 0
1.3032 1.6284 -15.4240 0.780 0.613 0.122 100 55 44 0 0
1.3890 1.4179 -16.2920 0.745 0.513 0.427 38 37 35 0 0
0.8091 -1.1606 -13.7052 0.281 -0.047 0.958 137 91 70 0 0
0.9769 1.5506 -12.6673 -0.602 0.503 0.620 107 40 24 0 0
1.1390 1.6814 -13.8320 0.499 0.659 0.563 108 60 25 0 0
1.3129 1.5562 -15.3120 0.620 0.784 0.008 101 60 46 0 0
1.3187 1.5522 -15.3608 0.592 0.805 0.031 109 61 49 0 0
1.3243 1.5559 -15.4017 0.814 0.553 0.179 103 52 43 0 0
0.8413 -1.1649 -13.7022 0.244 0.003 0.970 145 92 67 0 0
1.1934 1.7650 -13.9494 0.625 0.465 0.627 81 20 2 0 0
1.2042 1.7310 -14.0634 0.651 0.684 0.330 67 18 8 0 0
1.3157 1.5473 -15.0926 0.408 0.772 0.487 115 67 55 0 0
1.4147 1.5016 -15.9056 0.650 0.734 0.198 49 34 32 0 0
2.3386 8.8679 -16.8300 -0.322 0.945 -0.053 215 215 215 0 0
0.8733 -1.1834 -13.7102 0.244 0.003 0.970 138 78 51 0 0
0.8790 -1.1311 -13.7101 0.211 -0.030 0.977 146 92 69 0 0
1.1233 1.3864 -13.4896 -0.219 0.831 0.511 11 1 2 0 0
1.1283 1.3998 -13.5171 0.070 0.930 0.361 9 0 1 0 0
1.2949 1.6117 -14.6319 -0.408 0.707 0.577 47 41 42 0 0
1.3104 1.6640 -14.7083 0.472 0.881 -0.028 107 56 45 0 0
1.4535 1.4507 -15.9980 0.760 0.595 0.261 38 34 33 0 0
2.3607 8.8381 -16.8272 0.607 0.383 0.696 215 215 215 0 0
2.3675 8.8824 -16.8430 0.104 0.994 0.018 215 215 215 0 0
2.3886 8.8861 -17.0037 0.116 0.990 0.082 215 215 215 0 0
1.1100 1.7037 -12.8930 0.755 0.624 0.202 89 29 6 0 0
1.1527 1.3758 -13.4927 -0.271 0.787 0.554 13 3 3 0 0
1.2476 1.7114 -13.9459 0.614 0.363 0.701 82 23 6 0 0
1.2740 1.7204 -14.1421 0.565 0.634 0.527 109 60 43 0 0
1.2792 1.7317 -14.1725 0.335 0.730 0.596 81 31 16 0 0
1.3250 1.6120 -14.6244 -0.230 0.372 0.899 36 26 27 0 0
1.3297 1.6548 -14.6248 0.326 0.612 0.720 47 25 21 0 0
1.3410 1.6434 -14.7215 0.410 0.911 -0.043 108 46 32 0 0
1.3850 1.4520 -15.2181 0.175 0.167 0.970 106 53 44 0 0
1.3909 1.4431 -15.2714 -0.497 0.185 0.848 106 60 46 0 0
1.3955 1.4913 -15.2668 -0.455 0.258 0.852 98 55 41 0 0
1.4441 1.4230 -15.6970 0.829 0.455 0.324 91 41 29 0 0
1.4720 1.4864 -15.8598 0.522 0.343 0.781 51 36 36 0 0
1.5073 1.3242 -16.2656 0.934 0.248 0.257 34 33 31 0 0
1.5146 1.2870 -16.3528 0.142 -0.297 0.944 30 29 27 0 0
2.3836 8.8458 -16.7993 -0.303 -0.080 0.950 216 216 216 0 0
2.4033 8.8993 -16.9071 0.779 0.342 0.525 215 215 215 0 0
1.1490 1.6229 -13.0337 0.865 0.499 0.038 56 24 18 0 0
1.3040 1.6985 -14.1562 0.467 0.453 0.759 96 46 33 0 0
1.3088 1.7272 -14.1700 0.328 0.438 0.837 95 41 24 0 0
1.3144 1.7204 -14.2178 0.540 0.801 0.259 113 71 53 0 0
1.3498 1.6030 -14.5836 -0.166 0.986 -0.012 43 33 32 0 0
1.3546 1.6337 -14.5959 0.444 0.770 0.458 36 21 19 0 0
1.3655 1.6478 -14.6672 0.595 0.760 0.261 107 50 35 0 0
1.4769 1.3728 -15.7415 0.591 0.709 0.385 80 29 19 0 0
1.4983 1.4555 -15.8384 0.405 0.466 0.787 58 36 32 0 0
1.5036 1.4783 -15.8603 0.544 0.367 0.755 40 34 33 0 0
1.5135 1.3608 -16.0309 0.727 0.676 -0.124 37 33 32 0 0
1.5347 1.2746 -16.2633 0.864 0.501 -0.044 33 32 30 0 0
1.5721 1.1002 -16.6900 0.487 0.779 -0.395 46 43 38 0 0
1.1879 1.6059 -13.1192 0.840 0.541 0.041 22 10 8 0 0
1.3442 1.7069 -14.2239 0.322 0.903 0.284 108 67 48 0 0
1.5089 1.3534 -15.7539 0.569 0.677 0.466 73 22 15 0 0
1.5318 1.3924 -15.8969 0.408 0.519 0.751 47 34 31 0 0
1.5373 1.4123 -15.9221 0.641 0.651 0.405 36 33 31 0 0
1.5485 1.2639 -16.1255 0.776 0.623 0.100 34 32 31 0 0
2.4392 8.9276 -16.7667 -0.437 -0.321 0.840 215 215 215 0 0
1.2280 1.5199 -13.2665 0.672 0.712 0.204 26 9 6 0 0
1.3740 1.7009 -14.2228 0.412 0.857 0.308 105 65 47 0 0
1.4007 1.5219 -14.5638 0.602 0.226 0.766 67 56 56 0 0
1.4055 1.5517 -14.5771 0.600 0.215 0.770 59 44 44 0 0
1.4837 1.4381 -15.2539 0.114 0.830 0.546 87 43 31 0 0
1.5354 1.3189 -15.7362 0.547 0.793 0.268 73 34 25 0 0
1.5465 1.3483 -15.7972 0.361 0.716 0.598 109 40 32 0 0
1.5816 1.2298 -16.1536 0.758 0.634 0.155 32 32 30 0 0
1.5853 1.2976 -16.1286 0.965 0.160 0.207 32 31 29 0 0
1.6424 0.9692 -16.8151 0.345 0.928 -0.139 54 51 46 0 0
2.4461 8.5702 -16.9071 -0.574 -0.017 0.819 214 214 214 0 0
1.4316 1.4889 -14.5888 0.528 0.113 0.842 62 50 50 0 0
1.5088 1.4312 -15.2091 0.312 0.814 0.490 97 45 30 0 0
1.5616 1.2921 -15.7104 0.532 0.800 0.277 89 50 37 0 0
1.5786 1.3309 -15.8075 0.479 0.751 0.454 106 43 35 0 0
1.5894 1.3728 -15.8556 0.246 0.742 0.624 45 30 32 0 0
1.5958 1.3643 -15.9107 0.031 0.294 0.955 36 31 31 0 0
1.6068 1.2397 -16.0883 0.779 0.610 0.146 32 31 29 0 0
1.6219 1.1742 -16.2514 0.601 0.789 -0.126 30 29 27 0 0
1.6467 1.0311 -16.5465 -0.468 0.410 0.783 30 27 26 0 0
1.6553 0.9779 -16.6517 0.134 0.985 -0.108 32 28 27 0 0
2.4768 8.6602 -16.8727 -0.587 -0.191 0.786 216 216 215 0 0
1.3701 1.5768 -13.8357 -0.066 0.789 0.610 102 53 29 0 0
1.3986 1.5331 -14.0802 0.637 0.751 0.175 78 27 16 0 0
1.5858 1.3209 -15.6276 0.561 0.821 -0.105 89 47 37 0 0
1.6107 1.3134 -15.8179 0.303 0.701 0.646 98 43 37 0 0
1.6478 1.1692 -16.2015 0.907 0.387 0.166 30 29 27 0 0
1.6547 1.1541 -16.2646 0.656 0.736 -0.166 30 29 27 0 0
1.7149 0.9591 -16.8581 -0.662 0.075 0.746 74 71 68 0 0
1.1142 -1.0408 -13.6758 -0.126 0.080 0.989 111 49 38 0 0
1.1604 -0.5642 -13.6617 -0.170 0.171 0.970 118 54 36 0 0
1.2346 1.3277 -12.8022 0.632 -0.156 0.759 112 47 32 0 0
1.6489 1.3020 -15.8680 0.709 0.623 0.329 44 29 27 0 0
1.6814 1.1285 -16.2365 0.892 0.430 0.142 29 27 25 0 0
2.5050 8.5276 -16.7973 0.489 0.649 0.583 216 216 216 0 0
1.1967 -0.5033 -13.6466 0.005 0.187 0.982 116 51 33 0 0
1.2687 1.3083 -12.8504 0.494 -0.082 0.866 111 45 33 0 0
1.6434 1.2891 -15.5994 0.860 0.487 0.151 63 31 25 0 0
1.7152 1.0886 -16.2705 0.857 0.514 0.045 28 24 23 0 0
1.7229 1.0632 -16.3447 -0.572 0.520 0.634 26 22 21 0 0
1.7288 1.0759 -16.3787 0.055 0.977 -0.205 26 22 21 0 0
2.5563 8.6261 -16.9111 -0.589 0.607 0.534 214 214 213 0 0
1.2333 -0.4762 -13.6587 -0.209 0.182 0.961 112 47 30 0 0
1.3802 1.4079 -13.3732 -0.294 0.303 0.906 96 53 38 0 0
1.3853 1.4205 -13.4012 0.202 0.522 0.829 96 54 38 0 0
1.4459 1.4145 -13.8447 0.700 0.599 0.390 92 51 39 0 0
2.5502 8.5065 -16.7641 0.182 0.639 0.748 216 216 216 0 0
1.2649 -0.5023 -13.6733 0.396 0.213 0.893 117 55 36 0 0
1.2696 -0.4343 -13.6586 -0.065 0.263 0.963 116 48 30 0 0
1.3284 1.1922 -12.9367 0.399 -0.265 0.878 115 56 41 0 0
1.3501 1.4176 -12.9341 0.570 0.618 0.541 100 43 26 0 0
1.3553 1.4204 -12.9698 0.392 0.777 0.493 120 56 36 0 0
1.3602 1.4369 -12.9936 0.472 0.854 0.220 117 54 32 0 0
1.3654 1.4431 -13.0264 0.212 0.941 0.263 116 64 45 0 0
1.3706 1.4485 -13.0600 0.135 0.986 0.096 101 60 44 0 0
1.6056 1.3389 -14.8277 0.692 0.648 0.318 67 46 36 0 0
1.6118 1.3340 -14.8757 0.662 0.710 0.239 45 34 35 0 0
1.6181 1.3263 -14.9266 0.573 0.805 0.152 57 32 27 0 0
1.6688 1.2797 -15.3245 0.820 0.569 0.055 7 4 5 0 0
1.7648 1.1196 -16.1278 0.659 0.732 -0.174 26 24 22 0 0
1.7714 1.1189 -16.1754 0.607 0.785 -0.123 26 22 21 0 0
2.5702 8.4894 -16.7337 -0.478 0.658 0.582 215 215 215 0 0
2.5750 8.5040 -16.7583 -0.030 0.728 0.685 214 214 214 0 0
1.3010 -0.4452 -13.6610 0.375 0.292 0.880 118 58 37 0 0
1.6933 1.2864 -15.2658 0.691 0.713 0.117 4 5 8 0 0
2.5831 8.4298 -16.6819 -0.014 0.810 0.586 214 214 214 0 0
2.5876 8.4459 -16.7032 0.043 0.778 0.627 212 212 212 0 0
2.6002 8.5000 -16.7556 -0.107 0.692 0.714 212 212 212 0 0
1.2895 -0.9556 -13.6986 0.050 0.418 0.907 112 50 28 0 0
1.3276 -0.5053 -13.6629 0.184 0.124 0.975 110 52 31 0 0
1.4244 1.3784 -13.0702 0.224 0.974 -0.022 104 40 23 0 0
1.4299 1.3762 -13.1105 0.224 0.974 -0.022 101 40 22 0 0
1.5317 1.3203 -13.8706 0.520 0.809 0.274 94 55 39 0 0
1.6752 1.2750 -14.9191 0.850 0.360 0.385 11 9 12 0 0
1.7184 1.2762 -15.2243 0.465 0.880 0.099 4 5 4 0 0
2.6250 8.4976 -16.7495 -0.107 0.692 0.714 215 215 215 0 0
2.6278 8.5225 -16.7527 -0.064 0.630 0.774 215 215 215 0 0
2.6332 8.5346 -16.7824 -0.120 0.600 0.791 216 216 216 0 0
1.2826 -1.4251 -13.7328 -0.019 -0.129 0.992 117 59 44 0 0
1.3592 -0.5225 -13.6704 -0.040 0.297 0.954 119 64 42 0 0
1.3688 -0.4323 -13.6782 0.350 0.515 0.782 116 58 37 0 0
1.6131 1.3328 -14.2209 0.672 0.722 0.166 103 59 44 0 0
1.7499 1.2627 -15.2304 0.417 0.903 0.100 4 4 4 0 0
2.6336 8.4206 -16.6788 0.271 0.820 0.505 215 215 215 0 0
2.6499 8.4945 -16.7449 -0.030 0.728 0.685 215 215 215 0 0
1.4006 -0.4561 -13.6910 0.247 0.360 0.899 109 52 33 0 0
1.4462 0.0461 -13.6808 -0.138 0.106 0.985 113 42 27 0 0
1.8629 1.1692 -15.8590 0.159 0.629 0.761 26 24 26 0 0
2.6807 8.5398 -16.7495 -0.117 0.682 0.722 215 215 215 0 0
1.4270 -0.5003 -13.6800 -0.077 0.468 0.880 131 72 51 0 0
2.0458 1.3663 -16.7748 -0.684 -0.263 0.680 122 122 122 0 0
1.4584 -0.5030 -13.6758 -0.077 0.468 0.880 128 63 39 0 0
1.4634 -0.4726 -13.6915 -0.077 0.468 0.880 148 85 53 0 0
1.8286 1.0364 -15.2560 0.870 0.481 0.107 8 7 8 0 0
1.8639 1.1021 -15.4579 0.750 0.328 0.574 2 2 2 0 0
1.9180 1.0752 -15.8484 0.288 0.682 0.672 13 10 11 0 0
1.4895 -0.5009 -13.6676 -0.101 0.620 0.778 123 52 24 0 0
1.4946 -0.4722 -13.6848 -0.127 0.506 0.853 150 74 36 0 0
1.5418 0.1147 -13.6443 0.209 -0.167 0.964 118 45 30 0 0
1.6262 1.0388 -13.6491 -0.176 0.576 0.799 96 41 29 0 0
1.9246 1.0465 -15.6871 0.080 0.987 0.141 3 3 3 0 0
1.9307 1.0560 -15.7229 0.044 0.987 0.153 3 3 3 0 0
1.9448 1.0432 -15.8274 0.288 0.682 0.672 5 5 5 0 0
1.9504 1.0627 -15.8534 -0.007 0.630 0.776 6 5 6 0 0
1.5155 -0.5242 -13.6398 -0.045 0.843 0.536 105 45 26 0 0
1.5209 -0.5068 -13.6661 0.210 0.748 0.630 117 44 19 0 0
1.5258 -0.4734 -13.6794 -0.127 0.506 0.853 143 61 26 0 0
1.7340 1.0264 -14.1817 0.457 0.208 0.865 86 43 32 0 0
1.9630 1.0423 -15.7291 -0.240 0.881 0.408 3 3 3 0 0
1.9765 1.0407 -15.8223 -0.106 0.730 0.675 4 4 4 0 0
2.1181 1.2036 -16.6859 -0.742 0.499 0.448 94 93 91 0 0
1.6212 0.2668 -13.6640 -0.093 0.560 0.823 115 38 17 0 0
1.6414 0.3611 -13.7446 -0.185 0.596 0.782 118 42 19 0 0
1.6513 0.4157 -13.7785 0.070 0.296 0.953 118 41 21 0 0
1.9485 1.0277 -15.4201 -0.076 0.765 0.640 2 2 2 0 0
2.0003 1.0563 -15.7527 -0.193 0.885 0.423 3 3 3 0 0
1.5734 -0.5731 -13.6260 0.334 0.744 0.579 108 54 37 0 0
1.5826 -0.4861 -13.6365 0.157 0.471 0.868 118 49 28 0 0
1.6199 -0.1728 -13.7031 0.054 0.188 0.981 130 75 48 0 0
1.6935 0.7052 -13.6825 -0.727 -0.268 0.632 118 43 24 0 0
1.5991 -0.5883 -13.5916 0.117 0.605 0.787 119 66 45 0 0
1.6137 -0.4871 -13.6309 0.195 0.391 0.899 122 49 29 0 0
1.6558 -0.1480 -13.7164 -0.019 0.371 0.928 133 81 55 0 0
1.6971 0.3364 -13.7124 -0.278 0.239 0.930 117 41 18 0 0
1.7943 1.0061 -13.9748 0.582 0.812 -0.048 108 45 16 0 0
1.8084 0.9687 -14.0905 0.678 0.732 -0.061 94 36 19 0 0
1.8393 1.0900 -14.2267 -0.022 0.344 0.939 82 35 22 0 0
1.9175 0.8226 -14.9013 0.663 0.597 -0.452 62 36 32 0 0
2.2188 0.5670 -17.0551 0.577 -0.353 0.736 62 57 55 0 0
2.2143 0.8246 -16.8769 0.606 0.179 0.775 73 69 68 0 0
2.2137 0.9286 -16.8136 -0.088 -0.199 0.976 79 75 74 0 0
2.2171 0.9798 -16.8069 0.177 -0.317 0.932 82 81 79 0 0
1.6359 -0.5762 -13.6158 -0.204 0.875 0.440 109 50 33 0 0
1.6402 -0.5265 -13.6160 -0.141 0.514 0.846 116 48 30 0 0
1.8191 0.9843 -13.9470 0.408 0.903 -0.136 110 57 26 0 0
1.8707 1.0640 -14.2439 0.364 0.709 0.604 89 46 33 0 0
2.1126 1.2918 -15.7155 -0.435 0.138 0.890 7 5 6 0 0
1.6319 -1.1366 -13.6892 0.273 0.518 0.810 114 48 32 0 0
1.6768 -0.5118 -13.6381 0.420 0.187 0.888 118 51 32 0 0
2.1070 1.0318 -15.6104 -0.216 0.061 0.974 9 7 8 0 0
2.1316 1.3638 -15.5882 -0.142 0.109 0.984 9 7 8 0 0
2.1730 1.6409 -15.7070 -0.857 0.509 0.080 43 38 35 0 0
2.2798 0.9148 -16.8117 0.545 0.080 0.834 77 75 73 0 0
2.3166 1.5423 -16.7058 0.504 0.861 0.077 146 146 148 0 0
1.6659 -1.1973 -13.7302 0.477 0.602 0.641 112 46 28 0 0
1.7134 -0.4953 -13.6586 0.128 0.338 0.932 124 60 29 0 0
2.1715 1.3361 -15.6543 -0.108 -0.004 0.994 10 8 9 0 0
2.3145 0.8884 -16.8318 0.545 0.080 0.834 76 75 73 0 0
2.3205 1.2630 -16.6676 -0.203 -0.464 0.862 106 105 103 0 0
2.3264 1.2816 -16.6955 -0.233 -0.288 0.929 111 110 108 0 0
1.6924 -1.2199 -13.7008 0.261 0.293 0.920 144 80 52 0 0
2.2031 1.3280 -15.6549 0.053 -0.054 0.997 12 10 11 0 0
2.3491 0.6829 -16.9464 -0.261 -0.473 0.841 69 65 64 0 0
2.3520 0.7395 -16.9347 -0.432 -0.381 0.817 73 70 69 0 0
2.3460 0.9005 -16.8103 0.301 -0.093 0.949 77 76 74 0 0
2.3538 1.5873 -16.4949 0.795 0.580 0.178 131 130 128 0 0
1.7210 -1.2968 -13.7134 0.216 0.639 0.738 125 56 29 0 0
1.7264 -1.2729 -13.7356 0.216 0.639 0.738 120 54 29 0 0
1.7318 -1.2491 -13.7578 0.216 0.639 0.738 114 47 28 0 0
2.0820 0.7683 -14.9603 0.374 0.918 -0.128 16 9 9 0 0
2.0915 0.7281 -15.0422 -0.093 0.995 0.039 16 10 10 0 0
2.2617 1.5102 -15.7302 0.054 0.749 0.661 34 32 31 0 0
2.3797 0.7094 -16.9096 -0.398 -0.443 0.803 70 66 65 0 0
2.3801 0.7936 -16.8682 -0.509 -0.326 0.797 75 72 70 0 0
2.3770 0.9178 -16.7833 -0.092 0.117 0.989 79 77 75 0 0
2.3791 1.6567 -16.4100 0.411 -0.228 0.883 133 132 131 0 0
1.7539 -1.3198 -13.7249 0.394 0.613 0.685 141 73 45 0 0
1.7933 -0.6173 -13.6168 0.033 0.688 0.725 126 56 35 0 0
1.8313 -0.3503 -13.7231 0.081 0.748 0.658 143 77 50 0 0
2.0603 0.7526 -14.6242 -0.097 0.920 0.380 103 40 31 0 0
2.0653 0.7787 -14.6424 0.262 0.468 0.844 102 43 35 0 0
2.0984 0.7830 -14.8526 0.341 0.893 -0.292 23 11 11 0 0
2.1654 0.7051 -15.3212 0.696 0.718 0.030 19 13 14 0 0
2.1796 0.7012 -15.4142 0.584 0.808 0.073 2 2 2 0 0
2.2570 1.4264 -15.5381 0.452 0.721 0.525 17 17 17 0 0
1.7860 -1.3234 -13.7213 0.277 0.574 0.771 151 86 57 0 0
1.8097 -0.8487 -13.6334 -0.103 0.120 0.987 149 89 59 0 0
1.8142 -0.8072 -13.6409 -0.120 0.211 0.970 125 73 49 0 0
1.8187 -0.7665 -13.6489 0.039 0.352 0.935 109 56 40 0 0
1.9757 0.6095 -13.9561 0.367 0.570 0.735 114 56 39 0 0
2.1990 0.6735 -15.3444 0.696 0.718 0.030 13 7 8 0 0
2.2126 0.6786 -15.4287 0.584 0.808 0.073 1 2 2 0 0
2.2883 1.4202 -15.5368 0.399 0.766 0.504 21 21 23 0 0
2.2940 1.4365 -15.5650 0.284 0.852 0.439 22 21 26 0 0
2.3319 1.4935 -15.7778 -0.304 0.947 -0.101 47 43 40 0 0
1.8263 -1.2215 -13.7171 0.239 0.406 0.882 115 48 29 0 0
1.8462 -0.8210 -13.6454 0.040 0.113 0.993 117 67 46 0 0
1.8512 -0.7920 -13.6627 0.120 0.469 0.875 111 57 40 0 0
1.8635 -0.6504 -13.6708 0.010 0.087 0.996 112 53 37 0 0
2.0068 0.5952 -13.9621 0.313 0.633 0.708 110 52 33 0 0
2.2388 0.6551 -15.3994 0.554 0.832 -0.014 1 2 2 0 0
2.2458 0.6559 -15.4433 0.584 0.808 0.073 1 3 2 0 0
2.3283 1.3948 -15.6003 -0.191 0.437 0.879 26 26 29 0 0
2.3694 1.5007 -15.8081 0.184 0.983 -0.023 47 46 42 0 0
2.5546 1.5251 -16.9669 0.712 0.663 -0.231 172 173 172 0 0
1.8951 -0.6580 -13.6705 0.010 0.087 0.996 111 51 35 0 0
2.1739 0.6379 -14.7955 0.731 0.640 0.236 72 22 13 0 0
2.2003 0.6527 -14.9543 0.461 0.886 0.040 69 24 12 0 0
2.2066 0.6619 -14.9890 0.598 0.801 0.015 63 21 10 0 0
2.2895 0.6809 -15.5010 -0.237 0.970 0.052 4 4 4 0 0
2.3730 1.4811 -15.6388 0.229 0.784 0.578 33 33 35 0 0
2.3787 1.4991 -15.6653 0.229 0.784 0.578 22 21 22 0 0
2.3854 1.5040 -15.7056 0.131 0.939 0.319 53 50 50 0 0
2.5662 1.4179 -16.8829 0.475 0.843 0.252 160 161 162 0 0
2.5759 1.3996 -16.9523 0.583 0.795 -0.171 162 163 164 0 0
2.5874 1.4400 -17.0052 0.398 0.905 0.153 169 171 170 0 0
1.9924 0.0144 -13.7585 0.113 0.744 0.658 108 32 15 0 0
2.0769 0.6438 -13.9875 0.447 0.354 0.821 120 68 36 0 0
2.1968 0.6519 -14.7324 0.404 0.907 0.121 86 34 20 0 0
2.2046 0.6391 -14.7872 0.268 0.944 0.193 85 34 20 0 0
2.2934 0.5772 -15.3709 0.564 0.825 0.012 11 5 5 0 0
2.2982 0.6074 -15.3862 0.500 0.813 0.299 3 3 3 0 0
2.3136 0.6830 -15.4466 0.262 0.964 0.049 4 4 4 0 0
2.6201 1.4332 -17.0043 0.512 0.829 0.225 171 173 171 0 0
1.8929 -2.2731 -14.0079 -0.206 -0.416 0.886 113 67 59 0 0
1.9451 -0.7920 -13.6436 0.285 0.212 0.935 110 49 31 0 0
1.9962 -0.1926 -13.6824 -0.325 0.564 0.759 122 44 22 0 0
2.0071 -0.0455 -13.6813 0.190 0.373 0.908 120 42 20 0 0
2.0320 0.0796 -13.7780 0.312 0.624 0.717 112 38 22 0 0
2.3265 0.5574 -15.3826 0.449 0.894 -0.019 5 3 3 0 0
2.3299 0.6030 -15.3831 0.619 0.576 0.533 3 3 3 0 0
2.3359 0.6184 -15.4127 0.703 0.299 0.645 3 3 3 0 0
2.3411 0.7303 -15.3929 0.403 0.909 0.109 5 5 5 0 0
2.3517 0.6890 -15.4781 -0.627 0.522 0.578 6 6 6 0 0
2.4253 1.3431 -15.6307 0.498 0.570 0.654 14 14 16 0 0
2.6542 1.4137 -17.0177 0.540 0.796 0.273 172 174 172 0 0
2.0268 -0.1906 -13.6743 -0.196 0.633 0.749 126 47 25 0 0
2.0297 -0.1312 -13.6655 -0.092 0.165 0.982 128 50 28 0 0
2.0768 0.1643 -13.8211 -0.214 0.910 0.355 121 54 35 0 0
2.0872 0.2074 -13.8654 0.096 0.519 0.849 126 60 35 0 0
2.1225 0.4709 -13.9631 0.045 0.820 0.570 116 60 39 0 0
2.3632 0.5801 -15.3978 0.614 0.491 0.619 4 3 4 0 0
2.3893 0.7013 -15.5033 -0.440 0.637 0.633 9 9 9 0 0
2.4128 0.6837 -15.6560 0.671 0.249 0.699 10 10 10 0 0
2.4120 0.7769 -15.6087 -0.237 0.170 0.957 10 10 10 0 0
2.6675 1.6575 -16.7830 0.344 0.833 0.434 177 179 179 0 0
2.1243 0.2052 -13.9014 -0.030 0.358 0.933 128 64 46 0 0
2.1370 0.3126 -13.9311 0.298 0.167 0.940 144 90 66 0 0
2.2414 0.5524 -14.4635 -0.056 0.975 0.215 102 64 42 0 0
2.3960 0.4787 -15.4437 0.782 0.563 0.268 4 2 4 0 0
2.4291 0.7715 -15.5164 0.476 0.692 0.543 10 10 10 0 0
2.4337 0.8027 -15.5305 0.497 0.465 0.733 11 11 11 0 0
2.4541 0.9849 -15.5738 0.129 0.352 0.927 12 12 12 0 0
2.4576 1.0269 -15.5765 0.042 0.634 0.772 12 12 12 0 0
2.4705 1.1256 -15.6120 0.248 0.003 0.969 11 11 12 0 0
2.5372 1.3617 -15.9151 0.880 0.470 0.074 59 58 56 0 0
2.6283 0.9899 -16.6393 0.102 0.994 -0.030 97 93 92 0 0
2.7103 1.5565 -16.8885 0.747 0.665 -0.009 180 181 183 0 0
2.0160 -1.3261 -13.7194 0.152 0.373 0.915 125 55 33 0 0
2.0866 -0.2724 -13.6885 0.356 0.134 0.925 124 43 21 0 0
2.0901 -0.2236 -13.6886 0.575 0.659 0.485 126 47 25 0 0
2.2114 0.5408 -14.0929 0.440 0.811 0.385 127 82 47 0 0
2.3056 0.5656 -14.6560 0.260 0.921 0.290 79 32 16 0 0
2.6655 1.2409 -16.5523 0.545 0.785 -0.295 122 122 120 0 0
2.7238 1.5049 -16.7919 -0.033 -0.422 0.906 173 173 175 0 0
2.3446 0.5507 -14.7054 0.392 0.863 0.319 62 14 2 0 0
2.4892 0.6376 -15.5431 -0.176 0.473 0.863 10 10 10 0 0
2.5222 1.0007 -15.5877 0.046 0.416 0.908 15 15 15 0 0
2.5692 1.3602 -15.7181 0.026 0.855 0.518 51 48 47 0 0
2.2523 0.4403 -14.0041 0.191 0.388 0.901 104 41 8 0 0
2.2634 0.4731 -14.0573 0.592 0.521 0.615 146 75 42 0 0
2.3501 0.5147 -14.5614 0.431 0.898 0.093 68 17 4 0 0
2.3708 0.5200 -14.6841 0.481 0.805 0.347 64 15 4 0 0
2.3773 0.5273 -14.7200 0.443 0.776 0.449 62 14 4 0 0
2.3940 0.4988 -14.8322 0.642 0.767 0.002 62 16 6 0 0
2.4857 0.3674 -15.4390 0.453 0.698 0.555 2 2 3 0 0
2.5539 0.9944 -15.5864 0.046 0.416 0.908 18 18 18 0 0
2.5556 1.0533 -15.5721 -0.060 0.430 0.901 18 18 18 0 0
2.5881 1.3291 -15.6519 0.052 0.883 0.466 46 45 43 0 0
2.5927 1.3574 -15.6679 0.172 0.661 0.730 50 48 46 0 0
2.1011 -1.4914 -13.7057 -0.189 0.339 0.922 122 63 36 0 0
2.1057 -1.4547 -13.7182 -0.284 0.415 0.864 129 70 49 0 0
2.1104 -1.4210 -13.7329 -0.284 0.415 0.864 118 50 29 0 0
2.1681 -0.5152 -13.7060 0.170 0.303 0.938 117 46 27 0 0
2.2050 0.0245 -13.7048 0.005 0.345 0.939 122 46 23 0 0
2.2961 0.4413 -14.0785 0.057 0.914 0.402 133 62 29 0 0
2.3016 0.4584 -14.1045 0.272 0.882 0.384 124 50 16 0 0
2.3075 0.4715 -14.1341 0.049 0.897 0.440 113 43 17 0 0
2.3478 0.4878 -14.3685 0.444 0.882 0.161 74 17 6 0 0
2.5237 0.3787 -15.4654 0.189 0.742 0.643 2 2 2 0 0
2.5413 0.5926 -15.4823 0.408 0.406 0.818 6 5 5 0 0
2.5967 1.1036 -15.6038 0.034 0.627 0.778 32 32 32 0 0
2.8274 1.3620 -16.8773 -0.237 -0.464 0.854 176 176 178 0 0
2.8355 1.7031 -16.7862 -0.176 -0.368 0.913 189 190 192 0 0
2.1915 -0.6025 -13.6894 0.218 0.436 0.873 141 74 43 0 0
2.1962 -0.5725 -13.7055 0.218 0.436 0.873 132 65 42 0 0
2.2006 -0.5381 -13.7180 0.243 0.314 0.918 115 44 26 0 0
2.3215 0.4162 -14.0528 0.335 0.639 0.693 136 64 30 0 0
2.3271 0.4328 -14.0793 0.100 0.555 0.826 127 54 20 0 0
2.3314 0.4647 -14.0923 -0.042 0.494 0.869 120 48 15 0 0
2.5553 0.3795 -15.4571 0.358 0.541 0.761 3 3 3 0 0
2.1699 -1.4614 -13.7106 0.302 0.308 0.902 113 49 30 0 0
2.2244 -0.6302 -13.7052 0.300 0.354 0.886 130 64 35 0 0
2.2307 -0.6230 -13.7398 0.415 0.714 0.565 121 54 34 0 0
2.2357 -0.5967 -13.7590 0.436 0.565 0.700 114 40 24 0 0
2.3531 0.3997 -14.0607 0.505 0.732 0.458 129 58 23 0 0
2.3584 0.4197 -14.0841 0.287 0.593 0.752 124 54 19 0 0
2.3638 0.4392 -14.1080 0.481 0.488 0.728 112 46 14 0 0
2.6168 0.6165 -15.5336 0.123 0.214 0.969 6 6 6 0 0
2.6959 1.2562 -15.7493 0.738 0.657 0.157 58 54 53 0 0
2.8875 1.4582 -16.8018 0.689 0.227 0.689 183 183 185 0 0
2.2276 -1.1216 -13.7248 0.435 0.304 0.848 102 42 25 0 0
2.3911 0.3915 -14.1022 0.441 0.770 0.462 112 41 11 0 0
2.3968 0.4069 -14.1299 0.577 0.614 0.539 97 31 9 0 0
2.7230 1.2906 -15.7060 0.878 0.325 0.351 61 56 55 0 0
2.9134 1.3706 -16.7937 0.569 0.071 0.819 178 178 180 0 0
2.2398 -1.5519 -13.7673 0.376 0.790 0.484 120 54 34 0 0
2.3033 -0.5776 -13.7712 0.385 0.122 0.915 118 41 20 0 0
2.4447 0.3672 -14.2408 0.805 0.524 0.279 73 16 8 0 0
2.9508 1.3917 -16.8104 0.229 -0.114 0.967 184 184 186 0 0
2.6816 0.3019 -15.4569 0.434 0.777 0.455 7 5 6 0 0
2.3003 -1.6026 -13.7526 0.465 0.609 0.643 110 45 27 0 0
2.5061 0.2816 -14.2614 0.793 0.543 0.275 74 17 4 0 0
2.6615 0.2053 -15.1858 0.547 0.837 -0.029 38 11 6 0 0
2.7147 0.2872 -15.4634 0.434 0.777 0.455 8 6 7 0 0
2.4791 0.1234 -13.9806 0.558 0.424 0.713 110 42 15 0 0
2.6858 0.1994 -15.1401 0.498 0.859 0.117 50 16 10 0 0
2.6966 0.1690 -15.2124 0.507 0.859 -0.069 36 11 8 0 0
2.7036 0.1752 -15.2507 0.446 0.892 -0.070 32 12 8 0 0
2.7443 0.3061 -15.4379 0.658 0.750 0.064 9 7 8 0 0
2.7549 0.2800 -15.5077 0.312 0.947 0.079 10 8 9 0 0
2.7597 0.3082 -15.5255 -0.243 0.651 0.719 12 10 11 0 0
2.7605 0.4473 -15.4812 -0.029 0.930 0.366 14 12 13 0 0
2.7669 0.4606 -15.5132 -0.093 0.917 0.387 14 12 13 0 0
2.7896 0.6122 -15.5901 0.102 0.155 0.983 15 15 17 0 0
2.7939 0.6444 -15.6035 0.041 0.336 0.941 16 16 18 0 0
2.9864 0.5278 -16.7492 -0.454 -0.291 0.842 93 91 92 0 0
3.0221 1.3795 -16.6537 0.424 0.028 0.905 178 178 180 0 0
2.3633 -1.6860 -13.7627 0.291 0.697 0.656 111 44 26 0 0
2.3715 -1.3155 -13.6817 0.715 0.515 0.472 144 74 43 0 0
3.0160 0.5510 -16.7165 -0.147 -0.147 0.978 96 95 95 0 0
3.0565 0.9684 -16.8041 0.421 0.020 0.907 155 155 155 0 0
3.0606 1.4528 -16.6607 0.590 0.264 0.763 185 186 188 0 0
2.5354 0.0153 -13.9780 0.690 0.354 0.632 105 38 18 0 0
2.5403 0.0411 -13.9969 0.549 0.374 0.748 113 50 23 0 0
2.5621 0.1175 -14.0953 0.731 0.447 0.516 118 53 22 0 0
2.8285 0.4721 -15.4870 0.587 0.702 0.404 16 14 15 0 0
3.0812 1.2180 -16.6696 -0.082 -0.162 0.983 172 172 172 0 0
2.4347 -1.4985 -13.7288 0.296 0.147 0.944 128 60 35 0 0
2.4460 -1.3677 -13.7499 0.550 0.549 0.630 123 67 44 0 0
2.4688 -0.8493 -13.7081 0.136 0.348 0.928 160 90 51 0 0
2.5684 -0.0122 -13.9948 0.580 0.203 0.789 110 44 18 0 0
2.5889 0.1569 -14.0546 0.110 0.751 0.651 106 42 15 0 0
2.7942 0.0655 -15.2428 0.816 0.560 0.143 26 8 6 0 0
2.4462 -1.7944 -13.7036 0.093 0.208 0.974 121 57 34 0 0
2.4512 -1.7649 -13.7220 0.164 0.359 0.919 124 58 37 0 0
2.4686 -1.4335 -13.7131 0.596 0.443 0.670 136 65 33 0 0
2.4794 -1.3876 -13.7589 0.625 0.481 0.614 119 62 42 0 0
2.4970 -0.8998 -13.7014 0.315 0.245 0.917 130 54 23 0 0
2.5016 -0.8692 -13.7175 0.480 0.555 0.679 136 65 31 0 0
2.5083 -0.8631 -13.7531 0.445 0.622 0.644 132 67 41 0 0
2.5270 -0.8273 -13.8462 0.334 0.792 0.512 115 37 16 0 0
2.5277 -0.4207 -13.7199 -0.458 -0.099 0.884 120 44 21 0 0
2.6048 0.0034 -14.0159 0.673 0.397 0.624 114 56 24 0 0
2.6283 0.0635 -14.1285 0.260 0.633 0.729 99 36 12 0 0
2.8565 0.0011 -15.4288 0.315 0.377 0.871 6 3 3 0 0
2.4965 -1.4759 -13.6988 0.609 0.518 0.601 136 65 36 0 0
2.5020 -1.4545 -13.7229 0.609 0.518 0.601 140 69 37 0 0
2.5133 -1.4143 -13.7732 0.568 0.542 0.619 115 57 39 0 0
2.5344 -0.8877 -13.7258 0.499 0.514 0.698 128 58 27 0 0
2.5643 -0.4858 -13.7664 0.043 -0.303 0.952 119 43 20 0 0
2.6338 -0.0569 -14.0196 0.456 0.440 0.774 118 60 29 0 0
2.6647 0.0791 -14.1497 0.616 0.608 0.501 80 25 11 0 0
2.8772 -0.0429 -15.3733 0.732 0.580 0.357 7 5 4 0 0
3.1439 0.2979 -16.7541 0.321 -0.120 0.940 97 96 94 0 0
2.5418 -1.4632 -13.7639 0.570 0.727 0.384 130 73 50 0 0
2.5868 -0.8804 -13.8352 0.591 0.212 0.778 111 36 14 0 0
2.5890 -0.4989 -13.7303 -0.034 -0.236 0.971 118 42 19 0 0
2.5938 -0.4717 -13.7485 -0.207 -0.315 0.926 118 42 19 0 0
2.6798 0.0111 -14.0780 0.345 0.547 0.763 108 41 19 0 0
2.8443 -0.0316 -15.0036 0.629 0.765 0.137 88 42 25 0 0
2.9125 -0.0741 -15.3950 0.732 0.580 0.357 7 4 2 0 0
2.9815 0.5114 -15.5984 0.315 0.382 0.869 19 18 18 0 0
2.9867 0.5354 -15.6201 0.147 0.545 0.825 29 28 29 0 0
2.9945 0.6047 -15.6422 0.306 0.254 0.917 25 23 26 0 0
2.9983 0.6400 -15.6526 0.324 0.200 0.924 24 23 25 0 0
2.5370 -2.0904 -13.7431 0.094 0.294 0.951 127 82 66 0 0
2.5478 -1.8588 -13.7330 0.357 0.782 0.512 130 64 40 0 0
2.5624 -1.5915 -13.7339 0.197 0.113 0.974 128 65 44 0 0
2.5686 -1.4911 -13.7383 0.442 0.810 0.385 148 81 51 0 0
2.5753 -1.4829 -13.7727 0.381 0.842 0.381 123 66 45 0 0
2.6207 -0.9096 -13.8521 0.600 0.327 0.730 112 36 14 0 0
2.7121 -0.0059 -14.0859 0.270 0.800 0.536 97 31 12 0 0
2.7252 0.0120 -14.1529 0.453 0.692 0.562 78 22 7 0 0
2.9470 -0.0974 -15.4093 0.603 0.765 0.224 8 4 3 0 0
2.9857 -0.0806 -15.6180 0.595 0.474 0.649 14 10 9 0 0
3.0105 0.4641 -15.5919 0.006 0.185 0.983 12 10 11 0 0
3.0141 0.5014 -15.6006 -0.015 0.429 0.903 15 13 14 0 0
3.0187 0.5306 -15.6171 -0.129 0.722 0.680 30 28 31 0 0
3.0222 0.5683 -15.6253 -0.028 0.705 0.708 35 33 36 0 0
2.5702 -2.0995 -13.7436 0.094 0.294 0.951 117 77 61 0 0
2.5748 -1.8862 -13.7066 0.434 0.268 0.860 130 66 33 0 0
2.5810 -1.8717 -13.7364 0.357 0.782 0.512 114 48 26 0 0
2.5984 -1.5534 -13.7391 0.116 0.297 0.948 148 75 44 0 0
2.6017 -1.5063 -13.7436 0.341 0.770 0.539 146 81 54 0 0
2.6077 -1.4900 -13.7718 0.150 0.867 0.475 121 63 43 0 0
2.6535 -0.9255 -13.8584 0.303 0.711 0.635 115 39 16 0 0
2.7491 0.0034 -14.1124 0.412 0.586 0.698 88 28 11 0 0
3.0515 0.5187 -15.6212 -0.021 0.716 0.698 19 17 19 0 0
3.0551 0.5552 -15.6306 -0.006 0.715 0.699 19 17 20 0 0
3.0595 0.5862 -15.6453 0.061 0.542 0.838 27 25 28 0 0
3.2459 0.3322 -16.7422 -0.452 -0.475 0.755 110 108 109 0 0
3.2581 0.4361 -16.7791 -0.375 -0.317 0.871 120 120 120 0 0
3.2450 0.5952 -16.6608 0.326 0.871 0.367 125 125 125 0 0
2.6281 -1.5295 -13.7144 0.343 0.902 0.263 149 78 47 0 0
2.6349 -1.5219 -13.7492 0.343 0.902 0.263 138 76 52 0 0
2.6402 -1.4972 -13.7709 0.218 0.877 0.428 114 55 35 0 0
2.6830 -0.5179 -13.7265 -0.700 -0.286 0.654 117 41 18 0 0
3.0991 0.5855 -15.6836 -0.012 0.151 0.989 52 51 53 0 0
3.1096 0.6973 -15.7087 0.130 0.151 0.980 69 67 68 0 0
3.1117 0.7443 -15.7072 -0.082 0.537 0.840 73 72 71 0 0
3.2779 0.2716 -16.7484 -0.661 -0.382 0.645 107 105 106 0 0
3.2744 0.3614 -16.7038 -0.539 -0.439 0.719 113 111 112 0 0
3.2843 0.6077 -16.6875 0.368 0.922 -0.118 133 132 132 0 0
3.2943 0.5989 -16.7449 0.310 0.946 -0.093 138 137 135 0 0
2.6395 -2.2401 -13.7943 -0.065 -0.061 0.996 121 80 71 0 0
2.6662 -1.5166 -13.7388 0.129 0.934 0.334 133 73 48 0 0
3.0662 -0.2953 -15.5711 0.074 0.931 0.358 11 5 5 0 0
3.3190 0.0169 -16.8567 0.842 0.174 0.511 100 98 99 0 0
3.3270 0.0883 -16.8807 -0.480 -0.491 0.727 105 103 104 0 0
3.3453 0.1503 -16.9628 -0.014 -0.469 0.883 118 118 118 0 0
2.6777 -2.5692 -13.9070 -0.848 0.314 0.428 195 189 189 0 0
2.6883 -1.5752 -13.6961 0.691 0.503 0.519 143 70 39 0 0
2.7027 -1.4864 -13.7498 0.414 0.249 0.876 109 50 31 0 0
2.7548 -1.0028 -13.9008 0.727 0.170 0.666 117 41 18 0 0
3.0978 -0.4284 -15.5968 0.572 0.641 0.511 7 1 1 0 0
3.1124 -0.3423 -15.6525 0.056 0.065 0.996 11 5 5 0 0
3.3131 -0.0253 -16.6500 -0.562 0.827 0.025 91 89 90 0 0
3.3628 0.0034 -16.9109 0.376 -0.254 0.891 104 102 103 0 0
3.3325 0.5960 -16.5875 -0.188 0.914 0.359 127 127 127 0 0
3.4012 0.6162 -16.9526 -0.538 0.843 0.026 166 166 168 0 0
2.7577 -1.0982 -13.7664 0.479 0.717 0.507 129 61 34 0 0
2.7640 -1.0848 -13.7964 0.550 0.799 0.244 124 59 39 0 0
3.3786 -0.1311 -16.8454 0.551 -0.063 0.832 98 96 97 0 0
3.3753 -0.0432 -16.8046 0.581 -0.115 0.806 100 98 99 0 0
3.3666 0.5821 -16.5938 -0.205 0.976 -0.074 128 128 128 0 0
3.4227 0.8094 -16.8349 -0.024 0.980 -0.196 178 178 180 0 0
2.7602 -2.7549 -14.0304 -0.015 -0.293 0.956 198 193 192 0 0
2.8538 -0.2560 -13.8901 0.421 0.841 0.339 110 47 17 0 0
2.7989 -2.9009 -14.0889 -0.086 -0.382 0.920 209 207 211 0 0
2.7710 -2.0886 -13.7383 0.189 0.438 0.879 131 65 36 0 0
2.7937 -1.6807 -13.7574 0.193 0.268 0.944 149 82 49 0 0
2.7972 -1.6378 -13.7654 0.084 0.423 0.902 133 72 44 0 0
2.8006 -1.5936 -13.7724 0.117 0.621 0.775 110 51 30 0 0
3.4330 -0.1773 -16.7787 -0.524 0.844 0.112 93 91 94 0 0
3.4487 -0.2228 -16.8731 0.630 0.100 0.770 98 96 99 0 0
3.4367 0.0499 -16.7418 0.838 -0.015 0.545 105 103 104 0 0
3.4782 0.5678 -16.8330 -0.134 0.378 0.916 156 155 156 0 0
3.4775 0.7514 -16.7834 -0.241 0.939 0.245 171 171 173 0 0
2.8223 -1.7252 -13.7442 0.297 0.395 0.869 141 70 42 0 0
2.8269 -1.6933 -13.7606 0.193 0.268 0.944 146 81 49 0 0
2.8298 -1.6454 -13.7649 0.084 0.423 0.902 129 70 43 0 0
2.8331 -1.6007 -13.7714 0.086 0.433 0.897 105 47 27 0 0
3.2505 -0.5460 -15.7208 0.080 0.984 -0.156 18 8 9 0 0
3.4331 -0.1381 -16.5872 0.510 0.756 0.410 84 84 84 0 0
3.4644 -0.1661 -16.7593 -0.145 0.980 0.138 94 92 95 0 0
3.4795 -0.1435 -16.8333 0.739 0.177 0.651 102 100 103 0 0
3.4836 -0.1092 -16.8469 0.490 -0.221 0.843 104 102 104 0 0
3.5128 0.3125 -16.8986 0.872 0.124 0.474 135 134 132 0 0
3.5095 0.5745 -16.8177 -0.173 0.616 0.769 157 155 157 0 0
3.5113 0.7985 -16.7733 -0.023 0.260 0.965 177 177 177 0 0
3.5133 0.8440 -16.7729 0.009 -0.125 0.992 180 180 180 0 0
2.8608 -2.7634 -14.0173 0.339 -0.175 0.924 204 200 199 0 0
2.8525 -1.9436 -13.7805 0.244 0.454 0.857 110 52 41 0 0
2.8556 -1.7398 -13.7489 0.297 0.395 0.869 144 73 44 0 0
2.8586 -1.6918 -13.7531 0.071 0.071 0.995 144 80 50 0 0
2.8626 -1.6545 -13.7654 0.291 0.407 0.866 125 65 39 0 0
2.8639 -1.5901 -13.7570 0.007 0.093 0.996 104 43 25 0 0
2.8661 -1.5355 -13.7558 -0.102 0.071 0.992 109 45 30 0 0
3.3213 -0.4426 -15.8909 0.930 0.103 0.354 8 4 5 0 0
3.3136 -0.3201 -15.8214 0.901 0.139 0.410 11 7 6 0 0
3.3999 0.0710 -16.1829 0.349 0.857 -0.379 77 77 79 0 0
3.4269 0.0069 -16.3400 0.285 0.929 -0.238 81 81 83 0 0
3.4378 -0.0061 -16.4001 -0.048 0.992 -0.113 83 82 84 0 0
3.4845 -0.1406 -16.6774 0.228 0.949 -0.219 91 89 91 0 0
3.4970 -0.1635 -16.7485 0.512 0.798 0.318 94 92 95 0 0
3.5157 -0.1657 -16.8475 0.233 0.972 -0.022 102 100 103 0 0
3.5560 0.3635 -16.9343 0.695 0.148 0.704 145 143 144 0 0
3.5564 0.4209 -16.9227 0.401 0.363 0.841 151 149 151 0 0
2.8966 -1.5241 -13.7407 0.104 0.038 0.994 110 45 31 0 0
3.4798 -0.0712 -16.4570 0.361 0.896 -0.260 83 82 85 0 0
3.5512 -0.1818 -16.8556 0.108 0.974 0.200 102 100 103 0 0
3.5878 0.8924 -16.8010 0.527 -0.102 0.844 186 186 188 0 0
2.9296 -1.5365 -13.7438 0.085 0.115 0.990 109 46 33 0 0
2.9537 -1.2478 -13.8047 0.497 0.793 0.352 128 60 33 0 0
3.4971 -0.0297 -16.3605 0.166 0.968 -0.186 80 79 84 0 0
3.5046 -0.0191 -16.3972 0.147 0.969 -0.200 82 81 84 0 0
3.5209 -0.0672 -16.4924 -0.504 0.835 -0.219 84 82 85 0 0
3.5767 -0.1938 -16.8110 0.108 0.974 0.200 98 96 99 0 0
3.6195 0.7795 -16.8170 0.225 0.370 0.902 181 181 181 0 0
2.9444 -2.2080 -13.7953 0.689 0.587 0.425 115 57 40 0 0
2.9548 -1.7732 -13.7552 0.066 0.446 0.893 145 78 51 0 0
2.9582 -1.7302 -13.7633 -0.101 0.251 0.963 125 67 45 0 0
2.9615 -1.6865 -13.7708 0.170 0.257 0.951 108 47 27 0 0
2.9616 -1.6131 -13.7554 0.054 -0.036 0.998 104 40 22 0 0
2.9625 -1.5484 -13.7466 -0.033 0.052 0.998 111 51 38 0 0
3.3845 -0.1351 -15.6246 -0.510 -0.019 0.860 5 4 2 0 0
3.5346 -0.0027 -16.3729 -0.147 0.980 -0.135 82 80 83 0 0
3.5520 -0.0573 -16.4745 -0.572 0.803 -0.164 83 81 84 0 0
2.9695 -2.7645 -13.8680 -0.212 0.977 -0.025 213 213 215 0 0
2.9888 -1.7927 -13.7636 0.364 0.360 0.859 143 78 52 0 0
2.9922 -1.7502 -13.7721 0.426 0.628 0.652 121 63 43 0 0
2.9942 -1.6212 -13.7553 0.104 -0.057 0.993 106 43 25 0 0
3.4172 -0.1413 -15.6230 -0.791 0.011 0.612 5 4 2 0 0
3.5659 0.0044 -16.3580 -0.176 0.977 -0.119 80 78 80 0 0
3.5800 -0.0278 -16.4371 -0.416 0.880 -0.231 82 80 82 0 0
3.6311 -0.1188 -16.7192 0.359 0.899 -0.251 93 92 93 0 0
3.6512 -0.1884 -16.8376 -0.117 0.993 -0.012 92 91 93 0 0
3.6593 -0.1798 -16.8774 0.060 0.989 0.135 90 89 90 0 0
3.6482 0.0711 -16.7675 -0.346 0.391 0.853 95 93 95 0 0
3.6649 0.7783 -16.7051 -0.755 0.568 0.327 174 174 176 0 0
3.0298 -1.5847 -13.7617 0.194 -0.069 0.979 109 51 34 0 0
3.1194 -0.6986 -14.0401 -0.001 0.049 0.999 131 70 44 0 0
3.4340 -0.5316 -15.6174 -0.053 0.398 0.916 13 3 1 0 0
3.4325 -0.2718 -15.5573 -0.348 -0.417 0.840 6 2 0 0 0
3.5416 0.0172 -16.0574 0.323 0.946 -0.040 45 17 13 0 0
3.5518 0.0101 -16.1107 0.259 0.960 -0.107 47 23 19 0 0
3.5584 0.0263 -16.1412 0.082 0.978 -0.194 50 29 25 0 0
3.5835 0.0408 -16.2670 -0.189 0.982 -0.023 69 62 64 0 0
3.5958 0.0206 -16.3339 -0.238 0.967 -0.089 76 72 74 0 0
3.6094 -0.0083 -16.4098 -0.428 0.857 -0.287 80 78 79 0 0
3.0683 -2.9227 -14.0532 -0.868 0.135 0.478 210 211 213 0 0
3.1513 -0.7061 -14.0397 -0.001 0.049 0.999 127 70 44 0 0
3.4100 -0.6958 -15.3557 0.262 0.858 0.443 30 9 3 0 0
3.4171 -0.6845 -15.3901 0.457 0.713 0.532 28 9 3 0 0
3.4668 -0.5357 -15.6137 -0.053 0.398 0.916 20 8 4 0 0
3.5700 0.0412 -16.0262 0.157 0.937 0.311 48 15 10 0 0
3.6147 0.0471 -16.2529 -0.189 0.982 -0.023 64 50 48 0 0
3.6266 0.0298 -16.3169 -0.238 0.967 -0.089 70 62 61 0 0
3.7484 0.3214 -16.8798 0.598 0.176 0.782 138 136 137 0 0
3.1102 -1.3829 -13.7966 0.280 0.940 0.197 149 80 50 0 0
3.4996 -0.5398 -15.6101 -0.053 0.398 0.916 29 14 11 0 0
3.4990 -0.3511 -15.5711 0.015 -0.473 0.881 21 9 6 0 0
3.7605 0.0986 -16.8113 0.302 0.338 0.892 97 91 90 0 0
3.7627 0.2585 -16.7917 0.462 0.481 0.745 115 113 114 0 0
3.1418 -1.4528 -13.8038 0.594 0.650 0.473 122 52 24 0 0
3.1587 -1.3218 -13.8649 0.138 0.243 0.960 105 35 17 0 0
3.2256 -0.6742 -14.0826 0.089 0.395 0.914 113 49 28 0 0
3.4874 -0.7261 -15.4129 0.146 0.734 0.663 39 9 3 0 0
3.4952 -0.7186 -15.4508 0.295 0.621 0.726 31 8 2 0 0
3.5321 -0.4803 -15.5930 -0.858 0.085 0.507 39 23 19 0 0
3.5692 0.0505 -15.6820 -0.219 0.575 0.789 59 16 9 0 0
3.6602 0.0494 -16.1416 -0.590 0.801 0.102 55 20 14 0 0
3.6770 0.0601 -16.2243 -0.507 0.860 -0.057 58 33 28 0 0
3.6851 0.0671 -16.2641 -0.252 0.967 -0.045 62 42 38 0 0
3.7443 -0.0092 -16.5765 -0.756 0.644 -0.118 72 67 64 0 0
3.7631 0.1071 -16.6501 -0.185 0.063 0.981 71 64 62 0 0
3.7912 0.2246 -16.7702 0.185 0.139 0.973 105 100 101 0 0
3.7944 0.2629 -16.7789 0.148 0.316 0.937 112 109 109 0 0
3.1501 -2.6069 -13.8866 0.262 -0.092 0.961 206 204 209 0 0
3.1513 -2.5439 -13.8817 0.373 -0.105 0.922 198 193 192 0 0
3.1750 -1.4669 -13.8083 0.440 0.616 0.653 130 59 28 0 0
3.5247 -0.7617 -15.4375 0.478 0.692 0.541 68 26 9 0 0
3.5303 -0.7388 -15.4617 0.398 0.559 0.728 45 14 4 0 0
3.5672 -0.7461 -15.6482 -0.016 0.834 0.552 29 8 3 0 0
3.5570 -0.2508 -15.5082 -0.637 -0.344 0.690 58 16 8 0 0
3.5481 0.0443 -15.4113 -0.783 0.077 0.618 65 19 9 0 0
3.5954 0.1435 -15.6307 0.329 0.061 0.942 61 17 10 0 0
3.5958 0.1987 -15.6229 0.320 0.076 0.944 60 16 10 0 0
3.7037 0.0936 -16.1833 -0.374 0.914 -0.160 56 29 22 0 0
3.7142 0.0861 -16.2374 -0.312 0.917 -0.250 58 35 28 0 0
3.7862 0.1633 -16.5850 -0.350 0.229 0.908 67 58 55 0 0
3.8249 0.3298 -16.7496 0.012 0.511 0.859 116 112 111 0 0
3.8168 0.5444 -16.6705 0.282 0.510 0.813 139 137 138 0 0
3.8237 0.5596 -16.7025 -0.096 0.235 0.967 145 145 145 0 0
3.8519 0.5080 -16.8533 0.485 0.274 0.830 161 161 163 0 0
3.8596 0.5195 -16.8896 0.592 0.267 0.761 168 168 169 0 0
3.1888 -1.8676 -13.7821 0.378 0.645 0.664 115 57 39 0 0
3.3072 -0.6982 -14.1717 -0.009 0.398 0.918 98 64 54 0 0
3.5670 -0.7693 -15.4818 0.250 0.589 0.769 51 13 2 0 0
3.5764 0.0068 -15.3947 -0.569 -0.054 0.820 69 19 8 0 0
3.5774 0.0580 -15.3911 -0.539 0.001 0.843 69 19 8 0 0
3.6501 0.0531 -15.7551 0.348 0.919 0.187 62 16 9 0 0
3.6839 0.2419 -15.8913 -0.824 0.500 0.267 57 18 10 0 0
3.7322 0.1154 -16.1540 -0.437 0.882 -0.178 57 24 16 0 0
3.7352 0.1539 -16.1624 -0.422 0.867 -0.266 59 30 21 0 0
3.7516 0.1677 -16.2420 -0.201 0.862 -0.466 66 44 40 0 0
3.8430 0.3003 -16.6758 0.308 0.025 0.951 99 91 89 0 0
3.8548 0.2879 -16.7366 0.232 0.212 0.949 106 100 97 0 0
3.8581 0.3245 -16.7469 0.012 0.511 0.859 113 108 105 0 0
3.8703 0.3656 -16.8006 0.012 0.698 0.716 126 124 124 0 0
3.8925 0.5153 -16.8857 -0.250 0.304 0.919 167 167 168 0 0
3.2551 -1.4046 -13.8694 0.104 0.527 0.843 106 36 19 0 0
3.6090 -0.2341 -15.4333 -0.686 -0.353 0.636 74 24 13 0 0
3.7328 0.3049 -15.9592 -0.737 0.669 0.098 58 21 14 0 0
3.7474 0.3292 -16.0273 -0.619 0.705 -0.345 62 31 23 0 0
3.8549 0.1390 -16.5934 -0.810 0.554 -0.193 61 48 42 0 0
3.9248 0.4597 -16.8876 -0.651 0.005 0.759 159 157 159 0 0
3.9089 0.9253 -16.7308 -0.244 -0.516 0.821 187 187 187 0 0
3.2532 -1.7359 -13.7512 0.076 -0.055 0.996 123 55 36 0 0
3.3454 -0.7687 -14.0517 0.313 0.642 0.700 106 44 20 0 0
3.3736 -0.7925 -14.1950 0.536 0.704 0.466 102 67 59 0 0
3.5842 -0.9982 -15.2695 0.772 0.375 0.513 67 18 9 0 0
3.7487 0.3988 -15.8589 -0.891 0.288 0.351 60 19 13 0 0
3.7678 0.3955 -15.9537 -0.669 0.660 -0.342 61 28 19 0 0
3.2723 -2.6024 -13.8167 0.138 0.648 0.749 213 213 214 0 0
3.3792 -0.7895 -14.0621 0.501 0.482 0.719 103 48 23 0 0
3.6237 -1.0478 -15.3057 0.381 0.365 0.849 69 20 8 0 0
3.6339 -0.9330 -15.3380 0.488 0.587 0.646 122 72 54 0 0
3.6497 -0.7959 -15.3943 0.076 0.596 0.799 117 60 36 0 0
3.6444 -0.4038 -15.3077 -0.578 -0.360 0.732 30 6 2 0 0
3.6704 0.2335 -15.3368 -0.919 0.004 0.395 71 21 9 0 0
3.7685 0.4128 -15.7919 -0.762 0.557 0.331 61 18 9 0 0
3.3241 -2.4113 -13.8759 -0.142 -0.053 0.988 198 196 193 0 0
3.4575 -0.8876 -14.3018 0.523 0.848 0.081 101 68 59 0 0
3.6576 -1.0574 -15.3069 0.109 0.355 0.928 71 24 11 0 0
3.6689 -0.9507 -15.3464 0.073 0.513 0.855 126 71 50 0 0
3.6833 -0.8055 -15.3955 -0.155 0.639 0.753 133 77 57 0 0
3.6791 -0.5401 -15.3352 -0.606 -0.321 0.727 45 15 6 0 0
3.6741 -0.4491 -15.2972 -0.587 -0.352 0.729 33 9 4 0 0
3.6726 -0.3813 -15.2800 -0.721 -0.323 0.613 31 6 1 0 0
3.6511 -0.1847 -15.1452 -0.215 0.779 0.589 41 8 2 0 0
3.7991 0.4165 -15.7806 -0.306 0.642 0.703 62 18 9 0 0
3.6445 -0.9952 -15.0695 0.534 0.786 0.311 63 20 8 0 0
3.6527 -0.9896 -15.1084 0.290 0.247 0.925 62 17 9 0 0
3.6821 -0.1828 -15.1364 -0.215 0.779 0.589 64 20 8 0 0
3.8206 0.4192 -15.7250 -0.128 0.436 0.891 64 17 9 0 0
3.8299 0.4193 -15.7702 -0.159 0.451 0.878 64 18 10 0 0
3.8325 0.4584 -15.7772 0.062 0.231 0.971 64 18 11 0 0
3.8423 0.4555 -15.8255 -0.720 0.304 0.623 63 19 11 0 0
4.0633 0.4606 -16.9019 -0.197 0.740 0.643 161 160 158 0 0
3.3960 -1.6001 -13.7848 0.186 0.666 0.722 110 48 31 0 0
3.4694 -1.0137 -14.0600 0.600 0.336 0.726 117 60 34 0 0
3.7118 -0.1724 -15.1197 -0.497 0.397 0.772 85 29 15 0 0
3.7833 0.0593 -15.4346 0.402 -0.343 0.849 77 23 11 0 0
3.7835 0.2231 -15.4132 -0.313 0.945 -0.098 75 22 10 0 0
3.8069 0.3565 -15.5085 0.752 -0.219 0.621 72 21 10 0 0
3.8771 0.5951 -15.8160 -0.345 0.938 0.017 68 26 19 0 0
4.0960 0.4578 -16.8965 0.089 0.692 0.716 160 159 157 0 0
4.1003 0.6983 -16.8840 -0.832 0.334 0.443 185 183 184 0 0
3.6806 -1.1689 -14.9427 0.753 0.656 -0.052 96 75 71 0 0
3.7107 -1.1889 -15.0906 0.784 0.618 0.067 96 76 68 0 0
3.7428 -0.1713 -15.1115 -0.081 0.623 0.778 91 32 14 0 0
3.7662 -0.1470 -15.2208 0.336 0.767 0.547 88 31 14 0 0
4.1098 0.2898 -16.8218 -0.809 0.442 0.387 98 87 84 0 0
4.1298 0.4491 -16.8974 0.101 0.422 0.901 159 158 156 0 0
3.4794 -1.5618 -13.8648 0.365 0.042 0.930 112 43 29 0 0
3.4825 -1.5216 -13.8745 0.333 -0.035 0.942 109 41 25 0 0
3.4795 -1.4363 -13.8492 0.347 -0.176 0.921 109 40 24 0 0
3.5053 -1.1292 -13.9344 0.585 0.434 0.685 115 58 39 0 0
3.5352 -1.0986 -14.0741 0.329 0.857 0.396 118 59 36 0 0
3.7675 -1.2899 -15.2141 -0.086 0.795 0.600 98 77 70 0 0
3.7770 -0.3581 -15.1422 -0.832 -0.221 0.509 57 18 6 0 0
3.7718 -0.1015 -15.0845 -0.249 0.926 0.285 90 34 17 0 0
3.8309 0.2555 -15.3235 -0.730 0.670 -0.137 80 24 9 0 0
3.9079 0.6643 -15.6416 -0.104 0.964 0.246 77 30 17 0 0
4.1562 0.4790 -16.8576 0.147 0.338 0.930 158 157 155 0 0
3.8025 -0.0989 -15.0749 -0.240 0.896 0.375 91 35 18 0 0
3.8443 -0.2406 -15.2920 0.623 0.776 0.104 90 34 17 0 0
3.9238 0.6947 -15.5592 0.120 0.989 0.090 83 32 20 0 0
3.9430 0.6924 -15.6512 -0.077 0.963 0.256 85 43 31 0 0
3.9518 0.6958 -15.6930 -0.034 0.941 0.337 86 47 36 0 0
3.9681 0.7105 -15.7687 -0.150 0.969 0.196 87 53 45 0 0
3.5716 -1.6473 -14.0001 -0.518 0.647 0.560 117 47 27 0 0
3.8139 -0.0360 -14.9672 0.331 0.038 0.943 95 38 22 0 0
3.8274 -0.0618 -15.0340 0.492 0.310 0.814 93 37 22 0 0
3.8826 -0.2816 -15.3223 0.768 0.629 0.118 93 37 22 0 0
3.5735 -2.2523 -13.9189 -0.300 0.179 0.937 204 203 205 0 0
3.8598 -0.2341 -15.0526 -0.780 0.297 0.551 97 41 24 0 0
3.9148 -0.2858 -15.3189 0.239 0.970 -0.044 94 39 24 0 0
4.0875 0.6088 -16.0384 -0.098 0.816 0.570 75 46 41 0 0
4.2722 0.5838 -16.9158 -0.274 -0.091 0.958 180 179 177 0 0
3.6085 -2.2079 -13.9205 -0.106 0.118 0.987 203 203 204 0 0
3.6519 -1.5206 -14.0532 0.120 0.627 0.769 125 61 36 0 0
3.6365 -1.2936 -13.9569 -0.134 0.505 0.853 113 56 35 0 0
3.8877 -0.2149 -15.0281 -0.399 0.418 0.816 98 44 28 0 0
3.9912 -0.1644 -15.5106 0.320 -0.481 0.816 88 32 16 0 0
4.1392 0.6040 -16.1278 -0.033 0.888 0.458 78 52 45 0 0
3.6762 -1.2910 -13.9893 -0.157 0.631 0.760 118 62 38 0 0
3.9838 -1.1591 -15.4198 0.068 0.846 0.530 102 42 23 0 0
3.9864 -1.1171 -15.4276 0.496 0.738 0.458 104 44 25 0 0
3.9497 -0.7836 -15.2225 -0.303 -0.416 0.857 117 63 39 0 0
3.6733 -1.8380 -13.8747 0.308 0.075 0.948 102 70 57 0 0
3.6987 -1.3502 -13.9476 0.073 0.683 0.727 124 68 39 0 0
4.0691 -0.2476 -15.5734 0.140 -0.488 0.862 91 35 20 0 0
4.0762 -0.2335 -15.6051 -0.370 -0.375 0.850 89 33 18 0 0
4.0418 0.0102 -15.4217 0.011 -0.459 0.888 87 31 16 0 0
4.2287 0.5674 -16.2422 0.609 0.710 0.354 79 51 45 0 0
4.3032 0.8474 -16.5635 -0.370 -0.150 0.917 175 174 172 0 0
3.9277 -1.5748 -14.8800 0.829 0.560 0.014 120 104 97 0 0
4.0497 -1.2222 -15.4158 0.382 -0.089 0.920 62 36 29 0 0
4.0486 -1.1588 -15.4050 0.030 0.798 0.602 93 52 40 0 0
3.7568 -2.2201 -13.9865 0.263 0.053 0.963 210 210 212 0 0
3.9639 -1.5987 -14.8928 0.735 0.674 -0.075 166 158 153 0 0
4.0691 -1.0333 -15.3323 -0.166 -0.092 0.982 97 60 44 0 0
4.1595 0.5847 -15.6146 0.248 0.953 0.174 49 34 32 0 0
4.1674 0.5940 -15.6504 0.093 0.981 0.168 58 44 43 0 0
4.1777 0.5911 -15.6984 -0.223 0.848 0.481 60 46 46 0 0
