ply
format ascii 1.0
element vertex 698
property float x
property float y
property float z
property uchar diffuse_red
property uchar diffuse_green
property uchar diffuse_blue
end_header
-5.119151346835971 1.6654252927756144 -15.520229239030126 79 40 32
-5.127959545386735 1.6838608749057027 -15.541132752093638 80 42 34
-5.1514231784635305 1.7471802244987282 -15.507747086248754 81 44 37
-5.151233476921689 1.7380698969805541 -15.561912717221341 79 45 38
-5.152695629213948 1.7339879648203809 -15.610150921118311 78 44 37
-5.15432052475704 1.7303746662171298 -15.657972954820103 93 61 54
-5.1648758177930105 1.7541557211797016 -15.672437066357364 86 57 50
-5.160481294945763 1.7320024641822123 -15.74321462475638 84 53 50
-5.1540045535565255 1.7033900333917593 -15.822220523734412 85 54 51
-5.156800066561956 1.7032455743075259 -15.866435112795024 86 58 54
-5.150468827625195 1.674970044217737 -15.945583457204759 87 62 57
-5.145561479446564 1.6510168987882858 -16.019698042085036 88 66 61
-5.135441306794244 1.6109293551208435 -16.11418587645258 92 72 67
-5.160750522764339 1.6800886827550467 -16.072787013094786 98 80 76
-5.12213448124901 1.5519167413625485 -16.2779293913259 104 88 84
-5.101941693011614 1.4804686719140747 -16.412939903063158 112 100 97
-5.070451808092585 1.3739576043731638 -16.59271049840273 141 132 130
-5.061761655563551 1.3378231450673148 -16.68457434734684 164 159 157
-5.021566534715252 1.2040457410383834 -16.900388724189064 163 160 158
-5.000899643936236 1.1305666622059976 -17.040784862024672 158 156 155
-5.0455966781172314 1.259660945190272 -16.924070091141115 155 154 152
-5.044933045879132 1.2481381813493222 -16.98601483739897 153 152 148
-5.057538640946527 1.2777802459540544 -16.99550550626326 150 149 146
-5.0672395912991846 1.2984090855515715 -17.01649227048268 150 149 145
-5.08958999477551 1.3583815783355355 -16.98683852156074 151 150 147
-5.10309856073088 1.3908927367050357 -16.99233454155158 153 152 149
-5.131185649340248 1.4688314011290524 -16.93894162139793 155 154 152
-5.134674779780843 1.47018238436784 -16.98452838335146 159 158 156
-5.1628679421023795 1.548567403149475 -16.92998099644126 161 161 160
-5.17819950407605 1.5868897036993754 -16.927294641258563 164 163 163
-5.192954812696992 1.6234397230976194 -16.92678961706849 166 165 165
-5.22281530415372 1.7072393541085988 -16.864133701339497 169 168 168
-5.2152495924043425 1.6740400401197197 -16.955019974899933 172 170 169
-5.222455778808861 1.6870131034222133 -16.98534421524834 174 173 172
-5.2288133930973295 1.697317327921077 -17.019250649422073 176 175 175
-5.255668901683967 1.7718851464999767 -16.967906484416876 178 177 178
-5.241283807393788 1.7171153905451533 -17.08835035879322 180 180 180
-5.253422113410215 1.7455316213252399 -17.098285279982935 183 183 183
-5.15932696166128 1.4400671308052821 -17.555214734975678 185 185 185
-5.187033884245476 1.5172233112542255 -17.500836842065358 186 186 186
-5.243584338928136 1.6852641387207088 -17.32363825336648 188 188 188
-5.239571794355774 1.6627415702773787 -17.4026484436257 189 189 189
-5.276118610656252 1.7680283462983946 -17.30889566356437 190 190 190
-5.2913426005673845 1.806169953033761 -17.305675372025775 191 191 191
-5.306364704699542 1.8437031315434247 -17.30314108909915 192 192 192
-5.402272450334573 2.1368828651958056 -16.951295233155207 193 193 193
-5.431222952150836 2.218727546619794 -16.886795270849134 193 193 193
-5.431010830350695 2.2083645101709113 -16.948465679320055 193 193 193
-5.451496724216424 2.263521523137631 -16.92011023838597 194 194 194
-5.46643938609302 2.3011624326437055 -16.915669937182738 194 194 194
-5.48376301398107 2.3463878157341442 -16.900576094263712 194 194 194
-5.502451026671542 2.395988105683969 -16.879197388883405 195 195 195
-5.614344812634002 2.7418497026925195 -16.44479724164153 195 195 195
-5.713839209785178 3.048806507596592 -16.062160864178793 195 195 195
-5.709134465331806 3.024545414707142 -16.141344508860605 196 196 196
-5.470758705960081 2.2557740091780705 -17.267086146574428 197 197 197
-5.496758506554909 2.3286600600814245 -17.213026551111867 197 197 197
-5.505916072847617 2.3478893024783023 -17.234367844485178 198 198 198
-5.556043366610567 2.497966678592981 -17.0702562436118 199 199 199
-5.564116207851564 2.5138380017171285 -17.09584039750009 199 199 199
-5.571592704901077 2.527796295079085 -17.124176855906757 199 199 199
-5.577602888313008 2.5370512184899097 -17.15927790177552 199 199 199
-5.5925105150401215 2.574801705283578 -17.153607980558906 199 199 199
-5.61681574820037 2.642724384806609 -17.10440649995654 199 199 199
-5.614776305348359 2.626164647452473 -17.176609004004185 199 199 199
-5.620229603045587 2.633616289163526 -17.214385746269258 200 200 200
-5.633932842684619 2.667575683001436 -17.21382001911914 201 201 201
-5.652539270715561 2.717340626368567 -17.190145308433557 201 201 201
-5.676002357257303 2.7828024508260967 -17.1433219023672 201 201 201
-5.790129270367622 3.1308039553070204 -16.73010499195883 202 202 202
-5.824074712750735 3.230553452093875 -16.630759070108727 202 202 202
-5.829454131255028 3.238111232866699 -16.666725957509975 203 203 203
-5.888508005539144 3.3899147999212813 -16.63008822704613 203 203 203
-5.915144539025137 3.4665036272372074 -16.56268371044089 204 204 204
-5.938480686358881 3.5324727982220177 -16.51071361101781 204 204 204
-5.9591398980454695 3.589821815497391 -16.471303543522424 205 205 205
-8.426048570231389 10.7535521356768 -9.7864827964521 219 219 219
-8.433141892086619 10.774946745119038 -9.762271301046319 220 220 220
-8.44018538552264 10.79619107123405 -9.738229838439283 220 220 220
-3.2145382132836664 -1.721155373699616 -7.657823128564728 195 195 195
-0.7971191808573597 -8.178871686979297 -10.854653993795353 198 198 198
-0.7872894873725604 -8.211082732019664 -10.905699775142939 199 199 199
-4.5440299740544905 0.37363667607285134 -15.210284799266518 206 206 208
-4.568986999644663 0.43960634869067583 -15.181746998281717 206 206 208
-4.6101152901009055 0.5535479918489132 -15.101315907530633 206 206 208
-4.643649035958056 0.6450805160561011 -15.04448822562891 206 206 208
-4.678149346644441 0.7395633098191645 -14.984028614700918 205 206 208
-4.70719765991938 0.8179495448781609 -14.940573735363724 205 204 205
-4.74173593949603 0.9127095687088485 -14.878940269590153 187 183 179
-4.77347639064298 0.9992429519715165 -14.825817748653787 138 118 115
-4.804748795847106 1.0844632541286172 -14.7737154208559 100 71 66
-4.842624848398133 1.1894081172767574 -14.699560046813453 108 74 70
-4.877389190424957 1.285190540804063 -14.634952704589008 125 94 90
-4.909390175735535 1.3728324749749072 -14.57884864849647 124 91 86
-4.943581547988908 1.4670841745765504 -14.51499986902881 109 74 67
-4.879745044265055 1.2690891212474185 -14.774972972724486 100 62 55
-4.903813337612417 1.3331410276467377 -14.74469382124077 99 61 53
-4.881298807484303 1.2581641500323943 -14.869273906056566 98 60 54
-4.891085372068471 1.2795753226156759 -14.886576226638958 95 57 52
-4.877539774693189 1.2312436342196849 -14.982126553597894 92 53 46
-4.879878245591453 1.2303421670900825 -15.024722440135946 93 54 47
-4.882939801720616 1.231581340205456 -15.06502600685462 92 53 46
-4.890057099102382 1.2449451780783383 -15.09171825528119 91 53 45
-4.941996591048649 1.392612210926627 -14.966022551488962 90 51 43
-4.980719599465397 1.500808969511307 -14.884423398219084 88 50 41
-5.008484283023931 1.5762386600077374 -14.839646343648596 87 49 39
-5.033903124372735 1.6446961087079712 -14.802482146350671 87 47 37
-5.052748017073481 1.6934682316947995 -14.787588018442353 85 44 34
-5.041313303408552 1.6512671020309346 -14.877204188175586 83 39 30
-5.034337674251324 1.622402184852901 -14.951818640672492 81 37 28
-5.053335503511655 1.6716436776836803 -14.936333495505831 81 34 26
-4.988090955630863 1.4672455057751836 -15.215053520285437 78 30 23
-4.993022937763454 1.4740228960698403 -15.24942134210634 76 27 20
-5.071570780986736 1.7027420952108132 -15.024798665451431 75 28 18
-5.093334560142727 1.760410531536997 -14.999020207177779 74 27 17
-5.063474537883191 1.6622831601742716 -15.155865122991706 74 27 17
-5.08672653483684 1.724448229350556 -15.12478790309309 73 26 17
-5.03654085228001 1.556494448951982 -15.407771387270119 72 25 17
-5.049560552028398 1.5876714187393688 -15.413581919066552 72 25 17
-5.0750044436971 1.656491532725897 -15.374494321900817 73 26 18
-5.085047581115419 1.6787047862300275 -15.390711515444892 74 28 19
-5.089464986225737 1.6838630838639288 -15.427322475944283 73 29 20
-5.090797130333985 1.6796420248928916 -15.475284510907944 75 32 24
-5.102727330059552 1.707571159284532 -15.484692465845727 77 37 29
-5.109550273081956 1.7199947213350564 -15.512758003416874 80 41 33
-5.133119268921437 1.7833246300202248 -15.479228877032234 80 43 35
-5.1329051971433675 1.7743562392267416 -15.533178467222621 79 45 38
-5.1326905832849885 1.765349813897867 -15.587362616831381 99 65 58
-5.132475283973632 1.7563046803785722 -15.641783373210028 86 50 44
-5.140920260626569 1.7736231741688133 -15.664112204356567 83 49 42
-5.138421425164026 1.7575558329140701 -15.727446582266712 84 53 48
-5.135909331361075 1.7414014020980977 -15.79112875634766 85 54 50
-5.140553512852309 1.7470595914921327 -15.828116698028833 86 57 53
-5.112870779050153 1.653887311415434 -15.987586429718604 86 61 57
-5.116693260175145 1.6569295127601702 -16.028351554290893 87 65 60
-5.112597433180339 1.6357134532989033 -16.09943916389068 90 69 65
-5.135565255348081 1.6973364079729754 -16.067350725333714 95 76 72
-5.097635161875909 1.5723639905306221 -16.268661099058424 100 84 79
-5.077903508230733 1.50301041145896 -16.40113399947304 108 95 91
-5.049898782998909 1.4081421593850365 -16.566371734274096 120 110 106
-4.979157560147838 1.1818547923453337 -16.89841642353944 151 145 141
-4.989000938405955 1.2029044516099914 -16.918924252438572 154 150 146
-4.975404546221284 1.1518625024467744 -17.030997136820513 149 146 143
-5.008951683889541 1.2458214186936445 -16.95887209695359 145 143 141
-5.000712995533288 1.2111838357535385 -17.050487641864905 143 141 138
-5.026714597168629 1.282004285923838 -17.007399589628267 143 140 137
-5.038494237935826 1.3090311269628767 -17.020203045227042 142 140 136
-5.064466264107498 1.3798740949178105 -16.976505215946464 144 141 138
-5.07807380742391 1.4125988487317551 -16.98168242812077 147 145 141
-5.091002721148996 1.443244602782066 -16.989458222531397 150 148 146
-5.1179305418112 1.517207914019128 -16.940871789357473 154 152 150
-5.133716698276372 1.5567610868494972 -16.936721299050934 159 157 157
-5.144887214304794 1.582045275982046 -16.951068365449018 161 159 160
-5.1695772634315365 1.6492479223966239 -16.910444756963187 164 162 163
-5.190842763703008 1.705896481262096 -16.88333626848992 166 164 165
-5.188704315807448 1.689941636572887 -16.951628227199322 169 168 166
-5.22685560173962 1.7991069609991364 -16.85483305946942 172 171 169
-5.232538053266298 1.8074559780071002 -16.890976752950824 174 173 172
-5.212313454607652 1.7351810567896306 -17.034356860595068 176 175 176
-5.26989622900458 1.9050409373730028 -16.855704965912647 179 179 179
-5.277974147133641 1.9208655199851234 -16.881800458242186 182 182 182
-5.124064515342017 1.4315417831593713 -17.585025893608154 184 184 184
-5.047187980662562 1.181852437236003 -17.97000479789481 185 185 185
-5.211459586326199 1.6848897183378666 -17.342344608106508 187 187 187
-5.210592069572468 1.6725188384042395 -17.407748562440013 188 188 188
-5.232046693086053 1.7299199460683905 -17.37880910727991 189 189 189
-5.259244468724725 1.805356325163375 -17.325059717787635 190 190 190
-5.3195622177065705 1.9846328488349698 -17.129300935790738 191 191 191
-5.372016541674154 2.1395031986225463 -16.965674510946734 192 192 192
-5.3934353458472355 2.1972085174822578 -16.934226484113672 193 193 193
-5.743758281742695 3.261577942772977 -15.649374998635011 194 194 194
-5.711038455497069 3.1497166173907054 -15.848954681462759 194 194 194
-5.6819147336584495 3.048986036452332 -16.03403577617492 195 195 195
-5.716535588119304 3.1491725081492987 -15.939019808975864 195 195 195
-5.7083746773148984 3.1144115915162107 -16.03264874597366 195 195 195
-5.45062138214602 2.2908714338882614 -17.23633871390528 196 196 196
-5.462564261091856 2.3188827152449596 -17.245421341357748 197 197 197
-5.478178536115465 2.3585282767035567 -17.237972977945212 198 198 198
-5.493547603421685 2.397430274878566 -17.23141474210919 198 198 198
-5.540098114973013 2.5352157568243916 -17.08399311999485 198 198 198
-5.516644244009784 2.451086002716125 -17.25227794443478 198 198 198
-5.5246508524153946 2.466686356336628 -17.278683370664574 199 199 199
-5.550402661000756 2.538675596537865 -17.22419040435993 199 199 199
-5.569582118481747 2.5898480138350317 -17.19922464123849 199 199 199
-5.59537749778333 2.66213444246989 -17.143518492602006 199 199 199
-5.604413293488937 2.681114301929804 -17.16453491445786 199 199 199
-5.6230963524332465 2.7308559814205573 -17.14089475528784 200 200 200
-5.649803832463945 2.806258243440194 -17.079640590547697 200 200 200
-5.664534605470568 2.843502081226487 -17.07362647655635 201 201 201
-5.67942017403875 2.8812721136245383 -17.066687431358357 201 201 201
-5.791210034748985 3.2291183625895608 -16.604271390847394 201 201 201
-5.804097228591289 3.2608199626542493 -16.604641593960782 202 202 202
-5.799407321800306 3.236210496048357 -16.688060603858446 202 202 202
-5.8086773245389995 3.25630699945435 -16.70562907510368 203 203 203
-5.876395080628732 3.4449648866338514 -16.566469617106204 203 203 203
-5.8631535327122215 3.392723098632265 -16.69180056631866 203 203 203
-5.9004183143745665 3.5030791223833724 -16.573431367815978 204 204 204
-5.907143167788 3.5151175134587254 -16.602413680547258 204 204 204
-8.418681476743984 10.779012787319868 -9.735394660004149 219 219 219
-8.425763287546454 10.800205464517939 -9.711489877786498 219 219 219
-8.432795630687869 10.821250137151878 -9.687751883364728 219 219 219
-3.2179923081979984 -1.6414668000795016 -7.625400813278233 196 196 196
-3.182846381246174 -1.738599573103169 -7.695611746204208 196 196 196
-3.206091582930581 -1.681277501133784 -7.6942923918226365 197 197 197
-3.207727664020645 -1.6853234518620706 -7.746878134233066 198 198 198
-3.226247922422787 -1.6404806193572736 -7.75122260844152 198 198 198
-4.793727521763638 1.374783972163942 -13.204259277491145 211 211 213
-4.813150584849543 1.4245171478509082 -13.191184934540301 211 211 213
-4.854272480951862 1.5373057386386417 -13.114642131717016 210 211 213
-4.826106479790063 1.4488487873183278 -13.240108349333312 209 210 212
-4.834667909182304 1.4670641361572176 -13.25850810827426 209 210 212
-4.843227766439633 1.485275818584328 -13.276906584586179 209 210 212
-4.852048805877649 1.5042485563687658 -13.294527571962867 209 210 212
-4.831152409998966 1.4366879145258586 -13.400221331465273 209 210 212
-4.982895470392268 1.8720151925176869 -12.993069551801131 208 209 211
-4.809588766400256 1.3602675140820812 -13.552984980360806 208 209 211
-4.814709749095025 1.3683502131880276 -13.582327604247624 208 209 211
-4.814313149951143 1.360322290512781 -13.628310216407641 207 208 210
-4.817952161017448 1.3640495710666043 -13.662306382506245 207 208 210
-4.861159261528448 1.4833461924555351 -13.576740144264548 207 208 210
-5.035844488239739 1.987022371058055 -13.091528010346634 207 208 210
-5.038154716876354 1.9871483456699521 -13.12771549586945 207 208 210
-5.038779615758196 1.9823253760114454 -13.169168160303037 207 208 210
-5.040807084092323 1.9815849339585947 -13.206474339136077 208 208 210
-5.008311849482993 1.8797089354892096 -13.350070295215001 208 208 210
-5.014101296146804 1.8899002484172 -13.37637483286364 207 207 209
-5.017521994917228 1.8931384918050402 -13.410061891368045 207 207 209
-5.03255042310638 1.9304159214360612 -13.407789598264664 207 207 209
-5.038173783072348 1.9401080623679388 -13.43468772847818 206 206 208
-4.551514450315057 0.48864986103909924 -15.101042318607394 206 206 208
-4.55708682156409 0.49733874850729 -15.13366408234933 206 206 208
-4.607248467204007 0.6372636736976522 -15.025025467676961 206 206 208
-4.640464516684052 0.7274164074560154 -14.969403369288022 205 204 204
-4.700647653812603 0.8971146136084291 -14.82720509124422 199 193 191
-4.707296242804693 0.9091394345263355 -14.855319598019609 154 138 136
-4.780043802897726 1.1161545090922225 -14.671119745595014 106 74 70
-4.84475825516258 1.299670692307731 -14.511428260835775 104 62 58
-4.907887594686551 1.4786925930560466 -14.35564333452383 110 73 67
-4.866121984118701 1.3479212136571093 -14.539108221795614 109 77 71
-4.897515380173677 1.433296386106731 -14.485434157307868 122 91 86
-4.934783108003532 1.536127680210611 -14.41206343189258 119 90 84
-4.9629136674588725 1.6120085676730733 -14.368015808413475 106 73 66
-4.99976205560667 1.7137775740929522 -14.294852770575655 105 69 63
-5.032083444808591 1.8022273435356908 -14.236000677424396 99 63 57
-5.045361967895643 1.8342906216363666 -14.239688046680104 97 62 54
-5.056220502308159 1.8591903507344254 -14.251309249996872 96 60 51
-5.097561628964307 1.974595270073256 -14.161221946028025 93 56 48
-5.1017951837260185 1.979885202613473 -14.194555114035088 91 54 46
-5.099079583833477 1.9645057726876471 -14.251314682472195 91 54 46
-4.888555009200405 1.3310533474654687 -15.00844005396602 90 53 45
-4.942944146421141 1.4851623745144087 -14.875054271679069 89 52 44
-4.941725908968413 1.4738571586591291 -14.929240090184784 88 51 42
-5.001538243036567 1.6443485805845741 -14.775930564288153 88 51 42
-5.011153486288217 1.6653774377170736 -14.792869980814089 87 49 38
-5.006125993767847 1.642731375853514 -14.859967051818941 86 47 36
-4.97356578003191 1.5378581769165285 -15.022061536871712 85 43 34
-4.988338103794192 1.574196590109361 -15.02180824649762 81 38 29
-5.004842639598694 1.6157332569593557 -15.015415501531903 79 35 26
-4.98195593829622 1.5395113520282813 -15.145690367238178 78 32 24
-4.938449724220723 1.4014800482220577 -15.348600804140732 76 28 21
-4.982533462136591 1.5254871914115 -15.246368859984269 75 28 20
-5.012577839623775 1.607566519039631 -15.192570568050956 74 27 19
-4.95619821488023 1.430665088974174 -15.442658803492105 73 26 18
-4.986522324207208 1.513580303374762 -15.387892335376108 73 26 18
-5.000665790305222 1.5480130072261957 -15.389988822466695 72 25 17
-5.004623328484506 1.5518756626575643 -15.428205097620914 72 25 17
-4.942280654145288 1.3564862009916876 -15.703296043973934 72 25 17
-4.979640582460778 1.4606244463525853 -15.622881999419421 73 25 18
-5.072249795756655 1.7311048822702109 -15.343110419021766 75 28 20
-5.055068886150605 1.6713571835786665 -15.457390033624147 74 29 20
-5.083840906854293 1.7499492565662402 -15.405943445066875 75 31 23
-5.0779807798641174 1.724217442867631 -15.479818865633412 75 35 27
-5.089460821792995 1.7507353265080354 -15.490847183842146 78 40 32
-5.11454969326461 1.8183406351629419 -15.452023659494426 80 42 35
-5.114627482036561 1.810466512838767 -15.504603075247182 79 45 37
-5.114373261578962 1.8015548358525724 -15.558627929679341 94 59 53
-5.114118368153506 1.7926054871936445 -15.6128875940919 103 67 61
-5.1178092172528 1.7955611127144628 -15.652744783172473 103 67 61
-5.114526464130533 1.777378528508967 -15.718693261358787 86 56 48
-5.111949010136107 1.761284823996549 -15.782322386195931 83 53 46
-5.115330141796109 1.763213063580003 -15.823915825304802 84 56 49
-5.066641176399109 1.6071263600484134 -16.061508543450497 86 60 54
-4.995948181374214 1.3839978681157117 -16.383668735761283 88 64 59
-5.00792295101973 1.4117135831562093 -16.394813404457196 90 67 62
-5.105196140151268 1.6987732982230517 -16.081672192077356 94 73 68
-5.067660946579742 1.5760592618648328 -16.28037857423959 98 80 74
-5.044700243472389 1.4975247876787918 -16.42454415618106 102 87 81
-4.9666263106227575 1.2509585240912573 -16.781261709949266 110 99 94
-4.965735838475766 1.239326453373204 -16.842829014562362 130 121 117
-4.968267012179195 1.2380897248363123 -16.891439719179537 141 136 131
-4.980321850733752 1.2658969703551337 -16.903270344053347 137 133 129
-4.987745327237061 1.2795674475328305 -16.93306974872098 134 130 127
-5.003726628731139 1.3193897261577607 -16.929471548311355 133 129 126
-5.013500925889685 1.340252527737567 -16.95004148706712 134 130 127
-5.026083098703536 1.3697120811698067 -16.95954796290569 135 131 128
-5.049376089569423 1.4319950083765125 -16.92665317220399 138 134 131
-5.0621934116965255 1.4622254305276012 -16.934901149538668 140 136 133
-5.075749600738781 1.4947371585672578 -16.940113041059675 145 141 140
-5.092066094646665 1.5357402860785578 -16.934186225891544 150 145 145
-5.107887284642182 1.5752521030921178 -16.930047089938714 153 151 151
-5.114740817423465 1.587225144936638 -16.961782257071647 156 154 154
-5.137727098061571 1.6488155273962928 -16.92848898106602 160 159 158
-5.158693404012098 1.7042475994878448 -16.90298417959723 163 162 161
-5.1600674396763955 1.6993743208576717 -16.95676562866415 166 165 163
-5.172652259547392 1.7290273184623706 -16.9650534004806 170 169 167
-5.178747381161152 1.7386736329183279 -16.99980767753657 173 171 171
-5.191030624690949 1.7674104609520906 -17.00923706987055 174 174 174
-5.177225904999855 1.7155597019775914 -17.126119582631112 176 176 176
-5.207313311981144 1.7993122990233488 -17.06210216082149 180 180 180
-5.002629186709353 1.156748326838743 -17.972189045753552 182 182 182
-5.006329244167231 1.158448723121423 -18.020376886399276 184 184 184
-5.020801109270106 1.1934997352853998 -18.023703267482738 186 186 186
-5.037159464132543 1.2344222593495449 -18.01897251758858 187 187 187
-5.032901261983582 1.2113957151862378 -18.100873702461737 188 188 188
-5.253681554848006 1.8871899133660186 -17.232003876247916 189 189 189
-5.287766440100301 1.9837266815470356 -17.1486810665253 190 190 190
-5.321786787023746 2.080178882705763 -17.06487569657156 191 191 191
-5.3004324500351725 2.004385004931592 -17.21690788562015 192 192 192
-5.870351524095454 3.7621731738525344 -14.88729607301107 192 192 192
-5.846253373818243 3.678845837823871 -15.044486109062742 193 193 193
-5.822527724837805 3.5965275173890876 -15.201065422719951 194 194 194
-5.77486491334157 3.4392616078915665 -15.462784153742604 194 194 194
-5.749968203961927 3.352915654568208 -15.626860744194667 194 194 194
-5.728089093420793 3.2758517181296947 -15.778766129738855 194 194 194
-5.719206575431723 3.2393441387776623 -15.874474090825736 195 195 195
-5.43213180955142 2.330793730274121 -17.19873168926001 196 196 196
-5.445051038470285 2.3618171162118253 -17.203442644416228 196 196 196
-5.4612220141189685 2.403067453109462 -17.193573080385182 196 196 196
-5.497964782526019 2.4995110171013293 -17.153435891973032 198 198 198
-5.508500400564847 2.5231446921210683 -17.16813783918939 198 198 198
-5.537539936294971 2.605061330936847 -17.09930307600118 199 199 199
-5.543642406947436 2.6147838701153603 -17.133678153992214 199 199 199
-5.558036069378893 2.650645686947114 -17.130465937567678 199 199 199
-5.5637182352405965 2.6590325193522864 -17.166815726673136 199 199 199
-5.596803839900454 2.753986224830898 -17.0778052882663 199 199 199
-5.608949683024254 2.7828488594240284 -17.084213429734653 199 199 199
-5.621646792883162 2.8134726403880848 -17.08797126503503 200 200 200
-5.712231803315751 3.0908197214774082 -16.731007641034637 201 201 201
-5.715347540456633 3.0913140473834124 -16.77769761297101 201 201 201
-5.6977281416033945 3.0259922851005268 -16.921291489232722 201 201 201
-5.773115443739228 3.2558591573499456 -16.630402718684444 201 201 201
-5.677815641097503 2.9436343590646628 -17.139213793218538 201 201 201
-5.7002445911284125 3.005311795571539 -17.096424824730235 202 202 202
-5.714120643903939 3.039834720043512 -17.09364931019754 202 202 202
-5.726624747197427 3.0700134282469005 -17.097216809030254 202 202 202
-5.743353192928424 3.1136825378894617 -17.08050909061689 203 203 203
-5.842475326838454 3.420359522521694 -16.669097429441777 203 203 203
-5.85858467609903 3.462363897171593 -16.653324888965564 204 204 204
-5.8948443819243455 3.5688319236036223 -16.540097415678567 204 204 204
-8.411391805596582 10.804205975725019 -9.684843165297258 219 219 219
-8.418461895823905 10.825199521535062 -9.661240665815054 219 219 219
-8.425482884751387 10.846047327543518 -9.637801699736794 219 219 219
-3.0791545188358462 -1.9370637728732822 -7.766529562314694 196 196 197
-3.162025962061972 -1.7229305276262248 -7.692789256624182 196 196 197
-3.189715169949969 -1.6540797961113314 -7.6860834510692975 197 197 197
-3.199913908953917 -1.6353886943351343 -7.7279701318274 198 198 198
-3.1979388959662174 -1.644700739252557 -7.757722331141735 198 198 198
-4.762822727717146 1.393668896076874 -13.051171130517425 212 212 214
-4.847336757767655 1.6305562643587765 -12.852850427846693 212 212 214
-4.786163738808289 1.4480459894745161 -13.069873725868 211 211 213
-4.803019954514578 1.4901928721923836 -13.064241794640507 211 211 213
-4.820269982565817 1.5334999748962321 -13.057310666344012 211 211 213
-4.8336005093814 1.5655271407708353 -13.061531452981615 211 210 212
-4.84581736897964 1.5943551534799867 -13.06888183753673 210 210 212
-4.944915528851218 1.87406065545917 -12.823435606403024 209 210 212
-4.949883224905912 1.8820966027716337 -12.85094391734155 209 210 212
-4.840548949017367 1.5597483705269486 -13.213209623142848 209 210 212
-4.849774201974903 1.579910975225105 -13.229443396874789 208 209 211
-4.841468977091773 1.5493553730083311 -13.297333021481666 208 209 211
-4.815165696430651 1.4666502789906835 -13.418778518003343 208 209 211
-4.831264730272 1.5066514481331676 -13.415078914895336 208 209 211
-4.836364301094623 1.514801946162188 -13.443974482273655 208 209 212
-4.866033870874 1.5941777229604908 -13.399535325153218 207 208 211
-4.841579649377655 1.5166173958494742 -13.516894752739312 208 209 212
-4.870890409342856 1.5949989001867353 -13.473221430361964 207 208 211
-4.874229619940088 1.5980281893385433 -13.507491917837715 207 208 210
-5.015652608820414 2.0022170468458795 -13.12381737982101 207 208 210
-5.017927975277297 2.0023341940286183 -13.160120376701279 207 208 210
-5.020209584327267 2.002451851978033 -13.196521713268801 208 208 210
-5.026005866693838 2.0127790843197433 -13.22229311705993 208 208 210
-5.029707977023781 2.0170022915036174 -13.25453647300829 207 207 209
-5.03298412157878 2.01997115748968 -13.28818106500428 207 207 209
-5.032862112213259 2.013021097616376 -13.332421273668501 207 206 209
-5.032774954688346 2.006147075750621 -13.376723701234374 206 206 208
-5.012668810711642 1.9408390167266125 -13.4834483233182 206 206 208
-5.0140016015627245 1.938027285455373 -13.523871496176383 206 206 208
-4.975726765266489 1.819508109097181 -13.688432532884512 206 206 208
-4.577177283148252 0.6405100200100664 -15.035330681929011 205 201 202
-4.679301904202752 0.9317811382863113 -14.762278233207624 176 163 163
-4.738782196426152 1.0985232139986545 -14.622551013531666 116 89 86
-4.7863272588059775 1.2304723273227074 -14.519739320657557 101 59 54
-4.817739552793038 1.3152712351453015 -14.467629576641663 102 56 50
-4.8610717281053315 1.4350928295513103 -14.37682614678042 104 62 56
-4.903613003496874 1.5527069261644453 -14.287816494002463 109 75 70
-4.87168286885569 1.4518384162753115 -14.438374518091072 114 81 79
-4.901868133766004 1.5332642530476726 -14.388703708273225 118 88 84
-4.931759252362166 1.6138966822232952 -14.339516508779226 119 90 84
-5.039735827628412 1.9241865772646989 -14.035330576141867 111 78 71
-5.042675344938302 1.9258018675339699 -14.072492438882122 107 72 67
-5.0541545508537755 1.9525359537635305 -14.081748943023563 99 64 59
-5.067839723816393 1.9857774923548028 -14.083672032195679 97 63 55
-5.080531360442846 2.016109112089775 -14.088758667208356 96 62 52
-5.07285020715424 1.9863849846002042 -14.161288349712182 95 59 51
-5.114171400773547 2.101175993948811 -14.071172612009613 90 53 45
-5.111374290049209 2.0858438796423915 -14.127569635592632 91 54 46
-4.851513985705028 1.3111975841735575 -15.045155878398571 91 54 47
-4.945931341005992 1.5826540352672342 -14.778294345040635 91 54 47
-4.9406493070900055 1.5595848321163395 -14.845657547238652 90 53 45
-4.933485024692132 1.5308982029752585 -14.919709836348204 90 53 44
-4.936829497812731 1.533268209185696 -14.958451337596689 90 52 42
-4.9316890907673 1.510484789192879 -15.026221768621909 88 50 40
-4.931463600611705 1.5022207997558814 -15.077515185007714 86 46 36
-4.947155015100096 1.541131354320183 -15.074426779370437 84 41 32
-4.9469234212511335 1.532813893508787 -15.125976389535657 81 37 28
-4.931115887475681 1.478214654943156 -15.231526334047306 79 34 25
-4.8954185140855415 1.3644334911401357 -15.4065778208872 78 30 22
-4.899414407978137 1.3684965621981098 -15.444674192171952 74 27 19
-4.928390346439976 1.446849151309988 -15.395736532329884 73 26 18
-4.94458814663794 1.487240071313602 -15.391054104022736 73 26 18
-4.9540313770806685 1.5075403722463365 -15.409924417923705 71 24 16
-4.96641729768121 1.5366120887521033 -15.418409024796185 71 24 16
-4.990783524740781 1.6014205469588196 -15.384435140435954 71 24 16
-4.937834841564719 1.4355991108423751 -15.62448592401428 72 25 17
-4.995241643936263 1.5990237834664693 -15.473032381346911 73 25 18
-5.037338424274003 1.7168896758505028 -15.375103852902733 73 26 18
-5.067014717925531 1.7977504786874192 -15.320896561146933 72 26 18
-5.097379857611326 1.88074919654568 -15.263695127862604 73 29 21
-5.103967658601812 1.8926634702514926 -15.291809830627912 75 34 25
-5.06988442761681 1.7827661071507839 -15.46733412386289 77 37 29
-5.095887433237106 1.8527699025754565 -15.425478210758577 80 42 34
-5.09085673209287 1.8297803205854786 -15.49640784130604 80 44 37
-5.093156613720803 1.8287338437611238 -15.540850263607345 84 50 44
-5.095463671918983 1.8276840812764004 -15.585431498950795 94 62 55
-5.094224346745789 1.8159548307088142 -15.64325153184787 100 69 62
-5.0923387375987605 1.8022439346361052 -15.703719917156164 87 57 49
-5.098639609821779 1.8131180083578862 -15.734077406667033 81 52 44
-5.1010115821448405 1.8121555764257087 -15.779135680494758 83 54 46
-4.959672959353277 1.3783013668609572 -16.36150553181488 84 57 50
-4.966141939020451 1.3893556148536002 -16.393404272673052 86 61 55
-4.962146610330835 1.3688388065834376 -16.46475986075914 89 65 60
-4.975883390887914 1.401784608749197 -16.46949111527035 91 69 64
-4.9777821417448465 1.3989980043362467 -16.518970745073048 94 75 68
-4.994301299672119 1.4403639479512957 -16.51304015074924 99 83 76
-4.943833142856073 1.2791943380091526 -16.762574858197752 105 92 85
-4.938625437878346 1.2547400881093402 -16.840362116015633 113 103 97
-4.953624688896842 1.2914125725163448 -16.84087997308233 128 121 115
-4.967526192388775 1.3247815136934724 -16.84548123023055 126 121 117
-4.987665965089997 1.3770831563712136 -16.82581740730092 125 120 117
-4.982073052979408 1.3513546991688248 -16.905802295034604 126 120 118
-4.992520598700995 1.374265154081904 -16.923678629273347 127 121 119
-5.006483167531473 1.4078590704732346 -16.92777865084005 128 123 121
-5.028346422236904 1.4654916388226882 -16.90074395400479 131 126 123
-5.037057995285432 1.4831647655850446 -16.925165030670147 134 129 126
-5.051692540074792 1.518866941040673 -16.926193232830013 140 134 133
-5.065189368685216 1.551125182271635 -16.931587272921927 145 139 139
-5.078054252006011 1.581474334976856 -16.939380730584627 149 146 145
-5.096119911993508 1.627704345255153 -16.926300309688266 152 150 149
-5.121523978915198 1.6963742339067327 -16.88355588425774 157 155 154
-5.141240285984655 1.747736941549694 -16.86323610502329 160 158 157
-5.132296091049259 1.7115266138043816 -16.958324930220716 163 162 160
-5.11016060554919 1.6348825834518648 -17.107378580598407 167 166 164
-5.096442152835979 1.5838705925110244 -17.22311405922783 170 169 168
-5.150978724237584 1.7418628079594827 -17.061017881899105 172 171 172
-5.066690960696683 1.4744500838823935 -17.466066836148524 175 174 174
-5.075551134676669 1.49240024567501 -17.491066988178304 178 178 178
-4.969334380299445 1.157043997273476 -17.99066309314382 181 181 181
-4.9778742542566885 1.1737496976664872 -18.01872082605149 182 182 182
-4.987474830429614 1.193711041736246 -18.042410028299336 184 184 184
-5.006946270584885 1.2440423254022992 -18.024960154179816 186 186 186
-5.003395234137271 1.2235294817911777 -18.103530111043685 187 187 187
-5.250749635315773 1.976073625823778 -17.129145511062497 188 188 188
-5.26081313533334 1.9979893667181532 -17.147379341584333 189 189 189
-5.280839289524664 2.05065195305884 -17.123463017410174 190 190 190
-5.3045711242264595 2.1148073271157264 -17.083494302459364 191 191 191
-5.902821329566327 3.946749826692014 -14.648079806088717 192 192 192
-5.886420446474073 3.888169043648823 -14.770443207056616 192 192 192
-5.869781515016744 3.828738102619915 -14.894581938092514 193 193 193
-5.849533443645202 3.7580051540187296 -15.035077423314636 193 193 193
-5.762901616967808 3.4812138006151434 -15.464306964977606 193 193 193
-5.744324130101805 3.4152444958399277 -15.600342792605643 193 193 193
-5.735503578020906 3.3794606667318785 -15.694609781574917 194 194 194
-5.408140741478601 2.3531951321551476 -17.185746968182045 195 195 195
-5.413905547361952 2.361868439913793 -17.222006543229952 195 195 195
-5.495552414476727 2.5884928382160535 -17.045223572247398 196 196 196
-5.501246382001899 2.5970361553115575 -17.081193315704258 198 198 198
-5.52570453102733 2.6641766547315218 -17.033205832740517 199 199 199
-5.530904075499727 2.671187718117463 -17.071309694310187 198 198 198
-5.551553177977581 2.726515901775344 -17.039815375091184 198 198 198
-5.591531836161144 2.833211354444966 -16.981667954452426 199 199 199
-5.59861351212718 2.846161989821348 -17.010938054403663 199 199 199
-5.6113684462658355 2.8769096530856313 -17.014288932916113 200 200 200
-5.7312139402153335 3.24406738791105 -16.525274777862034 200 200 200
-5.723304672656393 3.21016410568747 -16.62188465536164 200 200 200
-5.700570576009498 3.1295328826265365 -16.787703578311273 201 201 201
-5.693965563153566 3.099528190373312 -16.879637574691543 201 201 201
-5.6854439790931774 3.0634040479474054 -16.981040527803767 201 201 201
-5.679300560795275 3.0346907070652094 -17.071907764396766 202 202 202
-5.699969367386606 3.0905359242665655 -17.03729549687475 202 202 202
-5.715580729433368 3.1304650961957865 -17.026127079248333 202 202 202
-5.730588782726243 3.1685222642354134 -17.01757810578582 202 202 202
-5.8296888185523486 3.472726267754105 -16.609209599890036 203 203 203
-5.844824678268169 3.5114777390780914 -16.598125330649264 204 204 204
-5.87086564251997 3.5848322668044084 -16.534600497171567 204 204 204
-8.39963324791573 10.810648751136812 -9.683715392978712 219 219 219
-8.41125221541589 10.849997082347288 -9.611345427336031 219 219 219
-8.418285767430291 10.870749429433594 -9.587937814930099 220 220 220
-3.1537010719442176 -1.674526821402238 -7.674762720691963 196 196 198
-2.995849642291929 -2.092589688488742 -7.894872593688811 196 196 197
-2.9970098771622027 -2.0936610308329473 -7.921388196238063 197 197 198
-3.067020069968681 -1.914050249487124 -7.863195588402835 198 198 199
-3.1340371787413144 -1.7422147113617792 -7.808145957380702 198 198 198
-4.655218696635961 1.1861344127293734 -13.15749216253151 212 212 214
-4.693696527183336 1.2897417261374553 -13.0922947777286 212 212 214
-4.723586844855636 1.3688879544316528 -13.050730912995846 212 212 214
-4.751210771424817 1.4416129974451195 -13.015170044920328 212 212 214
-4.755749869595903 1.4483499993915228 -13.044716145974814 211 211 213
-4.7869725350183785 1.5314506806929806 -12.998403918128517 211 211 213
-4.759771973697383 1.447314901101322 -13.118450086164717 211 211 213
-4.8118331884709535 1.5901645916655585 -13.012130866141874 210 210 212
-4.823447988244437 1.6172018285179162 -13.021216552666534 210 210 212
-4.8350450743026965 1.644197994401622 -13.030287272782324 211 210 212
-4.914566774922696 1.8660935191031105 -12.842786727834373 210 210 212
-4.92170089803148 1.8803938760593 -12.864026441776844 210 210 212
-4.84304057709163 1.6482865929936956 -13.135137330189664 209 209 211
-4.850291674136632 1.662795746062888 -13.156899620256036 209 209 211
-4.851627943875119 1.6602977415478666 -13.196019919832217 209 210 212
-4.841699174739311 1.6253780766611374 -13.26840843613483 209 210 212
-4.852500105134567 1.6500616170153783 -13.279974490784014 207 208 210
-4.857563241989323 1.6582322414838488 -13.308479432951042 208 208 212
-4.861402789225482 1.6628689474938518 -13.34068163167801 208 208 212
-4.864704881530421 1.6659438640387165 -13.374572562794906 209 208 212
-4.880598593499506 1.7053135273970197 -13.370903639364762 208 208 211
-4.883859986626142 1.7082606053711782 -13.404987424644375 207 207 209
-4.97771161961542 1.972685488442837 -13.166432383364057 207 207 209
-4.980128460215823 1.973298210186846 -13.202356358967503 208 208 210
-4.9825513556853025 1.973911627426577 -13.238376033686276 209 209 210
-4.984980391905509 1.9745259204411663 -13.27449160802026 207 207 208
-4.986840611948068 1.9734779613840918 -13.312457793003624 207 207 208
-4.992158388383936 1.9824173997804482 -13.339966732623754 207 207 209
-4.994140957822696 1.981691291755201 -13.377777153536911 207 206 209
-4.999211233735666 1.9898917438343502 -13.40619800783833 206 206 209
-4.979066759039176 1.9249969610408977 -13.512649264802405 206 206 208
-4.978160639158362 1.9158083529750476 -13.559999620238775 205 205 206
-4.946806660163313 1.8182445130416491 -13.702319635859052 204 205 204
-4.921182928115623 1.7371947093346005 -13.827567997337159 195 189 186
-4.664038322080154 0.9835472093268223 -14.679064555510434 136 119 116
-4.765362001026643 1.2708665800972625 -14.409010979697818 97 67 62
-4.831158624556024 1.455168661967135 -14.249088205809297 95 54 49
-4.865494143004486 1.5481179837424675 -14.187543768461678 98 52 48
-4.8704544441996624 1.55563950652975 -14.218749709206577 97 54 50
-4.834981168305063 1.4453878099442727 -14.378884468979221 102 65 61
-4.867043888787138 1.5318010798133104 -14.324016561638965 110 78 73
-4.89240158123045 1.598739215464433 -14.290155389115526 112 82 78
-4.710792925049404 1.061960940954724 -14.92216922380456 112 84 80
-5.062764165352132 2.0820065042597955 -13.834892844924994 116 88 83
-5.065666795506235 2.0837191902317773 -13.871406392642141 110 80 75
-5.068610912438361 2.0855359253254333 -13.907901647377129 107 73 69
-5.083817061619585 2.1231855960759765 -13.904505891769233 101 66 62
-5.098656279377515 2.1597844429466297 -13.90215824030171 97 62 56
-5.104868759411963 2.1711550316703123 -13.928001646781274 95 61 52
-5.092198175723007 2.1272189536860076 -14.016126364180494 93 59 50
-5.1312927776946395 2.234896347052568 -13.933527758113467 90 54 45
-5.149607184021988 2.2817510624017707 -13.91919273101713 91 54 46
-5.133783301378486 2.2284945410414645 -14.018293101440074 92 55 47
-4.952163088733167 1.6885190853551588 -14.671819884561046 92 55 47
-4.944153572556779 1.6577752377201271 -14.747691149986592 92 55 47
-4.843589322726313 1.3550030358855754 -15.135244131186752 91 54 46
-4.853440960418214 1.3765068863717378 -15.152651942466111 90 53 45
-4.884784010682031 1.4612391298809717 -15.097260168945912 90 52 44
-4.9021030672025 1.504766942117568 -15.089002419219215 87 49 40
-4.919440984674019 1.5483792246410992 -15.080484039195847 85 46 36
-4.948895395300077 1.6277277758357878 -15.030317108866655 82 40 31
-4.954483669694044 1.6367731756197283 -15.061592947020928 80 35 26
-4.849454592936635 1.3194396912261483 -15.473948095944767 77 30 22
-4.992995764297499 1.7355299502555415 -15.029892550558133 75 28 20
-5.003191567329015 1.7582000926348993 -15.045090805488414 73 26 18
-4.878912963623172 1.383418182665535 -15.528189134124549 72 25 17
-5.07341257942649 1.9509207236388173 -14.901396190553244 72 25 17
-4.888933349065507 1.3898689122932417 -15.650586340049202 71 24 16
-4.938250858026669 1.5281955782737064 -15.529467814718181 71 24 16
-4.983081892177269 1.6533657558423522 -15.423255738455328 72 25 17
-5.0451650300301685 1.8298383684422665 -15.254896131138345 72 25 17
-5.004906313411002 1.702746650447562 -15.449985256890908 72 25 17
-5.020466366556839 1.7412515935724144 -15.446652870423495 73 27 18
-5.016694615867932 1.7223332869752435 -15.51252818269576 74 30 21
-5.061756683882468 1.8485753910642124 -15.402870868817889 76 36 27
-5.075394070748447 1.8814517091984113 -15.405861757828426 79 41 32
-5.076856608723842 1.8780996342192022 -15.452874232742758 80 42 36
-5.068324376716495 1.8449464553672055 -15.536432362756624 80 45 39
-5.071782957490001 1.8474717378167833 -15.576649956189456 81 49 43
-5.080315565713351 1.8651112858466554 -15.598415013112461 80 50 45
-5.081926010647758 1.8620901864514332 -15.645633655095313 79 49 41
-5.082216017975105 1.855098644228872 -15.697906740743022 80 50 42
-5.082508064662794 1.8480809929998605 -15.750390894860011 82 53 45
-4.973742589493233 1.5149289784512812 -16.2081643123167 84 56 49
-4.9822539275791975 1.5322323456533056 -16.231858823179905 85 58 52
-4.9637192780876465 1.468558093669193 -16.356723408693092 88 62 57
-4.9551345437358005 1.434586901080415 -16.444964008836095 91 66 61
-4.995845387083614 1.5483264080633523 -16.348017227713573 91 70 65
-4.979347859252718 1.4905768736601601 -16.466446716250484 95 76 70
-4.932832841371587 1.3426250186778788 -16.69938708434762 100 84 77
-4.901148494353693 1.2390020919074942 -16.87736106502246 104 91 84
-4.911032175981101 1.260154815861152 -16.897684010941216 113 104 98
-4.911345012070607 1.2525245940657506 -16.95467149986181 117 110 106
-4.963607298708823 1.4012008292949538 -16.8121325775801 115 109 107
-4.976781051766007 1.4323317902870691 -16.819282710361854 118 110 109
-4.972862126354469 1.4119695116022557 -16.892519767705185 119 112 111
-4.985043436261777 1.440104066013176 -16.903551752585393 122 117 116
-4.987870689542802 1.4400241810375514 -16.950984343103087 124 120 118
-5.013576065644735 1.508998220449711 -16.909068456378414 128 124 121
-5.0274397399931114 1.5422583818698188 -16.91320655978029 132 128 125
-5.038567527871669 1.5672647817829874 -16.92800179082093 137 133 132
-5.057671643316098 1.6164115229156302 -16.91120435749811 144 140 139
-5.076485274776231 1.6647188008926141 -16.895288058137474 149 145 145
-5.096601596884765 1.7170119203785923 -16.873918443437436 154 150 151
-5.113082449211095 1.7583278943165475 -16.866774437734563 158 155 155
-5.081569047080983 1.654066946944904 -17.05191486885623 161 160 158
-5.080156033539651 1.6410184141352664 -17.117062104457133 166 165 163
-5.126604781634131 1.773329812566435 -16.989200570940014 168 167 165
-5.1318347226861665 1.7804869248961142 -17.027352378583547 171 169 170
-4.964739658077697 1.263372756474407 -17.766582415449477 174 172 173
-4.964503556733442 1.2534887695711783 -17.82976579380989 177 176 176
-4.948826878609044 1.196522713480336 -17.956490379507443 179 179 179
-4.954380789100996 1.204172248525663 -17.996672356442332 182 182 182
-5.049449247172511 1.4848940554602672 -17.66766401381229 183 183 183
-5.05659010823941 1.497545590364945 -17.70020878914982 185 185 185
-5.0637816641946385 1.510341352583529 -17.732615232374314 186 186 186
-5.063209416602389 1.4993902426754975 -17.797467939486644 187 187 187
-5.063200250260927 1.490117262668269 -17.860267132245486 188 188 188
-5.252389231867745 2.0600710919572585 -17.128755799123866 189 189 189
-5.273055532304461 2.114479519711767 -17.10214749635583 190 190 190
-5.805013380969722 3.6974706672385462 -15.178314181635386 193 193 193
-5.752345236562983 3.527326781580512 -15.459858744429216 193 193 193
-5.4329872303255 2.5260924978912476 -16.960325260365536 194 194 194
-5.535051757841398 2.8322101404168007 -16.5749434354854 195 195 195
-5.448367158119538 2.5557249863438534 -17.014237659391867 195 195 195
-5.471328334579342 2.6177395284467346 -16.974054690713793 195 195 195
-5.480851436154247 2.638247003369793 -16.992777764367617 195 195 195
-5.5533317700802955 2.85367253195953 -16.732418130383536 197 197 197
-5.545740113191753 2.821306440553914 -16.82623251423568 198 198 198
-5.533078946809058 2.773142606037583 -16.943214269948307 198 198 198
-5.541741665290234 2.7910467951085316 -16.96534065731342 198 198 198
-5.571703781420654 2.875096232451667 -16.89168130039717 198 198 198
-5.5813748964264285 2.896183326595972 -16.908924346928856 198 198 198
-5.588809001958737 2.9103161879687756 -16.936276371819837 198 198 198
-5.596514361036323 2.9252863088897563 -16.96244328356743 200 200 200
-5.723160453029724 3.3107876572645614 -16.445839235583634 200 200 200
-5.71232748195621 3.2682410717706922 -16.55500813306152 200 200 200
-5.621363052490134 2.9755676959749673 -17.033217477363454 200 200 200
-5.701531491323123 3.2168021329264507 -16.72515762284431 200 200 200
-5.69299290669515 3.181162018704983 -16.82549338190717 201 201 201
-5.672855808341084 3.1091576912795515 -16.980331341069636 202 202 202
-5.684541592921087 3.1366220397773157 -16.987694796927293 201 201 201
-5.699066568889309 3.1729955370833887 -16.98166523826048 201 201 201
-5.709062055466148 3.1951964183629844 -16.99672688438448 202 202 202
-5.743050215580535 3.2926910026040455 -16.898565179509177 203 203 203
-5.818484371653575 3.5204773945004737 -16.60328113685109 203 203 203
-8.392549202393669 10.835813937735832 -9.632984518728708 219 219 219
-8.404272174311396 10.875157894955453 -9.56031796611823 219 219 219
-8.411217010410223 10.89540905020224 -9.538020319855708 219 219 219
-0.7166002950385888 -7.941044904364447 -10.416111616968418 194 194 194
-0.9641861382397829 -7.300597110472078 -10.15738804737773 194 194 194
-0.9614776950734658 -7.312906511439457 -10.196974786437563 195 195 196
-2.989325992720161 -2.0379026713205004 -7.873959054128809 196 196 198
-2.986964621652958 -2.0480867694335894 -7.904675390622206 197 197 199
-2.990706875299137 -2.0423353245431146 -7.9279956186919875 198 198 200
-3.066479968133981 -1.8483286069340292 -7.862681838531559 198 198 199
-4.6259844726761 1.1971207913284045 -13.0851173251433 213 213 215
-4.79057082831063 1.6578181624932955 -12.670890846439164 213 213 215
-4.827042568207314 1.7553812941106162 -12.610467145893956 212 212 214
-4.831551117083096 1.7622764261772619 -12.6387984560943 212 212 214
-4.664682339424402 1.2823944223213726 -13.14745594687264 212 212 214
-4.691952251423139 1.3537222758979706 -13.113505749019478 211 211 213
-4.715290135240108 1.4139222065406596 -13.090295023666652 211 211 213
-4.744050909757457 1.4895872821597083 -13.05145519863936 211 211 213
-4.764594687491378 1.5419246622230238 -13.035564272999995 210 211 212
-4.801174906953259 1.639952116428101 -12.973753933067094 210 211 211
-4.812763999421451 1.6668717173197751 -12.982843181749686 209 209 210
-4.824335887473959 1.6937517341200143 -12.991916310289787 209 208 210
-4.886319293252433 1.864371984662124 -12.855871464635442 209 206 209
-4.893455387691602 1.8786870530235893 -12.87713853861305 204 201 203
-4.846318815460726 1.7381106736884195 -13.055621186450317 198 195 197
-4.85374752199686 1.753181181873733 -13.076592746699063 191 187 190
-4.861257542401557 1.7684820528097092 -13.09734056191867 185 180 183
-4.867639308729151 1.7805565803617776 -13.121400775775307 179 173 177
-4.873308822615481 1.7905895615281326 -13.147585311285457 175 170 173
-4.878335647973604 1.798776979984329 -13.175710319023688 173 169 169
-4.883617169321807 1.8076846535288023 -13.203143512666864 171 167 168
-4.88734466377654 1.8121339617632093 -13.235239519672984 170 165 166
-4.890097078898911 1.8137769929393435 -13.27032263865851 169 162 165
-4.893345159384138 1.8168254752008943 -13.304033364926019 171 163 167
-4.89634891284645 1.819159162720073 -13.338573126146413 172 164 168
-4.939674049232416 1.9371771698406368 -13.252089191892676 173 165 169
-4.942052991934852 1.9377454954052107 -13.288315404437677 173 169 168
-4.944438158689389 1.9383150905866944 -13.324637902069016 177 173 171
-4.947009234282154 1.9394022613838215 -13.36051195743116 181 177 175
-4.949683484183472 1.9407698466143413 -13.396184448812003 188 185 184
-4.954151071222923 1.947280285827556 -13.42649043847235 194 190 191
