ply
format ascii 1.0
element vertex 825
property float x
property float y
property float z
property float nx
property float ny
property float nz
property uchar diffuse_red
property uchar diffuse_green
property uchar diffuse_blue
property uchar class
property uchar detection
end_header
1.2918 -1.0413 -13.7440 -0.631 -0.361 0.687 183 122 81 0 0
1.2806 -1.0606 -13.7644 -0.631 -0.361 0.687 166 115 91 0 0
1.2697 -1.0794 -13.7854 -0.456 -0.452 0.767 165 111 98 0 0
1.2556 -1.1027 -13.8012 -0.685 -0.281 0.673 127 66 52 0 0
0.7880 -1.8928 -14.5027 -0.567 -0.798 0.206 72 31 17 0 0
0.7848 -1.9006 -14.5376 -0.461 -0.735 0.498 65 27 13 0 0
0.7871 -1.9006 -14.5826 -0.420 -0.884 0.205 63 29 19 0 0
0.8555 -1.8704 -15.5556 -0.495 -0.838 0.229 2 2 2 0 0
0.5247 -2.3969 -15.6432 -0.062 -0.516 0.854 35 33 34 0 0
0.5000 -2.4387 -15.6808 -0.298 -0.425 0.855 17 15 16 0 0
1.6060 -0.4876 -13.7069 -0.469 -0.337 0.817 128 57 42 0 0
1.3057 -0.9563 -13.6540 -0.260 -0.385 0.885 113 53 30 0 0
1.2570 -1.0419 -13.7684 -0.480 -0.563 0.672 142 80 56 0 0
1.2457 -1.0611 -13.7889 -0.456 -0.452 0.767 154 92 76 0 0
1.2347 -1.0801 -13.8097 -0.512 -0.431 0.743 122 56 37 0 0
0.7602 -1.8804 -14.4993 -0.706 -0.665 0.245 112 58 36 0 0
0.7571 -1.8880 -14.5343 -0.540 -0.685 0.490 103 54 32 0 0
0.7549 -1.8943 -14.5713 -0.528 -0.776 0.345 99 54 36 0 0
0.6584 -2.1238 -15.5708 -0.069 -0.568 0.820 13 13 15 0 0
0.4982 -2.3814 -15.6433 -0.243 -0.569 0.786 42 40 41 0 0
0.4845 -2.4043 -15.6593 -0.022 -0.322 0.946 38 36 37 0 0
0.4799 -2.4142 -15.6939 -0.194 -0.524 0.830 21 19 20 0 0
1.4644 -0.6516 -13.6799 -0.759 -0.539 0.365 164 94 69 0 0
1.4542 -0.6693 -13.7026 -0.393 -0.290 0.873 145 82 59 0 0
1.2491 -0.9914 -13.6816 -0.068 -0.608 0.791 99 36 21 0 0
1.2218 -1.0428 -13.7923 -0.456 -0.452 0.767 137 69 49 0 0
0.7382 -1.8597 -14.5064 -0.706 -0.665 0.245 108 57 34 0 0
0.7333 -1.8698 -14.5383 -0.570 -0.595 0.567 109 60 35 0 0
0.7298 -1.8779 -14.5729 -0.528 -0.776 0.345 103 56 33 0 0
0.7215 -1.8929 -14.5986 -0.607 -0.726 0.323 81 36 18 0 0
0.4587 -2.3879 -15.6607 -0.044 -0.477 0.878 30 28 30 0 0
1.4593 -0.6023 -13.6749 -0.401 -0.438 0.805 145 74 46 0 0
1.4438 -0.6277 -13.6891 -0.272 -0.494 0.826 177 110 77 0 0
1.4290 -0.6522 -13.7044 -0.040 -0.294 0.955 134 76 55 0 0
1.2325 -0.9624 -13.6971 -0.552 -0.202 0.809 103 40 24 0 0
1.2224 -0.9828 -13.7584 -0.549 -0.487 0.679 112 43 27 0 0
1.2098 -1.0041 -13.7766 -0.706 -0.367 0.606 126 54 36 0 0
1.1983 -1.0238 -13.7966 -0.698 -0.247 0.672 111 37 18 0 0
1.1779 -1.0564 -13.8019 -0.297 -0.474 0.829 117 40 18 0 0
0.9780 -1.3707 -13.7787 0.231 -0.825 0.516 130 51 29 0 0
0.7113 -1.8459 -14.5047 -0.477 -0.848 0.232 100 53 33 0 0
0.7088 -1.8526 -14.5410 -0.401 -0.800 0.447 105 58 35 0 0
0.7021 -1.8653 -14.5696 -0.401 -0.800 0.447 103 56 37 0 0
0.6986 -1.8733 -14.6043 -0.512 -0.731 0.451 77 31 18 0 0
0.6833 -1.9076 -14.7412 -0.480 -0.877 0.017 108 60 34 0 0
0.7457 -1.8714 -15.5866 -0.379 -0.882 0.281 5 5 6 0 0
0.7395 -1.8867 -15.6623 0.283 -0.641 0.714 6 6 8 0 0
0.4318 -2.3731 -15.6599 -0.379 -0.440 0.814 19 15 18 0 0
0.4184 -2.3954 -15.6766 -0.217 -0.605 0.766 28 26 29 0 0
0.3949 -2.4355 -15.7166 -0.014 -0.422 0.906 37 36 34 0 0
1.4201 -0.6084 -13.6934 -0.179 -0.059 0.982 173 107 74 0 0
1.3788 -0.6747 -13.7049 -0.179 -0.059 0.982 147 95 83 0 0
0.6826 -1.8348 -14.4996 -0.282 -0.891 0.357 92 49 32 0 0
0.6773 -1.8455 -14.5308 -0.246 -0.793 0.558 93 50 31 0 0
0.6754 -1.8512 -14.5683 -0.401 -0.800 0.447 95 51 36 0 0
0.6753 -1.8543 -14.6093 -0.611 -0.606 0.509 89 44 32 0 0
0.6588 -1.8901 -14.7441 -0.380 -0.923 0.064 102 58 40 0 0
0.4579 -2.2662 -15.5473 -0.194 0.158 0.968 21 20 21 0 0
0.3759 -2.4126 -15.7767 -0.588 -0.800 -0.118 21 20 18 0 0
0.5472 -2.2205 -16.8796 -0.402 0.491 0.773 108 107 106 0 0
1.4016 -0.5812 -13.7061 0.157 -0.301 0.941 172 107 75 0 0
1.0502 -1.1425 -13.7536 -0.276 -0.310 0.910 125 42 17 0 0
0.8935 -1.3947 -13.8003 0.049 -0.412 0.910 137 67 47 0 0
0.6501 -1.8292 -14.4875 -0.435 -0.805 0.404 93 47 31 0 0
0.6450 -1.8453 -14.6014 -0.250 -0.925 0.286 98 52 39 0 0
0.5487 -2.1623 -16.9437 -0.427 0.546 0.721 108 107 106 0 0
1.5036 -0.3622 -13.7160 0.061 -0.143 0.988 141 93 66 0 0
0.8620 -1.3883 -13.7903 -0.356 -0.354 0.865 143 70 52 0 0
0.6239 -1.8202 -14.5692 -0.583 -0.605 0.542 96 48 33 0 0
0.6182 -1.8314 -14.5998 -0.549 -0.808 0.216 97 51 36 0 0
0.6057 -1.8609 -14.7425 -0.472 -0.830 0.297 87 43 31 0 0
1.9069 0.3363 -13.7570 0.394 -0.303 0.868 149 90 61 0 0
1.4724 -0.3534 -13.7087 0.125 -0.163 0.979 110 56 36 0 0
0.6252 -1.7459 -14.3329 -0.710 -0.078 0.700 99 53 37 0 0
0.5970 -1.8064 -14.5675 -0.396 -0.904 0.159 97 51 35 0 0
0.5931 -1.8149 -14.6016 -0.549 -0.808 0.216 97 52 36 0 0
0.4844 -2.0595 -15.6758 -0.127 -0.634 0.763 9 9 11 0 0
1.8886 0.3685 -13.7313 0.148 -0.563 0.813 127 81 71 0 0
1.8677 0.3346 -13.7388 0.410 -0.322 0.853 132 73 52 0 0
0.5755 -1.7847 -14.5759 -0.778 -0.561 0.282 92 46 30 0 0
0.6520 -1.7298 -15.6243 -0.604 -0.495 0.624 5 5 7 0 0
0.4530 -2.0507 -15.6664 0.001 -0.552 0.834 10 10 12 0 0
0.3602 -2.1953 -15.6089 -0.397 0.000 0.918 11 11 13 0 0
1.8633 0.3876 -13.7344 -0.291 -0.228 0.929 124 77 68 0 0
1.8457 0.3586 -13.7470 -0.291 -0.228 0.929 125 68 52 0 0
0.5846 -1.6994 -14.3533 -0.092 -0.954 0.285 98 51 38 0 0
0.5780 -1.7117 -14.3821 -0.427 -0.613 0.665 98 47 33 0 0
0.3382 -2.1731 -15.6184 -0.459 0.083 0.884 11 11 13 0 0
-2.4094 -6.6472 -16.7833 0.031 -0.607 0.794 217 217 217 0 0
-2.4206 -6.6659 -16.7971 0.031 -0.607 0.794 216 216 216 0 0
1.8514 0.4269 -13.7580 -0.035 0.081 0.996 119 70 61 0 0
1.8239 0.3830 -13.7554 -0.035 0.081 0.996 119 61 49 0 0
0.5286 -1.7342 -14.3792 -0.287 -0.917 0.278 96 45 32 0 0
0.5167 -1.7594 -14.4803 -0.310 -0.919 0.245 94 45 31 0 0
0.5499 -1.7355 -14.9632 -0.266 -0.942 -0.203 79 36 23 0 0
0.5388 -1.7597 -15.0702 -0.640 -0.035 0.767 61 17 8 0 0
0.1942 -2.3583 -15.8197 0.395 -0.797 0.457 31 27 24 0 0
0.1850 -2.3747 -15.8451 0.113 -0.961 0.253 35 31 28 0 0
-2.4427 -6.6510 -16.8010 -0.154 -0.733 0.662 214 214 214 0 0
1.7291 0.2989 -13.6119 -0.086 -0.996 -0.032 118 68 59 0 0
1.7318 0.3008 -13.6555 -0.064 -0.989 0.136 118 59 48 0 0
0.5609 -1.6010 -13.9596 -0.369 -0.435 0.821 131 66 29 0 0
0.5062 -1.7410 -14.8446 -0.179 -0.980 0.082 90 46 35 0 0
0.5089 -1.7394 -14.8923 0.005 -0.987 0.163 88 45 35 0 0
0.5098 -1.7405 -14.9367 0.148 -0.931 0.333 85 42 30 0 0
0.5036 -1.7524 -14.9672 0.148 -0.931 0.333 78 32 18 0 0
0.4985 -1.7624 -15.0001 0.017 -0.972 0.236 73 28 15 0 0
1.5229 0.0218 -13.6866 -0.064 -0.185 0.981 117 50 36 0 0
1.3247 -0.2977 -13.6848 0.085 -0.142 0.986 125 57 36 0 0
0.4742 -1.7343 -14.8336 -0.179 -0.980 0.082 99 54 38 0 0
0.4755 -1.7348 -14.8785 -0.043 -0.983 0.177 95 52 37 0 0
0.4697 -1.7459 -14.9099 -0.112 -0.975 0.194 92 47 32 0 0
0.4741 -1.7416 -14.9613 -0.006 -0.980 0.201 89 42 26 0 0
0.4640 -1.7593 -14.9841 -0.140 -0.974 0.178 82 35 20 0 0
0.4613 -1.7658 -15.0218 -0.140 -0.974 0.178 76 28 16 0 0
1.5750 0.1671 -13.6533 -0.064 -0.457 0.887 122 55 39 0 0
1.4954 0.0366 -13.6856 -0.067 -0.368 0.927 117 50 34 0 0
0.4435 -1.7257 -14.8250 -0.310 -0.941 0.139 107 64 44 0 0
0.4414 -1.7312 -14.8634 -0.192 -0.964 0.182 103 60 40 0 0
0.4386 -1.7378 -14.9004 -0.182 -0.963 0.200 92 48 27 0 0
0.4364 -1.7435 -14.9389 -0.144 -0.966 0.216 84 37 17 0 0
0.4329 -1.7510 -14.9750 -0.144 -0.966 0.216 78 31 11 0 0
0.4295 -1.7586 -15.0111 -0.144 -0.966 0.216 76 29 10 0 0
0.5267 -1.6386 -15.6895 -0.025 -0.999 0.026 6 6 8 0 0
0.1306 -2.2804 -15.7185 -0.580 -0.562 0.589 37 35 37 0 0
0.4042 -1.7370 -14.9275 -0.182 -0.963 0.200 90 50 27 0 0
0.4003 -1.7453 -14.9625 -0.365 -0.900 0.239 87 47 24 0 0
0.3965 -1.7532 -14.9982 -0.365 -0.900 0.239 80 43 21 0 0
1.3981 -0.0008 -13.6557 -0.059 -0.696 0.715 132 61 40 0 0
0.7990 -0.9770 -13.7274 -0.035 -0.111 0.993 146 58 24 0 0
0.4003 -1.7009 -15.2321 -0.457 -0.889 0.024 45 19 8 0 0
0.3673 -1.7713 -15.5635 -0.343 -0.326 0.881 6 6 8 0 0
0.3639 -1.7789 -15.6012 -0.190 -0.869 0.457 8 8 10 0 0
0.3591 -1.7883 -15.6364 -0.140 -0.959 0.245 10 10 12 0 0
0.1230 -2.1739 -15.6804 -0.098 -0.466 0.879 37 35 38 0 0
0.0653 -2.2705 -15.7374 -0.480 -0.404 0.779 49 48 48 0 0
1.3673 0.0086 -13.6491 -0.059 -0.696 0.715 139 74 47 0 0
0.1108 -2.1321 -15.6209 -0.346 -0.766 0.543 33 33 35 0 0
0.1004 -2.1502 -15.6438 -0.354 -0.682 0.640 36 34 37 0 0
0.0940 -2.1621 -15.6753 -0.328 -0.557 0.763 48 46 49 0 0
1.4919 0.2765 -13.5343 -0.687 -0.508 0.519 122 59 44 0 0
0.3634 -1.5909 -14.1210 -0.192 -0.627 0.755 117 34 5 0 0
0.3430 -1.6762 -15.2239 -0.278 -0.960 0.016 67 43 30 0 0
0.3437 -1.6772 -15.2693 -0.278 -0.960 0.016 65 45 34 0 0
2.0846 1.2777 -14.1355 0.608 0.037 0.793 214 214 216 0 0
1.4394 0.2506 -13.5334 -0.205 -0.392 0.897 123 58 43 0 0
1.3060 0.0281 -13.6367 -0.190 -0.296 0.936 158 90 56 0 0
1.2891 -0.0001 -13.6490 -0.190 -0.296 0.936 171 115 84 0 0
0.5651 -1.1887 -13.7706 -0.200 -0.432 0.879 144 64 35 0 0
0.3132 -1.6677 -15.2614 -0.357 -0.934 0.004 27 19 16 0 0
0.3180 -1.6623 -15.3153 -0.399 -0.915 -0.063 16 11 10 0 0
0.3135 -1.6712 -15.3506 -0.350 -0.933 0.081 6 3 6 0 0
0.1227 -1.9933 -15.5791 -0.323 -0.306 0.895 17 17 19 0 0
0.0257 -2.1567 -15.6879 -0.332 -0.871 0.363 14 14 16 0 0
1.2870 0.0559 -13.6492 -0.077 -0.302 0.950 160 92 56 0 0
1.2460 -0.0119 -13.6620 -0.097 -0.247 0.964 135 74 47 0 0
0.8779 -0.6174 -13.7242 -0.321 -0.265 0.909 157 113 87 0 0
0.4006 -1.3989 -13.7198 -0.245 0.363 0.899 172 108 96 0 0
0.7881 -0.7068 -13.7345 -0.108 0.013 0.994 155 76 40 0 0
0.6156 -0.9906 -13.7523 -0.435 -0.694 0.574 138 56 28 0 0
0.2773 -1.5587 -14.0628 -0.435 -0.500 0.749 97 20 4 0 0
0.2788 -1.5665 -14.3127 -0.708 -0.367 0.603 100 55 43 0 0
0.2352 -1.6555 -14.7330 -0.686 -0.688 0.235 46 34 29 0 0
0.2523 -1.6522 -15.3346 -0.325 -0.946 0.012 3 4 5 0 0
0.1298 -1.8668 -15.6627 0.043 -0.097 0.994 9 9 11 0 0
2.0148 1.3559 -14.0769 0.542 0.063 0.838 213 214 216 0 0
0.8288 -0.5814 -13.7300 -0.138 -0.502 0.854 149 106 83 0 0
0.8149 -0.6049 -13.7461 -0.138 -0.502 0.854 154 99 77 0 0
0.7895 -0.6465 -13.7422 0.227 -0.166 0.960 147 86 52 0 0
0.7671 -0.6835 -13.7433 0.227 -0.166 0.960 153 75 39 0 0
0.3402 -1.3857 -13.7424 -0.107 0.512 0.852 166 98 83 0 0
0.3099 -1.5102 -15.6445 -0.389 -0.567 0.726 6 6 6 0 0
-0.0420 -2.0846 -15.5320 -0.380 -0.827 0.413 14 14 16 0 0
-0.0571 -2.1207 -15.8189 -0.935 -0.308 0.176 28 27 27 0 0
-0.1309 -2.2689 -16.5019 -0.795 -0.601 -0.079 126 127 127 0 0
0.8013 -0.5682 -13.7277 0.064 -0.498 0.865 167 117 98 0 0
0.7860 -0.5939 -13.7414 0.064 -0.498 0.865 134 72 56 0 0
0.7360 -0.6760 -13.7347 0.227 -0.166 0.960 150 70 34 0 0
0.4444 -1.1570 -13.7382 -0.617 -0.325 0.717 145 65 37 0 0
-0.0711 -2.0751 -15.5717 0.231 -0.626 0.744 24 24 26 0 0
0.1704 -1.6614 -16.8345 0.548 0.254 0.797 72 68 65 0 0
0.5560 -0.8550 -13.6698 0.105 -0.296 0.949 134 50 23 0 0
0.2355 -1.3863 -13.6900 0.663 -0.646 0.379 178 113 95 0 0
0.3248 -1.2906 -15.2568 -0.488 -0.686 -0.540 23 26 28 0 0
-0.1757 -2.1638 -16.5883 -0.164 -0.727 0.667 128 129 128 0 0
-3.0630 -6.9500 -16.7281 0.079 -0.993 -0.090 217 217 217 0 0
0.1529 -1.4771 -14.0284 -0.036 -0.766 0.642 80 10 2 0 0
0.1324 -1.5125 -14.0714 -0.067 -0.816 0.573 93 15 0 0 0
0.2124 -1.4340 -15.8060 0.321 0.401 0.858 13 13 15 0 0
-0.0104 -1.7989 -15.6492 -0.370 0.088 0.925 27 28 30 0 0
0.5451 -0.7578 -13.7024 -0.141 -0.396 0.907 134 48 23 0 0
0.2647 -1.2246 -13.7174 -0.049 -0.995 0.083 148 80 58 0 0
0.0962 -1.5159 -14.0921 0.152 -0.747 0.647 104 25 3 0 0
0.0495 -1.5994 -14.2921 -0.833 -0.319 0.452 112 51 30 0 0
0.0360 -1.6260 -14.4338 -0.699 -0.227 0.678 123 57 35 0 0
0.1128 -1.5259 -15.3781 -0.515 -0.838 -0.180 7 7 7 0 0
0.0559 -1.6276 -15.6212 0.040 -0.195 0.980 18 17 21 0 0
0.0324 -1.6667 -15.6164 0.063 -0.569 0.820 24 23 28 0 0
0.0082 -1.7402 -16.7531 0.053 0.392 0.919 83 81 77 0 0
-0.3939 -2.4042 -16.5896 -0.259 0.214 0.942 171 172 174 0 0
0.7636 -0.3336 -13.6485 0.142 -0.150 0.978 155 87 50 0 0
0.2317 -1.2218 -13.7035 -0.049 -0.995 0.083 153 82 58 0 0
0.0238 -1.5777 -14.0423 0.202 -0.066 0.977 105 42 23 0 0
0.0376 -1.5622 -14.3194 -0.942 -0.105 0.320 110 52 32 0 0
0.0865 -1.5095 -15.3792 -0.515 -0.838 -0.180 9 9 9 0 0
0.0089 -1.6456 -15.6237 0.040 -0.175 0.984 20 19 23 0 0
-0.0082 -1.6743 -15.6327 0.154 -0.341 0.928 24 23 28 0 0
-0.0171 -1.5889 -14.0535 -0.666 -0.485 0.567 101 51 36 0 0
0.3497 -1.0144 -15.5755 0.479 -0.333 0.812 31 29 32 0 0
0.3203 -1.0631 -15.5606 0.349 -0.168 0.922 23 21 24 0 0
-0.1756 -1.8928 -15.6005 -0.197 0.044 0.979 34 34 36 0 0
1.6813 1.3220 -13.6638 0.478 -0.871 0.115 213 214 216 0 0
0.0183 -1.4739 -14.1315 -0.742 -0.384 0.549 106 48 31 0 0
0.0071 -1.4933 -14.1511 -0.804 -0.165 0.571 97 48 33 0 0
0.3131 -1.0133 -15.5565 0.430 -0.319 0.845 32 30 33 0 0
0.2890 -1.0536 -15.5523 0.294 -0.323 0.900 19 17 20 0 0
-0.0490 -1.6190 -15.5227 -0.010 0.173 0.985 10 8 11 0 0
-0.4588 -2.3333 -16.7292 -0.851 -0.332 0.408 180 180 182 0 0
1.6343 1.3088 -13.5531 0.505 -0.848 0.160 213 214 216 0 0
1.6293 1.2996 -13.5857 0.524 -0.838 0.151 214 215 217 0 0
1.5222 1.1209 -13.5398 -0.393 -0.870 0.297 212 211 212 0 0
1.5149 1.1079 -13.5686 -0.318 -0.885 0.341 210 206 205 0 0
1.5165 1.1098 -13.6116 0.036 -0.842 0.538 181 175 172 0 0
0.9918 0.2283 -13.6485 0.083 -0.070 0.994 142 75 43 0 0
0.9676 0.1877 -13.6482 0.091 -0.192 0.977 143 78 47 0 0
-0.0590 -1.5437 -14.0296 0.121 -0.798 0.591 100 45 29 0 0
-0.0548 -1.5438 -14.3738 -0.692 -0.478 0.541 105 55 37 0 0
0.2766 -1.0123 -15.5376 0.430 -0.319 0.845 27 25 28 0 0
0.2593 -1.0414 -15.5476 0.173 -0.786 0.594 12 10 13 0 0
0.2579 -1.0447 -15.5906 0.173 -0.920 0.351 8 6 9 0 0
0.0285 -1.4322 -15.7031 -0.284 -0.466 0.838 7 5 8 0 0
-0.4296 -2.2237 -16.7682 0.570 -0.042 0.820 170 171 172 0 0
1.6027 1.3188 -13.5471 0.751 -0.634 0.186 213 215 217 0 0
1.5060 1.1558 -13.5576 0.483 -0.738 0.470 195 192 192 0 0
0.5230 -0.4996 -13.6526 -0.078 -0.148 0.986 114 46 28 0 0
-0.0907 -1.5391 -14.0173 -0.443 -0.720 0.534 99 44 28 0 0
-0.0771 -1.5232 -14.3807 -0.627 -0.532 0.569 110 58 38 0 0
-0.0837 -1.5349 -14.4099 -0.541 -0.740 0.399 99 48 30 0 0
-0.0619 -1.4999 -14.4969 0.182 -0.925 0.332 122 60 41 0 0
-0.4509 -2.1923 -16.4839 -0.887 -0.063 0.457 145 145 145 0 0
-0.4789 -2.2437 -16.7140 -0.013 0.613 0.790 172 172 171 0 0
1.1366 0.5956 -13.5740 0.255 -0.274 0.927 12 7 6 0 0
1.1126 0.5550 -13.5749 0.222 -0.178 0.959 13 6 4 0 0
0.4604 -0.5462 -13.6682 -0.609 -0.155 0.778 115 45 25 0 0
-0.1112 -1.5160 -14.0272 -0.505 -0.832 0.228 99 45 29 0 0
0.1885 -1.0354 -15.4678 0.594 -0.644 0.481 14 10 14 0 0
0.1805 -1.0493 -15.4970 0.441 -0.817 0.372 11 6 8 0 0
0.1776 -1.0550 -15.5367 0.366 -0.845 0.389 8 6 7 0 0
-0.3690 -1.9939 -16.5502 0.506 0.232 0.830 120 119 117 0 0
1.1052 0.6037 -13.6074 -0.177 0.164 0.971 18 10 9 0 0
1.0779 0.5576 -13.6027 -0.096 0.143 0.985 17 7 6 0 0
0.3697 -0.6403 -13.6732 0.031 -0.290 0.956 119 47 31 0 0
-0.0135 -1.2870 -13.6097 -0.097 0.382 0.919 138 56 33 0 0
-0.1143 -1.4562 -13.5384 0.182 -0.143 0.973 128 51 30 0 0
0.1347 -1.0636 -15.4120 0.721 -0.551 0.420 12 8 12 0 0
-0.0647 -1.4046 -15.6771 -0.392 -0.747 0.537 2 2 3 0 0
-0.3619 -1.9211 -16.6337 0.576 0.301 0.760 121 120 118 0 0
-0.4838 -2.1249 -16.4865 -0.777 -0.629 -0.016 142 140 141 0 0
1.1344 0.7154 -13.5785 0.596 -0.355 0.720 49 39 38 0 0
0.5462 -0.2817 -13.6303 0.565 -0.547 0.618 137 73 35 0 0
0.0538 -1.1355 -15.1627 -0.992 0.112 -0.064 37 33 33 0 0
-0.3453 -1.8300 -16.5904 -0.152 0.341 0.928 108 108 106 0 0
-0.5054 -2.1006 -16.5500 -0.866 -0.480 0.139 147 147 147 0 0
-0.6415 -2.3333 -16.7127 0.599 -0.100 0.794 186 187 189 0 0
-0.0578 -1.2687 -15.6244 0.443 -0.259 0.858 3 3 3 0 0
-0.6811 -2.3384 -16.6811 0.397 -0.344 0.851 188 188 190 0 0
0.9736 0.5669 -13.4830 0.678 -0.735 -0.008 66 53 53 0 0
-0.1531 -1.3705 -15.8029 -0.276 -0.596 0.754 41 14 12 0 0
-0.4349 -1.8482 -15.5878 -0.605 -0.128 0.786 15 13 15 0 0
-0.3628 -1.7347 -16.6311 -0.604 0.369 0.706 111 110 108 0 0
-0.5249 -2.0127 -16.8907 -0.297 0.452 0.841 167 167 167 0 0
0.8997 0.5037 -13.3244 0.753 -0.655 0.063 111 105 106 0 0
0.4684 -0.2334 -13.5506 -0.044 -0.222 0.974 10 4 5 0 0
0.4497 -0.2652 -13.5580 0.010 -0.304 0.952 9 4 5 0 0
-0.0865 -1.1804 -13.6638 -0.318 -0.185 0.930 103 37 20 0 0
-0.4405 -1.7970 -15.5891 -0.579 0.174 0.797 17 14 15 0 0
1.0592 0.8398 -12.8755 -0.396 -0.776 0.491 110 65 56 0 0
-0.1402 -1.2145 -13.7732 -0.425 -0.364 0.829 140 78 66 0 0
-0.2460 -1.3986 -14.4915 -0.440 -0.861 0.254 114 54 39 0 0
0.2266 -0.5272 -13.5738 -0.041 -0.274 0.961 15 10 11 0 0
-0.1499 -1.1727 -13.7627 0.133 -0.901 0.412 125 72 57 0 0
-0.2397 -1.3311 -15.5551 -0.176 -0.263 0.949 38 37 38 0 0
-0.4867 -1.7546 -15.6523 -0.568 -0.048 0.821 14 11 12 0 0
-0.5019 -1.7806 -15.6643 -0.568 -0.048 0.821 14 11 15 0 0
-0.3885 -1.5892 -16.7711 0.349 0.380 0.857 117 117 117 0 0
-0.5990 -1.9500 -16.9127 0.078 -0.786 0.614 170 170 170 0 0
0.8798 0.6542 -12.9080 0.037 -0.485 0.874 120 53 37 0 0
-0.3028 -1.3770 -14.3940 -0.260 -0.912 0.318 126 64 41 0 0
-0.2592 -1.3026 -15.5249 0.240 -0.357 0.903 39 39 39 0 0
-0.2678 -1.3173 -15.5527 -0.169 -0.441 0.881 39 39 39 0 0
0.4499 -0.0244 -13.0997 0.801 -0.582 0.141 58 45 46 0 0
-0.3265 -1.2964 -14.9870 0.013 -0.983 0.185 38 34 36 0 0
-0.3156 -1.2762 -15.3788 -0.115 -0.991 0.072 43 43 46 0 0
-0.3170 -1.2769 -15.8013 -0.093 -0.830 0.550 129 60 40 0 0
1.4601 1.8418 -13.0359 0.617 0.105 0.780 213 213 215 0 0
0.5112 0.2006 -12.9382 0.383 -0.276 0.881 119 52 36 0 0
-0.3637 -1.3020 -14.6048 -0.513 -0.857 0.048 116 62 42 0 0
-0.3637 -1.2998 -14.9635 -0.036 -0.986 0.162 44 38 40 0 0
-0.3508 -1.2752 -15.3600 -0.217 -0.974 0.062 43 43 47 0 0
1.1174 1.3099 -12.7488 0.404 -0.180 0.897 115 53 41 0 0
-0.3942 -1.2957 -14.4630 -0.485 -0.845 0.223 122 49 32 0 0
-0.3864 -1.2766 -15.1547 -0.478 -0.657 0.583 116 53 43 0 0
-0.4036 -1.3054 -15.2552 -0.517 -0.845 0.137 64 32 27 0 0
-0.3761 -1.2559 -15.5043 -0.504 -0.845 -0.181 95 65 56 0 0
-0.3655 -1.2369 -15.5758 -0.367 -0.925 -0.103 77 55 47 0 0
1.1118 1.3625 -12.7426 0.349 -0.091 0.933 114 52 43 0 0
0.4610 0.2330 -12.8234 0.048 -0.518 0.854 118 48 32 0 0
0.4454 0.2061 -12.8362 -0.002 -0.631 0.776 119 47 33 0 0
0.4088 0.1430 -12.8914 0.435 -0.592 0.678 121 48 34 0 0
0.3042 -0.0381 -12.9473 0.077 -0.306 0.949 121 49 33 0 0
0.2740 -0.0907 -12.9341 0.340 -0.318 0.885 120 48 31 0 0
-0.4065 -1.2611 -14.0581 -0.481 -0.779 0.402 108 55 33 0 0
-0.4111 -1.2687 -14.0914 -0.336 -0.856 0.392 108 60 38 0 0
-0.4136 -1.2726 -14.1291 -0.296 -0.922 0.251 110 63 41 0 0
-0.4262 -1.2894 -14.6270 -0.603 -0.798 0.019 56 37 34 0 0
-0.4282 -1.2925 -14.6672 -0.638 -0.770 0.000 56 36 28 0 0
-0.3958 -1.2269 -15.5683 -0.641 -0.767 0.022 105 66 51 0 0
-0.4096 -1.2102 -13.8074 -0.183 -0.967 0.177 112 57 33 0 0
-0.4137 -1.2168 -13.8413 -0.326 -0.907 0.266 108 53 31 0 0
-0.4318 -1.2457 -14.0587 -0.481 -0.779 0.402 92 50 32 0 0
-0.4367 -1.2538 -14.0914 -0.349 -0.849 0.398 92 51 32 0 0
-0.4463 -1.2698 -14.1573 -0.296 -0.922 0.251 81 40 25 0 0
-0.4505 -1.2711 -14.6308 -0.603 -0.798 0.019 84 65 59 0 0
-0.4197 -1.2059 -15.5753 -0.679 -0.734 0.020 79 46 37 0 0
-0.4409 -1.2053 -13.8375 -0.553 -0.780 0.293 121 68 40 0 0
-0.4640 -1.2420 -14.0877 -0.312 -0.857 0.410 85 42 32 0 0
-0.4442 -1.1857 -15.5811 -0.725 -0.688 -0.018 53 28 24 0 0
-1.0106 -2.1573 -16.7219 0.643 0.134 0.754 193 193 195 0 0
-0.3801 -1.0507 -13.1845 0.131 -0.658 0.742 125 62 35 0 0
-0.3912 -1.0698 -13.2032 0.010 -0.583 0.812 126 63 38 0 0
-0.4653 -1.1888 -13.8395 -0.553 -0.780 0.293 110 57 33 0 0
-0.4914 -1.2303 -14.0840 -0.312 -0.857 0.410 117 74 50 0 0
-0.4649 -1.1587 -15.5957 -0.727 -0.686 -0.034 66 31 23 0 0
-0.8089 -1.7419 -16.6997 0.622 -0.445 0.644 165 165 165 0 0
-0.8262 -1.7719 -16.7071 0.644 -0.438 0.627 167 167 169 0 0
-0.8683 -1.8439 -16.8058 -0.081 -0.897 0.435 177 178 180 0 0
0.2723 0.1431 -12.7557 -0.288 -0.878 0.383 122 49 33 0 0
-0.4370 -1.0911 -13.2431 -0.181 -0.848 0.498 80 27 13 0 0
-0.4715 -1.1482 -13.4197 -0.274 -0.905 0.327 73 21 12 0 0
-0.4934 -1.1466 -15.5443 -0.682 -0.725 -0.092 107 52 39 0 0
-0.4890 -1.1377 -15.6024 -0.747 -0.662 -0.067 115 65 49 0 0
0.4862 0.5793 -12.7706 -0.338 -0.748 0.571 121 50 36 0 0
-0.2887 -0.7804 -12.8554 0.086 -0.766 0.638 120 49 31 0 0
-0.5601 -1.2302 -14.1334 -0.268 -0.933 0.239 109 58 36 0 0
-0.5535 -1.2092 -14.5886 -0.396 -0.914 0.087 60 35 27 0 0
-0.5527 -1.2010 -14.9079 -0.010 -0.940 0.342 113 54 39 0 0
-0.5303 -1.1497 -15.4737 -0.899 -0.436 -0.039 111 57 50 0 0
-0.5298 -1.1477 -15.5227 -0.944 -0.326 0.060 109 55 45 0 0
-0.5405 -1.1662 -15.5455 -0.758 -0.645 -0.098 114 63 48 0 0
0.2322 0.1924 -12.7357 -0.037 -0.595 0.803 125 52 35 0 0
-0.4942 -1.0752 -13.2287 -0.457 -0.796 0.396 86 29 17 0 0
-0.5586 -1.1743 -13.8464 -0.196 -0.957 0.214 97 45 33 0 0
-0.5738 -1.1939 -14.1587 -0.517 -0.856 -0.007 106 55 38 0 0
-0.5626 -1.1439 -15.4611 -0.512 -0.858 0.044 107 56 50 0 0
-0.5446 -1.1100 -15.5510 -0.944 -0.326 0.060 106 56 47 0 0
-0.5660 -1.1387 -15.9389 -0.517 -0.829 -0.211 38 34 33 0 0
-0.9326 -1.7642 -16.8016 -0.614 -0.787 0.060 178 178 180 0 0
0.2987 0.3683 -12.6590 -0.069 -0.477 0.876 125 52 37 0 0
-0.4511 -0.9476 -12.9586 -0.649 -0.283 0.706 128 49 29 0 0
-0.5929 -1.1625 -14.3486 -0.204 -0.909 0.365 107 51 28 0 0
-0.5923 -1.1221 -15.8921 -0.548 -0.767 0.335 69 41 38 0 0
-0.1904 -0.4340 -12.7424 -0.273 -0.524 0.807 127 50 33 0 0
-0.2023 -0.4547 -12.7599 -0.273 -0.524 0.807 127 50 34 0 0
-0.3226 -0.6661 -12.8131 -0.466 -0.417 0.781 123 46 28 0 0
-0.6220 -1.1533 -14.3416 -0.017 -0.773 0.634 108 50 31 0 0
-0.5728 -1.0313 -15.6115 -0.523 -0.766 0.374 103 55 40 0 0
-0.5952 -1.0709 -15.6075 -0.637 -0.761 0.125 108 61 47 0 0
-0.6018 -1.0817 -15.6404 -0.682 -0.090 0.726 83 47 37 0 0
-0.6132 -1.0960 -15.8579 -0.478 -0.679 0.558 100 41 30 0 0
0.2144 0.3397 -12.6417 -0.155 -0.149 0.977 130 60 42 0 0
0.1961 0.3076 -12.6495 -0.155 -0.149 0.977 127 56 36 0 0
-0.1843 -0.3649 -12.7206 -0.123 -0.605 0.786 129 52 34 0 0
-0.2364 -0.4566 -12.7432 0.017 -0.761 0.648 127 50 32 0 0
-0.4789 -0.8848 -12.8015 -0.190 -0.835 0.517 119 44 28 0 0
-0.5144 -0.9403 -13.0522 -0.739 0.150 0.657 84 27 13 0 0
-0.6705 -1.1840 -14.1598 -0.353 -0.490 0.797 108 61 44 0 0
-0.6387 -1.1054 -14.9057 -0.662 -0.475 0.580 103 52 38 0 0
-0.6211 -1.0517 -15.6587 -0.120 -0.984 0.133 77 44 33 0 0
-0.6222 -1.0522 -15.7051 -0.082 -0.925 0.372 97 51 40 0 0
-0.6486 -1.0980 -15.7401 -0.337 -0.553 0.762 95 32 22 0 0
-0.5638 -0.9250 -16.4996 -0.440 -0.788 -0.430 27 26 24 0 0
-0.4233 -0.7266 -12.8358 -0.001 -0.694 0.720 125 48 32 0 0
-0.6173 -1.0668 -12.9790 0.090 -0.773 0.628 112 36 11 0 0
-0.6100 -1.0337 -13.6109 -0.724 -0.608 0.326 64 20 8 0 0
-0.6172 -1.0455 -13.6383 -0.775 -0.565 0.282 66 20 11 0 0
-0.6211 -1.0514 -13.6724 -0.845 -0.421 0.330 66 19 8 0 0
-0.6615 -1.0834 -14.9138 -0.662 -0.475 0.580 102 52 39 0 0
-0.6566 -1.0668 -15.1590 -0.922 -0.354 0.157 119 59 43 0 0
-0.6690 -1.0696 -15.7563 -0.118 -0.732 0.671 103 40 29 0 0
-1.5913 -2.6750 -16.8119 -0.193 0.427 0.883 206 206 208 0 0
-0.6316 -1.0121 -13.6185 -0.724 -0.608 0.326 73 39 30 0 0
-0.6377 -1.0221 -13.6480 -0.775 -0.565 0.282 101 61 46 0 0
-0.6398 -1.0245 -13.6861 -0.845 -0.421 0.330 108 64 44 0 0
-0.6695 -1.0648 -14.0537 -0.519 -0.790 0.327 62 15 5 0 0
-0.6840 -1.0901 -14.0663 -0.370 -0.843 0.392 69 15 4 0 0
-0.7436 -1.1947 -14.1121 -0.298 -0.832 0.468 109 62 43 0 0
-0.7424 -1.1911 -14.1585 -0.174 -0.778 0.604 99 57 42 0 0
-0.6945 -1.0912 -14.5776 -0.222 -0.916 0.333 48 37 36 0 0
-0.6999 -1.0998 -14.6108 0.173 -0.171 0.970 48 38 37 0 0
-0.6844 -1.0615 -14.9219 -0.662 -0.475 0.580 104 52 38 0 0
-0.6653 -1.0227 -15.0591 -0.492 -0.853 -0.172 102 52 35 0 0
-0.6995 -1.0600 -15.7484 -0.131 -0.723 0.678 97 35 22 0 0
-1.5808 -2.5916 -16.8676 0.080 -0.150 0.986 205 205 207 0 0
0.1914 0.4822 -12.6566 0.009 -0.434 0.901 127 53 36 0 0
-0.4491 -0.6578 -12.7618 -0.282 -0.288 0.915 130 57 37 0 0
-0.6518 -0.9864 -13.6714 -0.849 -0.411 0.331 41 13 6 0 0
-0.6616 -1.0032 -13.6934 -0.784 -0.469 0.406 83 43 24 0 0
-0.6681 -1.0137 -13.7224 -0.796 -0.451 0.405 112 64 37 0 0
-0.7107 -1.0773 -14.0638 -0.370 -0.843 0.392 69 15 5 0 0
-0.7379 -1.1232 -14.1363 0.084 -0.323 0.943 105 50 31 0 0
-0.7718 -1.1832 -14.1503 -0.560 -0.668 0.490 99 55 43 0 0
-0.7444 -1.1189 -14.5694 -0.692 -0.720 -0.062 47 38 37 0 0
-0.7066 -1.0382 -14.9316 -0.791 -0.384 0.477 104 53 37 0 0
-0.7287 -1.0480 -15.7435 -0.360 -0.597 0.717 87 27 12 0 0
-1.5975 -2.5573 -16.8972 0.273 -0.866 0.419 203 203 205 0 0
-0.2468 -0.2403 -12.6716 -0.082 -0.540 0.838 129 52 32 0 0
-0.2493 -0.2434 -12.7065 -0.113 -0.238 0.965 130 53 33 0 0
-0.3095 -0.3508 -12.7141 -0.484 -0.068 0.872 129 52 34 0 0
-0.3509 -0.4249 -12.7161 -0.026 -0.645 0.764 127 50 30 0 0
-0.7958 -1.1654 -14.1536 -0.560 -0.668 0.490 98 56 44 0 0
-0.7463 -1.0568 -14.6696 -0.377 -0.920 0.109 49 40 39 0 0
-0.7500 -1.0135 -15.9573 -0.270 -0.912 0.309 38 34 35 0 0
-0.6991 -0.9095 -16.2867 -0.797 0.492 0.349 33 33 31 0 0
-1.6307 -2.5540 -16.8782 0.285 -0.819 0.497 199 199 201 0 0
-1.6405 -2.5685 -16.9590 0.206 -0.955 0.213 206 206 208 0 0
0.1083 0.4552 -12.6411 -0.138 -0.649 0.748 125 53 36 0 0
-0.2744 -0.2303 -12.6668 -0.219 -0.676 0.703 131 55 34 0 0
-0.2848 -0.2482 -12.6872 -0.219 -0.676 0.703 129 53 33 0 0
-0.3017 -0.2781 -12.6957 -0.330 -0.321 0.888 130 53 34 0 0
-0.7489 -1.0247 -14.0482 -0.390 -0.619 0.681 65 15 8 0 0
-0.8073 -1.1149 -14.4085 -0.462 -0.699 0.546 45 36 36 0 0
-0.7812 -1.0149 -15.6985 -0.583 -0.809 0.074 87 40 28 0 0
-0.7663 -0.9807 -15.8841 -0.421 -0.706 0.569 93 44 27 0 0
-0.7758 -0.9966 -15.9109 -0.421 -0.706 0.569 57 38 37 0 0
-0.7800 -1.0024 -15.9510 -0.270 -0.912 0.309 37 34 35 0 0
0.0732 0.4527 -12.6247 0.023 -0.387 0.922 127 51 35 0 0
-0.3115 -0.2364 -12.6842 -0.219 -0.676 0.703 131 55 34 0 0
-0.7755 -1.0118 -14.0459 -0.409 -0.525 0.746 70 15 6 0 0
-0.8339 -1.1011 -14.4070 -0.529 -0.730 0.433 45 36 38 0 0
-0.8423 -1.1151 -14.4332 -0.455 -0.766 0.454 46 37 39 0 0
-0.7981 -1.0132 -14.9502 -0.238 -0.854 0.463 104 54 40 0 0
-0.8040 -0.9909 -15.7091 -0.747 -0.465 0.475 84 39 26 0 0
-0.8134 -0.9981 -15.9360 -0.091 -0.889 0.448 36 34 35 0 0
-1.7087 -2.5704 -16.8042 0.364 -0.820 0.443 205 205 207 0 0
-1.7116 -2.5737 -16.8505 0.426 -0.861 0.278 205 205 207 0 0
-0.3219 -0.1958 -12.6718 -0.086 -0.309 0.947 132 55 35 0 0
-0.3376 -0.2236 -12.6824 -0.086 -0.309 0.947 133 56 36 0 0
-0.8255 -1.0914 -12.9375 -0.313 -0.808 0.499 58 47 48 0 0
-0.6700 -0.7754 -13.7181 -0.168 -0.810 0.561 4 2 2 0 0
-0.6789 -0.7904 -13.7423 -0.168 -0.810 0.561 8 2 1 0 0
-0.8588 -1.0843 -14.4091 -0.529 -0.730 0.433 44 37 42 0 0
-0.8666 -1.0970 -14.4369 -0.520 -0.751 0.406 43 38 43 0 0
-0.8754 -1.1117 -14.4622 -0.692 -0.625 0.361 45 40 44 0 0
-0.8746 -1.1081 -14.5097 -0.350 -0.886 0.305 39 38 41 0 0
-0.8271 -1.0027 -14.9442 -0.210 -0.844 0.493 104 53 39 0 0
-0.8448 -0.9898 -15.9260 -0.091 -0.889 0.448 35 33 34 0 0
0.0171 0.4742 -12.6165 0.407 -0.459 0.790 127 51 35 0 0
-0.1350 0.2015 -12.6626 -0.286 -0.260 0.922 130 55 36 0 0
-0.1692 0.1386 -12.6406 -0.289 -0.460 0.840 130 55 36 0 0
-0.8162 -1.0205 -12.8441 -0.147 -0.776 0.613 77 13 2 0 0
-0.8375 -1.0551 -12.9225 -0.508 -0.855 0.110 81 53 45 0 0
-0.8272 -0.9829 -14.0448 -0.446 -0.229 0.865 74 16 3 0 0
-0.8814 -1.0630 -14.4164 -0.599 -0.731 0.326 50 36 35 0 0
-0.8893 -1.0759 -14.4441 -0.487 -0.800 0.352 75 53 47 0 0
-0.8987 -1.0917 -14.4682 -0.520 -0.751 0.406 83 58 48 0 0
-0.9068 -1.1051 -14.4952 -0.401 -0.772 0.494 61 47 39 0 0
-0.8492 -0.9836 -14.8601 -0.300 -0.886 0.353 124 66 45 0 0
-0.8528 -0.9882 -14.8988 -0.296 -0.907 0.301 108 54 40 0 0
-0.8639 -1.0073 -14.9198 0.041 -0.594 0.804 107 54 40 0 0
-0.8484 -0.9356 -15.8336 -0.217 -0.857 0.468 97 40 22 0 0
-0.8368 -0.8937 -16.2712 0.085 -0.993 -0.088 33 33 31 0 0
-0.1934 0.1558 -12.6427 -0.095 -0.409 0.908 130 53 35 0 0
-0.8439 -1.0124 -12.8376 -0.208 -0.719 0.663 81 14 3 0 0
-0.8673 -0.9913 -14.1015 -0.767 -0.489 0.416 79 14 3 0 0
-0.9211 -1.0700 -14.4761 -0.570 -0.671 0.474 120 66 50 0 0
-0.9288 -1.0826 -14.5042 -0.652 -0.492 0.576 113 69 52 0 0
-0.8785 -0.9740 -14.8532 -0.112 -0.885 0.453 127 66 45 0 0
-0.8874 -0.9888 -14.8794 -0.139 -0.705 0.696 107 51 36 0 0
-0.8937 -0.9985 -14.9118 0.041 -0.594 0.804 105 51 37 0 0
-0.8584 -0.8938 -15.7258 -0.834 -0.087 0.545 100 51 43 0 0
-0.8785 -0.9251 -15.8268 -0.245 -0.792 0.559 99 43 23 0 0
-0.8839 -0.9330 -15.8637 -0.098 -0.734 0.672 91 45 32 0 0
-0.8971 -0.9560 -15.8813 0.068 -0.551 0.832 51 38 37 0 0
-0.0382 0.4988 -12.6491 0.065 -0.480 0.875 127 51 35 0 0
-0.2252 0.1586 -12.6311 0.061 -0.523 0.850 130 53 35 0 0
-0.2474 0.1181 -12.6302 0.309 -0.415 0.856 130 53 35 0 0
-0.3576 -0.0799 -12.6660 0.234 -0.465 0.854 129 52 30 0 0
-0.7045 -0.7047 -12.7621 -0.428 -0.744 0.513 118 39 26 0 0
-0.8719 -0.9405 -14.0592 -0.389 -0.356 0.849 80 19 8 0 0
-0.9514 -1.0610 -14.5119 -0.669 -0.429 0.606 121 67 50 0 0
-0.9079 -0.9644 -14.8461 -0.651 -0.711 0.268 129 65 46 0 0
-0.9169 -0.9794 -14.8721 -0.630 -0.383 0.676 110 53 37 0 0
-0.9262 -0.9952 -14.8972 -0.222 -0.225 0.949 111 55 41 0 0
-0.8763 -0.8624 -15.6990 -0.114 0.128 0.985 109 55 44 0 0
-0.0676 0.5069 -12.6425 0.065 -0.480 0.875 126 50 34 0 0
-0.7339 -0.6971 -12.7931 0.185 -0.835 0.518 124 43 29 0 0
-0.9899 -1.0928 -14.0748 -0.436 -0.681 0.588 112 60 45 0 0
-0.9309 -0.9427 -14.8539 -0.586 -0.803 0.110 129 67 49 0 0
-0.9396 -0.9571 -14.8806 -0.630 -0.383 0.676 115 58 42 0 0
-0.9674 -0.9877 -15.2457 0.080 -0.969 0.235 82 51 42 0 0
-0.8920 -0.8269 -15.6773 0.337 -0.074 0.939 114 64 48 0 0
-0.8947 -0.8267 -15.7710 -0.303 -0.621 0.723 96 50 43 0 0
-0.7647 -0.6969 -12.7405 0.018 -0.940 0.342 118 40 25 0 0
-0.7707 -0.7061 -12.7690 -0.063 -0.871 0.487 121 41 26 0 0
-0.7770 -0.7115 -12.8779 -0.325 -0.674 0.663 181 109 84 0 0
-0.9559 -0.9248 -14.8570 -0.586 -0.803 0.110 129 67 49 0 0
-0.1522 0.4753 -12.6228 -0.120 -0.780 0.614 128 52 36 0 0
-0.1978 0.3895 -12.5804 -0.636 -0.320 0.702 128 52 36 0 0
-0.8072 -0.7148 -12.7453 -0.142 -0.962 0.234 132 54 36 0 0
-0.8585 -0.7476 -13.7723 -0.247 -0.824 0.510 37 12 8 0 0
-1.0060 -0.9562 -14.8005 -0.553 -0.833 -0.002 126 66 45 0 0
-0.9984 -0.8709 -16.0041 -0.557 -0.830 0.026 38 38 40 0 0
-1.0266 -0.9236 -15.9833 -0.931 -0.145 0.335 35 35 37 0 0
-0.2188 0.4132 -12.5886 -0.636 -0.320 0.702 128 52 36 0 0
-0.8000 -0.6457 -12.6877 -0.281 -0.393 0.875 124 45 28 0 0
-0.8782 -0.7213 -13.7850 -0.600 -0.490 0.632 37 11 6 0 0
-1.0663 -1.0396 -14.2105 -0.446 -0.549 0.707 72 42 31 0 0
-1.0742 -1.0525 -14.2376 -0.531 -0.614 0.584 98 54 37 0 0
-0.2104 0.4918 -12.6101 0.097 -0.797 0.597 128 52 36 0 0
-0.2693 0.3845 -12.6230 -0.518 -0.192 0.834 128 53 35 0 0
-0.8253 -0.6327 -12.6862 -0.556 -0.437 0.707 123 44 27 0 0
-0.8941 -0.6873 -13.8060 0.034 -0.511 0.859 38 12 8 0 0
-0.9592 -0.8048 -13.8391 -0.563 -0.816 0.131 128 68 38 0 0
-1.0125 -0.7835 -15.6987 -0.890 -0.187 0.417 103 56 44 0 0
-0.2911 0.4068 -12.6298 -0.529 -0.204 0.824 131 56 36 0 0
-0.8901 -0.6195 -13.7826 -0.247 -0.917 0.314 7 3 3 0 0
-1.0277 -0.7436 -15.7290 -0.337 -0.251 0.908 104 57 46 0 0
-1.0476 -0.7802 -15.7294 -0.217 -0.406 0.888 88 49 41 0 0
-0.8724 -0.5997 -12.6904 -0.479 -0.379 0.791 123 44 27 0 0
-0.8999 -0.6515 -12.6755 -0.180 -0.566 0.805 122 42 25 0 0
-0.9212 -0.6825 -12.7950 0.225 0.015 0.974 155 82 65 0 0
-0.9440 -0.7250 -12.7893 0.242 -0.039 0.969 162 91 74 0 0
-1.1329 -0.9124 -15.1338 -0.211 -0.212 0.954 50 46 43 0 0
-1.0397 -0.7003 -15.7170 -0.524 -0.678 0.516 113 59 44 0 0
-0.2746 0.5590 -12.5928 -0.431 -0.087 0.898 130 54 38 0 0
-0.6149 -0.0698 -12.5991 0.003 -0.349 0.937 130 49 28 0 0
-0.6304 -0.0978 -12.6095 0.003 -0.349 0.937 129 48 27 0 0
-0.9372 -0.6596 -12.6903 -0.570 -0.595 0.566 118 41 25 0 0
-0.9548 -0.6861 -12.7766 -0.029 0.040 0.999 160 88 72 0 0
-0.9313 -0.5913 -13.4985 0.147 -0.910 0.388 44 45 49 0 0
-0.9637 -0.6313 -13.7775 -0.643 -0.455 0.616 36 21 16 0 0
-1.0413 -0.7714 -13.8265 -0.385 -0.487 0.784 113 49 25 0 0
-1.1415 -0.9049 -14.5536 -0.629 -0.747 0.218 97 49 37 0 0
0.6138 2.2781 -12.7189 -0.882 -0.118 0.457 111 65 55 0 0
-0.9607 -0.6432 -12.6924 -0.520 -0.718 0.462 120 43 27 0 0
-1.0230 -0.6812 -13.7470 -0.194 -0.364 0.911 42 14 11 0 0
-0.6735 -0.0578 -12.5824 0.158 -0.439 0.884 142 62 39 0 0
-0.6920 -0.0917 -12.5871 0.066 -0.415 0.908 129 49 26 0 0
-0.9436 -0.5511 -12.6958 -0.134 -0.681 0.720 120 41 24 0 0
-0.9565 -0.5739 -12.7104 -0.414 -0.387 0.824 121 41 26 0 0
-0.9710 -0.6000 -12.7216 -0.273 -0.475 0.837 120 43 26 0 0
-1.0426 -0.6545 -13.7600 -0.236 -0.865 0.443 44 16 10 0 0
-1.1941 -0.9145 -14.0429 -0.268 -0.695 0.667 93 28 13 0 0
-1.2162 -0.9560 -14.0368 -0.408 -0.383 0.829 105 47 33 0 0
-1.1443 -0.6639 -16.1266 -0.902 -0.432 0.003 36 36 36 0 0
-0.4200 0.4762 -12.5869 0.195 -0.336 0.921 128 53 32 0 0
-0.6989 -0.0438 -12.5817 0.270 -0.307 0.913 133 53 30 0 0
-0.7167 -0.0765 -12.5875 0.271 -0.308 0.912 130 50 27 0 0
-0.9939 -0.5822 -12.7250 -0.460 -0.500 0.734 122 45 28 0 0
-0.9933 -0.5215 -13.4857 0.127 -0.434 0.892 46 44 49 0 0
-1.0697 -0.6393 -13.8010 -0.621 -0.703 0.347 47 15 10 0 0
-1.2184 -0.8971 -14.0458 -0.454 -0.676 0.581 92 27 12 0 0
-1.2254 -0.9080 -14.0748 -0.415 -0.710 0.569 106 48 34 0 0
-0.7932 -0.1531 -12.6487 -0.207 -0.035 0.978 132 52 29 0 0
-0.9727 -0.4846 -12.6961 -0.078 -0.173 0.982 120 41 23 0 0
-1.0386 -0.5439 -13.4857 0.130 -0.484 0.865 46 44 49 0 0
-1.0540 -0.5543 -13.7153 -0.217 -0.489 0.845 43 32 31 0 0
-1.1060 -0.6465 -13.7767 -0.745 -0.153 0.650 48 13 9 0 0
-1.2284 -0.8613 -13.9457 -0.657 -0.711 0.252 74 14 6 0 0
-1.2422 -0.8788 -14.0497 -0.407 -0.602 0.687 90 25 10 0 0
-0.9822 -0.4425 -12.6862 -0.082 -0.419 0.904 123 45 25 0 0
-1.0598 -0.5061 -13.6706 -0.597 -0.530 0.602 53 49 46 0 0
-1.2477 -0.8338 -13.9601 -0.459 -0.726 0.512 75 15 7 0 0
-1.2589 -0.7543 -15.1689 -0.112 -0.154 0.982 54 45 43 0 0
-0.6673 0.2039 -12.6266 0.268 -0.295 0.917 132 51 30 0 0
-0.7921 -0.0336 -12.5865 -0.280 -0.303 0.911 133 53 30 0 0
-1.2838 -0.7395 -15.1235 0.324 -0.750 0.577 53 44 42 0 0
-1.2861 -0.6787 -15.8844 -0.378 -0.775 0.506 68 42 39 0 0
-0.6928 0.2183 -12.6262 -0.460 -0.454 0.763 131 50 29 0 0
-1.1671 -0.5697 -13.8119 -0.576 -0.491 0.653 49 12 6 0 0
-1.3179 -0.7396 -15.1045 0.324 -0.750 0.577 52 44 43 0 0
-1.2982 -0.6489 -15.7156 -0.058 -0.967 0.247 86 45 35 0 0
0.4252 2.4010 -12.7651 -0.721 0.350 0.598 114 50 37 0 0
-0.7818 0.1090 -12.5830 -0.133 -0.534 0.835 131 50 29 0 0
-0.8780 -0.0675 -12.6375 -0.447 -0.266 0.854 130 50 27 0 0
-1.2374 -0.7303 -12.8020 -0.499 -0.495 0.711 81 15 5 0 0
-1.3478 -0.7402 -14.9965 -0.532 -0.842 -0.088 56 42 39 0 0
-1.3445 -0.7016 -15.3562 0.268 -0.962 0.044 64 44 41 0 0
-1.3475 -0.7032 -15.3994 0.514 -0.828 0.222 114 69 52 0 0
-0.6856 0.3521 -12.5747 0.158 -0.314 0.936 131 53 31 0 0
-0.7186 0.2913 -12.5923 0.000 -0.815 0.580 130 52 30 0 0
-1.2622 -0.7128 -12.8431 -0.283 -0.446 0.849 99 23 5 0 0
-1.1626 -0.4478 -13.6691 -0.413 -0.821 0.393 54 49 46 0 0
-1.3687 -0.7222 -14.9117 -0.499 -0.866 -0.010 112 67 54 0 0
-1.3906 -0.7270 -15.3059 0.251 -0.959 0.134 61 42 40 0 0
-1.1130 -0.2958 -13.6148 -0.877 0.027 0.480 47 45 49 0 0
-1.1482 -0.3614 -13.6252 -0.614 0.021 0.789 40 36 39 0 0
-1.1634 -0.3894 -13.6355 -0.570 -0.698 0.433 54 49 51 0 0
-1.3848 -0.7800 -13.9370 -0.272 -0.911 0.311 72 12 4 0 0
-1.3777 -0.7205 -14.4215 -0.409 -0.780 0.475 130 65 44 0 0
-1.3958 -0.7082 -14.9101 -0.562 -0.824 -0.068 103 61 50 0 0
-1.3964 -0.7048 -14.9581 -0.657 -0.754 -0.007 60 42 41 0 0
-1.4074 -0.7044 -15.1800 -0.132 -0.976 0.171 114 67 51 0 0
-1.4232 -0.7238 -15.2907 -0.090 -0.987 0.134 61 41 40 0 0
-1.3672 -0.5232 -16.2853 -0.047 -0.943 -0.328 37 35 36 0 0
-0.5115 0.8067 -12.5550 -0.560 -0.465 0.686 134 61 44 0 0
-0.6449 0.5566 -12.5877 -0.260 -0.397 0.880 129 51 29 0 0
-0.7454 0.3625 -12.5567 0.019 -0.338 0.941 129 51 29 0 0
-1.1444 -0.2887 -13.6465 0.520 -0.641 0.565 46 44 48 0 0
-1.2499 -0.4685 -13.8571 -0.139 -0.880 0.455 37 8 5 0 0
-1.4105 -0.7658 -13.9362 -0.229 -0.922 0.311 74 14 6 0 0
-1.4350 -0.7584 -14.4873 0.024 -0.630 0.777 97 49 37 0 0
-1.4455 -0.7087 -15.2007 -0.418 -0.839 0.347 109 64 48 0 0
-1.4549 -0.7190 -15.2776 -0.373 -0.883 0.284 61 43 42 0 0
-1.3973 -0.5897 -15.4812 -0.528 -0.835 -0.157 103 61 46 0 0
-0.4798 0.9295 -12.5400 0.036 -0.101 0.994 126 53 35 0 0
-0.5012 0.8888 -12.5409 -0.083 -0.192 0.978 130 57 39 0 0
-0.5206 0.8523 -12.5453 -0.227 -0.369 0.902 133 60 42 0 0
-0.5334 0.8297 -12.5622 -0.255 -0.503 0.826 132 59 42 0 0
-0.8187 0.2889 -12.5855 -0.217 -0.532 0.819 133 54 32 0 0
-1.1428 -0.3280 -12.5873 -0.317 -0.666 0.675 131 56 33 0 0
-1.1719 -0.3770 -12.6506 -0.171 -0.613 0.772 131 56 35 0 0
-1.4641 -0.7500 -14.4796 0.024 -0.630 0.777 100 54 40 0 0
-1.4694 -0.7568 -14.5142 -0.875 -0.381 0.298 106 57 43 0 0
-1.4888 -0.7839 -14.6107 -0.897 -0.277 0.344 110 65 50 0 0
-1.4710 -0.6908 -15.2036 -0.567 -0.521 0.638 116 67 49 0 0
-0.5451 0.8699 -12.5475 -0.195 -0.330 0.924 127 54 35 0 0
-0.5595 0.8440 -12.5614 -0.288 -0.532 0.797 126 53 35 0 0
-0.9176 0.1607 -12.5622 -0.178 -0.562 0.808 135 54 33 0 0
-1.1647 -0.3078 -12.5929 -0.367 -0.481 0.796 138 63 40 0 0
-1.3933 -0.7171 -12.8551 -0.106 -0.896 0.432 94 40 30 0 0
-1.4901 -0.7301 -14.5277 -0.838 -0.544 0.053 109 59 44 0 0
-1.5098 -0.7579 -14.6235 -0.860 -0.169 0.482 118 70 55 0 0
-1.4743 -0.6295 -15.2144 -0.508 -0.837 0.203 105 54 45 0 0
-1.5025 -0.6858 -15.1908 -0.587 -0.807 -0.065 117 65 48 0 0
-0.5732 0.8801 -12.5430 -0.064 -0.539 0.840 125 52 33 0 0
-0.5865 0.8562 -12.5588 -0.092 -0.429 0.898 128 55 37 0 0
-0.6890 0.6569 -12.5268 0.078 -0.612 0.787 126 52 31 0 0
-0.9447 0.1667 -12.5168 0.366 -0.341 0.866 132 51 30 0 0
-1.4187 -0.7091 -12.8108 -0.234 -0.299 0.925 86 22 7 0 0
-1.4313 -0.7316 -12.8252 -0.518 -0.262 0.814 99 47 34 0 0
-1.1947 -0.1913 -13.6618 -0.791 -0.402 0.461 48 48 50 0 0
-1.5055 -0.7273 -14.2184 -0.842 -0.304 0.445 95 50 37 0 0
-1.5056 -0.7225 -14.2657 -0.575 -0.682 0.453 122 63 40 0 0
-1.5200 -0.7081 -14.6641 -0.426 -0.223 0.877 122 71 55 0 0
-1.5186 -0.7000 -14.7168 -0.229 -0.607 0.761 114 60 45 0 0
-1.4951 -0.6063 -15.1790 -0.462 -0.845 0.270 115 57 49 0 0
-1.5011 -0.6142 -15.2141 -0.462 -0.845 0.270 112 59 49 0 0
-0.8097 0.4958 -12.5881 0.069 -0.550 0.832 135 57 35 0 0
-1.1100 -0.0740 -12.6440 -0.110 -0.595 0.796 133 48 28 0 0
-1.4558 -0.7177 -12.8249 -0.132 -0.596 0.792 104 53 40 0 0
-1.3018 -0.3329 -13.6561 -0.263 -0.932 0.250 5 4 2 0 0
-1.3186 -0.3643 -13.6627 -0.429 -0.872 0.236 5 4 2 0 0
-1.3208 -0.3643 -13.7029 -0.143 -0.900 0.412 6 3 1 0 0
-1.5472 -0.7317 -14.3217 -0.599 -0.787 0.147 127 64 45 0 0
-1.5456 -0.6864 -14.7148 0.264 -0.518 0.814 112 59 45 0 0
-1.5354 -0.6208 -15.1429 -0.675 -0.316 0.667 108 54 44 0 0
-0.6758 0.8102 -12.5272 -0.215 -0.047 0.975 129 55 38 0 0
-0.6898 0.7849 -12.5415 -0.379 -0.274 0.884 130 55 37 0 0
-0.7055 0.7558 -12.5523 -0.127 -0.258 0.958 130 54 35 0 0
-0.9374 0.3097 -12.5494 -0.173 -0.333 0.927 135 56 34 0 0
-0.9547 0.2772 -12.5561 -0.348 -0.579 0.737 132 50 29 0 0
-0.9655 0.2587 -12.5758 -0.348 -0.579 0.737 132 50 29 0 0
-1.4699 -0.6856 -12.8055 -0.160 -0.279 0.947 86 22 7 0 0
-1.4787 -0.7001 -12.8283 0.092 -0.533 0.841 99 52 39 0 0
-1.4930 -0.7262 -12.8390 0.070 -0.458 0.886 68 44 41 0 0
-1.5670 -0.7037 -14.3366 -0.902 -0.326 0.282 127 65 45 0 0
-1.5762 -0.7186 -14.3615 -0.673 -0.655 0.344 109 55 44 0 0
-1.5635 -0.6584 -14.6867 0.192 -0.835 0.515 125 69 49 0 0
-1.5765 -0.6817 -14.7025 0.125 -0.422 0.898 108 58 43 0 0
-1.5225 -0.4892 -15.5079 -0.631 -0.773 0.067 95 55 43 0 0
-1.1616 -0.0488 -12.6401 0.005 -0.439 0.899 130 48 27 0 0
-1.5666 -0.6893 -13.8815 0.085 -0.534 0.841 89 23 3 0 0
-1.5899 -0.6767 -14.3924 -0.404 -0.565 0.719 110 53 43 0 0
-1.6040 -0.6749 -14.6496 0.421 -0.742 0.522 125 68 48 0 0
-1.5498 -0.3884 -16.2651 -0.737 -0.615 -0.280 37 37 37 0 0
-1.0017 0.3138 -12.5627 -0.309 -0.195 0.931 132 50 29 0 0
-1.4868 -0.5968 -12.7919 -0.023 -0.890 0.455 89 17 4 0 0
-1.5934 -0.6776 -13.8780 -0.382 -0.456 0.804 84 19 3 0 0
-1.5787 -0.5958 -14.3416 -0.616 -0.689 0.383 124 64 44 0 0
-1.5912 -0.6181 -14.3581 -0.658 -0.455 0.601 128 64 41 0 0
-1.6000 -0.6320 -14.3843 -0.755 -0.422 0.502 124 60 44 0 0
-1.6342 -0.6687 -14.6390 0.383 -0.829 0.407 121 65 44 0 0
-1.5714 -0.4457 -15.5225 -0.758 -0.635 0.150 101 57 46 0 0
-0.7901 0.7888 -12.5784 -0.299 -0.228 0.927 131 53 32 0 0
-1.2336 -0.0632 -12.6351 0.065 -0.542 0.838 133 50 29 0 0
-1.4945 -0.5656 -12.6595 0.330 -0.600 0.729 187 111 74 0 0
-1.5065 -0.5770 -12.7599 -0.180 -0.814 0.552 76 14 4 0 0
-1.5199 -0.5963 -12.8153 -0.081 -0.395 0.915 101 23 9 0 0
-1.5210 -0.5735 -13.0285 -0.198 -0.975 -0.099 55 49 52 0 0
-1.6015 -0.5740 -14.3493 -0.570 -0.792 0.218 124 64 44 0 0
-1.6239 -0.6125 -14.3894 -0.740 -0.562 0.371 120 57 42 0 0
-1.6462 -0.5745 -15.0800 -0.166 -0.449 0.878 103 53 42 0 0
-1.6301 -0.5321 -15.1749 -0.889 -0.135 0.437 103 52 41 0 0
-1.6567 -0.5860 -15.1546 -0.557 0.142 0.818 104 52 41 0 0
-1.6482 -0.5939 -14.3934 -0.663 -0.699 0.267 119 56 42 0 0
-1.6789 -0.5729 -15.0635 0.114 -0.161 0.980 103 53 42 0 0
-1.4336 -0.3252 -12.6478 -0.428 -0.291 0.856 124 46 30 0 0
-1.6632 -0.5601 -14.3727 -0.540 -0.807 0.239 129 65 43 0 0
-1.6817 -0.5899 -14.4228 -0.594 -0.188 0.782 107 52 39 0 0
-1.6663 -0.5308 -14.6607 -0.802 -0.596 -0.033 67 43 40 0 0
-1.6716 -0.5365 -14.6969 -0.869 -0.486 0.092 105 58 44 0 0
-1.7153 -0.5672 -15.1400 -0.863 -0.295 0.411 101 53 39 0 0
-1.6846 -0.4712 -15.4343 -0.651 -0.290 0.702 116 62 46 0 0
-1.2816 0.0233 -12.5651 -0.339 -0.166 0.926 132 50 28 0 0
-1.6897 -0.5463 -14.3713 -0.451 -0.871 0.194 128 64 39 0 0
-1.6948 -0.5516 -14.4071 -0.451 -0.871 0.194 113 53 36 0 0
-1.6992 -0.5556 -14.4448 -0.679 -0.579 0.452 106 52 39 0 0
-1.7299 -0.6007 -14.5622 -0.537 -0.833 0.136 63 42 37 0 0
-1.0678 0.4984 -12.5175 0.138 -0.392 0.910 133 52 31 0 0
-1.1039 0.4291 -12.5272 0.005 -0.713 0.701 134 52 31 0 0
-1.1149 0.4100 -12.5465 0.005 -0.713 0.701 137 55 34 0 0
-1.1285 0.3851 -12.5603 0.052 -0.654 0.755 136 54 33 0 0
-1.3047 0.0417 -12.5688 -0.182 -0.483 0.856 134 49 29 0 0
-1.6115 -0.5304 -12.7866 -0.220 -0.281 0.934 89 18 7 0 0
-1.7288 -0.5423 -14.4848 -0.684 -0.727 0.065 117 59 41 0 0
-1.7298 -0.5383 -14.5317 -0.618 -0.758 0.207 107 58 44 0 0
-1.7483 -0.5615 -14.6326 -0.548 -0.673 0.497 109 60 45 0 0
-1.7580 -0.5775 -14.6568 -0.391 -0.817 0.424 118 61 43 0 0
-1.6907 -0.2804 -15.9496 -0.223 -0.934 0.278 99 46 30 0 0
-1.1464 0.4105 -12.5332 -0.362 -0.759 0.542 134 52 31 0 0
-1.3432 0.0311 -12.5816 -0.169 -0.372 0.913 135 49 29 0 0
-1.6355 -0.5150 -12.7877 -0.381 -0.353 0.855 83 15 4 0 0
-1.7389 -0.3970 -15.2434 -0.743 -0.627 0.233 103 54 40 0 0
0.0618 2.8641 -12.6498 0.143 0.386 0.911 118 84 80 0 0
-1.1397 0.4853 -12.5150 0.241 -0.490 0.838 131 49 28 0 0
-1.3226 0.1311 -12.5523 -0.159 -0.678 0.718 135 53 32 0 0
-1.6454 -0.4731 -12.7781 -0.364 -0.816 0.448 70 12 3 0 0
-1.6522 -0.4829 -12.8056 -0.390 -0.772 0.503 80 14 3 0 0
-1.2030 0.4316 -12.5623 0.009 -0.826 0.564 133 51 30 0 0
-1.7200 -0.5556 -12.7922 -0.210 -0.877 0.432 94 40 25 0 0
-1.6861 -0.4374 -12.7105 0.006 -0.454 0.891 131 64 20 0 0
-1.8221 -0.4426 -14.6142 -0.748 -0.444 0.494 57 40 41 0 0
-1.7179 -0.4279 -12.7803 -0.380 -0.874 0.302 72 12 3 0 0
-1.7684 -0.3917 -13.7463 -0.401 -0.403 0.823 84 21 2 0 0
-1.8678 -0.3329 -15.5590 -0.258 -0.397 0.881 102 54 41 0 0
-1.4508 0.1357 -12.5750 -0.056 -0.192 0.980 133 48 28 0 0
-1.4671 0.1043 -12.5820 -0.056 -0.192 0.980 132 47 27 0 0
-1.5702 -0.0961 -12.6108 -0.448 -0.452 0.771 129 47 26 0 0
-1.8500 -0.4331 -14.1309 -0.230 -0.837 0.497 107 48 29 0 0
-1.8967 -0.3213 -15.5539 0.268 -0.396 0.878 102 55 42 0 0
-0.5790 1.9275 -12.5317 -0.743 -0.379 0.551 123 51 35 0 0
-1.4762 0.1490 -12.5738 -0.056 -0.192 0.980 133 48 28 0 0
-1.7638 -0.3918 -12.7877 -0.337 -0.696 0.634 72 12 2 0 0
-1.8312 -0.5300 -12.7602 -0.144 -0.752 0.644 102 49 36 0 0
-1.8887 -0.4417 -14.1459 -0.368 -0.489 0.791 107 58 43 0 0
-1.9271 -0.3135 -15.5444 -0.215 -0.353 0.911 101 56 42 0 0
-0.5901 1.9782 -12.5610 -0.478 -0.807 0.348 123 51 36 0 0
-1.2957 0.5691 -12.5472 -0.033 -0.333 0.942 134 52 31 0 0
-1.3122 0.5373 -12.5548 -0.016 -0.570 0.822 133 51 30 0 0
-1.6418 -0.1127 -12.6036 -0.431 -0.455 0.780 126 44 23 0 0
-1.8686 -0.5396 -12.7733 0.042 -0.565 0.824 76 47 39 0 0
-1.9121 -0.4284 -14.1029 -0.681 -0.718 0.143 104 43 28 0 0
-0.9318 1.3544 -12.4979 -0.431 -0.434 0.791 128 52 36 0 0
-1.3393 0.5412 -12.5080 -0.194 -0.521 0.831 133 51 30 0 0
-1.8283 -0.4062 -12.7073 -0.140 -0.438 0.888 68 12 1 0 0
-1.8683 -0.4806 -12.7441 -0.372 -0.572 0.731 95 33 20 0 0
-1.9353 -0.4076 -14.1093 -0.681 -0.718 0.143 103 44 28 0 0
-1.9902 -0.2786 -15.6845 -0.542 -0.439 0.717 83 26 12 0 0
-2.0010 -0.2966 -15.7082 -0.639 -0.249 0.728 99 42 26 0 0
-1.9979 -0.2804 -15.7736 -0.383 -0.454 0.804 82 43 34 0 0
-0.9544 1.3773 -12.5045 -0.438 -0.512 0.739 128 52 36 0 0
-1.9667 -0.4366 -13.8984 -0.862 -0.313 0.399 74 17 5 0 0
-2.0240 -0.2528 -15.8337 -0.586 -0.788 -0.191 36 30 30 0 0
-0.9791 1.3952 -12.5068 -0.438 -0.512 0.739 126 53 35 0 0
-0.9707 1.4769 -12.4905 0.099 0.009 0.995 129 56 40 0 0
-1.1953 1.0196 -12.4588 -0.543 -0.709 0.449 126 50 33 0 0
-1.2198 1.0370 -12.4609 -0.543 -0.709 0.449 134 58 41 0 0
-2.0214 -0.3388 -13.9564 -0.418 -0.708 0.570 70 15 3 0 0
-2.0416 -0.1615 -15.2999 -0.595 -0.803 -0.025 112 60 43 0 0
-1.8079 -0.0776 -12.5174 0.000 -0.274 0.962 136 55 33 0 0
-1.9571 -0.3580 -12.6472 -0.208 -0.299 0.931 92 26 2 0 0
-1.8045 0.1266 -13.7122 0.679 0.195 0.708 6 3 3 0 0
-2.1083 -0.3508 -14.5455 -0.773 -0.631 -0.061 49 44 46 0 0
-1.0264 1.5609 -12.4495 -0.474 -0.470 0.745 126 52 35 0 0
-1.0074 1.6614 -12.4118 -0.345 -0.182 0.921 124 52 37 0 0
-1.5405 0.5913 -12.4958 -0.498 -0.428 0.754 132 50 29 0 0
-2.1256 -0.2855 -14.3341 -0.660 -0.738 0.139 52 38 35 0 0
-2.1318 -0.2925 -14.3678 -0.718 -0.564 0.408 47 41 42 0 0
-2.1453 -0.1250 -15.5101 0.181 -0.806 0.564 106 58 43 0 0
-1.4086 0.9178 -12.4483 -0.317 -0.818 0.480 134 57 35 0 0
-2.1614 -0.3480 -14.0027 -0.219 -0.352 0.910 103 37 19 0 0
-2.1547 -0.2696 -14.3765 -0.718 -0.564 0.408 50 39 43 0 0
-2.1541 -0.2591 -14.4298 -0.498 -0.784 0.370 48 41 45 0 0
-2.1650 -0.2777 -14.4507 -0.446 -0.882 0.152 48 43 47 0 0
-2.1663 -0.2538 -14.6036 -0.655 -0.749 0.099 50 43 49 0 0
-1.5887 0.6253 -12.5000 -0.308 -0.455 0.835 132 50 29 0 0
-1.7804 0.2418 -12.5468 -0.129 -0.202 0.971 130 46 25 0 0
-2.0622 -0.3045 -12.7175 -0.393 -0.306 0.867 69 12 1 0 0
-2.1762 -0.2430 -14.3892 -0.339 -0.887 0.313 49 40 45 0 0
-2.2008 -0.2875 -14.4228 -0.432 -0.884 0.176 44 42 47 0 0
-2.1870 -0.2246 -14.6193 -0.762 -0.647 -0.019 47 44 49 0 0
-2.1750 -0.1754 -14.7599 -0.461 -0.883 -0.091 51 43 45 0 0
-1.0941 1.6942 -12.4371 -0.707 0.001 0.707 119 46 29 0 0
-1.6002 0.6656 -12.4867 -0.204 -0.423 0.883 132 50 29 0 0
-2.0722 -0.2623 -12.7082 -0.338 -0.481 0.809 67 12 2 0 0
-2.2014 -0.2260 -14.3913 -0.266 -0.942 0.202 49 40 44 0 0
-2.2018 -0.1611 -14.7586 -0.461 -0.879 -0.126 54 44 46 0 0
-2.2363 -0.0926 -15.5373 -0.261 -0.957 -0.124 106 58 43 0 0
-1.1137 1.7250 -12.4502 -0.402 -0.143 0.904 124 51 34 0 0
-1.1293 1.6950 -12.4615 -0.483 -0.234 0.844 122 49 33 0 0
-1.6406 0.6508 -12.4962 0.012 -0.489 0.872 132 50 29 0 0
-1.6668 0.6021 -12.5248 -0.021 -0.604 0.797 130 49 28 0 0
-2.0936 -0.2403 -12.7157 -0.242 -0.847 0.473 69 12 1 0 0
-2.0414 -0.0509 -13.1674 0.224 -0.972 -0.064 56 48 46 0 0
-2.2484 -0.1191 -15.1340 0.105 -0.993 -0.048 112 60 41 0 0
-2.2410 -0.0898 -15.2117 -0.683 -0.584 0.437 123 65 45 0 0
-2.2516 -0.0871 -15.3471 -0.856 -0.421 0.299 97 51 38 0 0
-2.2717 -0.1088 -15.4548 -0.402 -0.852 0.335 106 58 43 0 0
-1.6670 0.6623 -12.4933 -0.074 -0.382 0.921 136 54 33 0 0
-1.6791 0.6405 -12.5099 -0.032 -0.599 0.800 137 55 34 0 0
-2.0714 -0.0488 -13.1547 0.043 -0.975 -0.219 56 48 47 0 0
-2.2354 -0.2529 -13.8801 -0.108 -0.514 0.851 90 32 9 0 0
-1.2391 1.6085 -12.4720 -0.408 -0.402 0.819 126 54 38 0 0
-2.0239 0.0038 -12.5582 -0.145 -0.598 0.788 131 52 29 0 0
-2.0101 0.2764 -13.8618 -0.435 0.007 0.900 3 2 0 0 0
-2.2572 -0.2285 -13.8904 -0.453 -0.806 0.381 88 29 7 0 0
-0.5203 3.1732 -12.5112 0.360 0.331 0.872 106 61 52 0 0
-2.2740 -0.1718 -14.0159 -0.232 -0.680 0.695 63 12 3 0 0
-1.6281 0.9507 -12.5306 -0.267 -0.169 0.949 132 51 30 0 0
-1.9591 0.5154 -13.8353 -0.349 -0.839 -0.417 41 39 42 0 0
-2.2936 -0.1508 -13.9821 -0.232 -0.858 0.458 61 15 9 0 0
-2.3041 -0.1684 -14.0034 -0.106 -0.797 0.595 62 10 2 0 0
-2.3535 0.0029 -15.4232 -0.205 -0.971 0.126 104 56 42 0 0
-2.3801 -0.0353 -15.5119 -0.611 -0.672 0.418 105 59 45 0 0
