ply
format ascii 1.0
element vertex 710
property float x
property float y
property float z
property uchar diffuse_red
property uchar diffuse_green
property uchar diffuse_blue
end_header
-3.5666241913143804 2.8965317498206815 -12.444540911592824 117 48 30
-3.5455970063599636 2.9452050932058835 -12.436086933349403 117 48 32
-3.5246638717073724 2.993660877946046 -12.427671900181192 118 49 33
-3.4994964381389186 3.0510204731446375 -12.410653741195901 116 47 31
-3.470515793953665 3.116388072625343 -12.385808454577866 116 47 31
-3.4596873190992135 3.1434975688877937 -12.397167453297708 117 48 32
-3.4474261601014407 3.1736176605823525 -12.405599975986762 119 50 34
-3.43287326717202 3.2085533267453217 -12.40934974492431 121 52 36
-3.4150504054789588 3.250357924024401 -12.406401085641662 120 52 36
-3.403112608968808 3.279769679891407 -12.415272478565019 122 53 37
-3.385543251361131 3.321014690700096 -12.412634992748846 124 54 38
-3.373619024238435 3.3503795607948543 -12.42139287411944 120 48 32
-3.32060294044813 3.4789314125453696 -12.444904444095584 118 49 30
-3.3018659188390016 3.522551630595591 -12.43927849189459 119 50 31
-3.2833463281509365 3.565698816329835 -12.43397267690768 117 48 29
-3.2575382994455593 3.624112742243156 -12.413402861011866 117 48 29
-3.2441285001732494 3.6565100263503627 -12.41843960729867 118 49 29
-3.2332815817359473 3.6835271163131678 -12.428752629609448 118 49 29
-3.2223134493665233 3.7107921260585526 -12.438765816585196 117 48 29
-3.2147490218009196 3.730923191717971 -12.455873726013206 116 47 30
-3.2007987114411804 3.764421118162308 -12.459536030708467 118 49 33
-3.1903319732394597 3.7906185222469606 -12.47046582652926 119 49 33
-3.172181161204799 3.832885311816389 -12.465102609704886 117 45 30
-3.160294233468373 3.862036117276671 -12.472893616623425 115 42 25
-3.148299189154134 3.8914053228594714 -12.4803961874367 115 42 25
-3.135481658239715 3.9224855819200455 -12.486085766675917 117 44 27
-3.121205791583778 3.956603451052672 -12.488589767757617 114 41 23
-3.101825377982013 4.001370448345138 -12.480071953791366 120 47 29
-3.092051308593798 4.026064051296153 -12.492045717278867 114 43 24
-3.080203271779115 4.055081195977262 -12.499516906930602 113 43 24
-3.0665663876162745 4.087822526872223 -12.503066282437452 122 54 35
-3.0458727091238833 4.135270344704114 -12.491259917666337 117 47 28
-3.02891807256696 4.174902477204963 -12.487409487744074 121 49 31
-3.0153891394342978 4.207380061316065 -12.49089568907058 116 43 26
-3.00780166989216 4.227469509263697 -12.50726437862339 115 42 25
-3.00544905705251 4.236655425379127 -12.535070388302913 115 42 25
-3.0002415552637416 4.251790781377235 -12.556662556879484 115 42 25
-2.993812462806007 4.269470247058539 -12.575583392094543 115 42 23
-2.9642887706914953 4.3351945557551685 -12.543598591234424 119 46 28
-2.942103673817412 4.385623337298129 -12.527569190269425 114 40 23
-2.9269709052089548 4.421367933848687 -12.526985705896568 112 38 22
-2.9086587462568954 4.463706739295099 -12.51924012239453 115 42 26
-2.9109829134206424 4.46315846760561 -12.55731751172809 110 39 24
-2.9012979142704114 4.487561801384242 -12.56868064475101 106 38 22
-2.8769879590878946 4.546604823249593 -12.580206934579136 109 40 25
-2.832426346582821 4.673434661112329 -12.744324174058649 104 55 30
-2.813031151015683 4.717888276368098 -12.733128284446241 64 30 21
-2.8096862493887307 4.729137597352134 -12.758740128730064 54 17 13
-2.806089054213139 4.740913050026863 -12.783805647091633 58 17 12
-2.8072011400207915 4.742963542579374 -12.819804892559969 72 24 14
-2.8044071340695536 4.753092557786209 -12.846828982968521 90 35 23
-2.783284836008543 4.801064731483869 -12.831254089130475 97 38 24
-2.7841977652752457 4.803540911609552 -12.866901772881763 102 39 21
-2.7860132619641162 4.80416659576451 -12.9047477048552 109 43 24
-2.787833493539619 4.804795354771055 -12.942703433749791 109 47 28
-2.7863665514210485 4.812212907680667 -12.97303161476172 101 50 40
-2.7849240588526225 4.8195878622892705 -13.003477226776983 96 58 54
-2.771280895459561 4.852100950105666 -13.005157745472856 91 59 56
-2.778303512204336 4.842052703927247 -13.055701320400003 90 60 58
-2.777381616900529 4.848376851848395 -13.087542114657268 90 61 59
-2.781252690284034 4.844848794454684 -13.130861291530493 90 63 60
-2.7766078783888206 4.858850758121838 -13.153979720518258 90 65 61
-2.790071205340432 4.835629077693151 -13.220453525042469 91 66 62
-2.792118432069344 4.835899170962428 -13.259782610104187 92 67 63
-2.793173025395177 4.838221963815496 -13.296828963107883 93 68 64
-2.794322292286094 4.840362449611792 -13.33419659553477 95 70 67
-2.7954735398670563 4.842511159031247 -13.371663488253862 98 72 70
-2.765509782687175 4.908513619119235 -13.333809216103287 100 74 74
-2.7612225365227907 4.9218162218936214 -13.35805789537963 100 74 74
-2.7612492199426244 4.926278090731994 -13.392843610223846 100 74 73
-2.7583233390413078 4.945882661086294 -13.490310381964825 91 67 63
-2.757311420315373 4.952510541966264 -13.522847963375067 91 67 62
-2.7561807642090486 4.9593903929325585 -13.55516191081868 90 64 60
-2.780448002398084 4.914333087869854 -13.65037209370089 86 58 56
-2.7635284858496485 4.953531346337758 -13.64382536936131 80 49 48
-2.7705886867069554 4.943706577981184 -13.696770814220088 77 38 37
-2.7771302786475047 4.934963719434285 -13.748596360307264 95 51 44
-2.7854025795443587 4.9227084744456775 -13.804913982960791 111 71 60
-2.777267408010087 4.9486269691224365 -13.856126509913949 118 98 96
-2.8003310146926976 4.9062585335744355 -13.950104983464907 113 94 91
-2.808768792521559 4.893756821229428 -14.007539047358256 110 91 85
-2.8975664558486383 4.751389678068593 -14.528930489149754 134 120 114
-2.9232939640696602 4.704020261684837 -14.632938646040365 136 126 122
-2.9532194872650805 4.6481837017205025 -14.748246513138563 136 126 123
-4.225062135918392 1.276856960264765 -12.56054495873331 130 108 104
-4.1458660139582015 1.4639109171757854 -12.553218993212827 105 48 39
-4.08017332391654 1.608799495202101 -12.46676581015726 107 50 39
-4.0766748917592235 1.6206230954114709 -12.494304685796074 108 52 39
-3.5881617681929843 2.781663308758147 -12.50559057137567 117 48 32
-3.5361255517160926 2.896242370946254 -12.435627029797315 117 47 31
-3.512759554696684 2.950013227044842 -12.422373558084505 116 46 30
-3.491968990507724 2.998306655890917 -12.414096529010129 116 47 31
-3.472369097136318 3.0440600149928567 -12.408059537361233 117 48 32
-3.441870421192692 3.112866926853977 -12.379977418067606 116 47 31
-3.434005406589421 3.1337455316529734 -12.397264691997126 116 47 31
-3.419745030543058 3.1681518360414724 -12.401615726007291 118 49 33
-3.3901877037426082 3.2348978728018185 -12.37489231454738 119 50 34
-3.377784984986249 3.2653460344675107 -12.382775888087897 119 48 32
-3.3665477465772176 3.2933232658400167 -12.392972618151367 119 48 31
-3.3576734062519984 3.3163020803099945 -12.407946330225537 120 48 32
-3.346589526355131 3.3439446108391957 -12.418372578485531 120 47 31
-3.2908721993023367 3.47846215482259 -12.436055013596782 120 49 31
-3.2722573855450365 3.521946427620941 -12.43055972812088 120 49 31
-3.254071731966419 3.564509481820923 -12.425827330381026 119 48 30
-3.2359557035291235 3.606909783576424 -12.421114642675814 122 51 33
-3.2059139443899856 3.6744161560606203 -12.391342736527106 118 49 32
-3.193193843330689 3.7138437796928656 -12.463596796643259 117 47 30
-3.1787537539223134 3.748451222523408 -12.46618362708072 119 48 30
-3.1656205974694065 3.7802990972767248 -12.47145243328022 119 48 31
-3.148863020641368 3.8197574860831303 -12.468951792302537 117 46 29
-3.134007347073394 3.8552043993630063 -12.47038821420239 117 44 28
-3.123171295242437 3.8821946760854082 -12.480313831267821 121 48 33
-3.1169757339596478 3.8994328840339234 -12.500124202412549 114 41 25
-3.0955718322087167 3.948601483213392 -12.487302885737332 112 39 24
-3.079912633305698 3.985692016247058 -12.486675560475641 112 40 25
-3.072012175203108 4.006491136711613 -12.502682498899532 115 43 27
-3.056005214644181 4.044290499711969 -12.501142272978 113 41 26
-3.024698435086397 4.114154407352627 -12.466320933820596 127 54 37
-3.016911805474879 4.134686380390291 -12.482351743767001 118 46 28
-3.0050176559034387 4.163822544105962 -12.489415299590533 114 41 24
-2.991015697376299 4.19736564731406 -12.491811700831693 114 41 24
-2.980425298747341 4.223754913376616 -12.501597275267008 115 44 24
-2.973236928243492 4.243017684893567 -12.518808932264376 114 43 23
-2.9634896382863625 4.267633429091768 -12.530377001776689 112 41 21
-2.95242351431565 4.2950028245971605 -12.538995735615957 112 40 22
-2.9379747161068632 4.329438114643484 -12.540073676842496 120 47 29
-2.9254407551133186 4.35985949937334 -12.545309913504429 118 45 26
-2.905013030046802 4.406764944592275 -12.532911354146428 121 48 28
-2.8800162928242594 4.463192810909827 -12.510158708063226 116 45 26
-2.895623234546936 4.434817034212773 -12.578009808773254 112 41 24
-2.887146748423967 4.456739696815257 -12.592109029577678 111 39 24
-2.804489372898392 4.67141539418199 -12.736635648258115 116 70 51
-2.789697881667438 4.706434189395061 -12.73591415007757 70 33 23
-2.7700778668174815 4.751474694209544 -12.723925199796682 59 22 15
-2.758865341296514 4.779029386006782 -12.731274523942483 59 17 10
-2.761417414832617 4.7779926775534305 -12.770566448064153 75 25 14
-2.7712741936085985 4.761806012496114 -12.826991086722252 99 41 29
-2.770574340553776 4.76755035277361 -12.85894186743085 104 42 27
-2.761334977905804 4.791017271945209 -12.870954852244463 109 43 24
-2.7521372883177415 4.814393433596298 -12.883031714279713 116 47 22
-2.7476488505390675 4.828003989904896 -12.90616463349304 112 44 20
-2.750879921859478 4.825622536594997 -12.947545972819823 104 42 27
-2.740518346708662 4.851409741685461 -12.956870676420268 97 48 40
-2.730123804371354 4.877259085343537 -12.966069264803945 91 54 48
-2.743852072780784 4.853175500802711 -13.032611450210053 92 57 55
-2.7402153241077647 4.865050006116738 -13.057979460538368 88 58 56
-2.7414165037177267 4.8669234440863525 -13.094951142199179 89 59 56
-2.756634536852374 4.8398312254531275 -13.165622389472464 89 61 57
-2.756855158260722 4.843766071785741 -13.20051123439935 91 63 59
-2.746956823467982 4.86861489458604 -13.211097550629882 90 62 58
-2.7495085623074944 4.867749177039738 -13.25172129061773 91 63 59
-2.7532108423318418 4.864522820930906 -13.295243746126246 93 65 61
-2.749655628314169 4.876287709660831 -13.321268480844392 94 67 63
-2.729219830216458 4.922875168108855 -13.306231665944871 95 70 65
-2.7224432072771796 4.941277898171858 -13.324361495768311 95 70 67
-2.7176723590527505 4.955546258719811 -13.347396117271993 96 70 69
-2.713740122616071 4.9680896589483865 -13.372509707287524 97 71 70
-2.7164051784542247 4.971512749160568 -13.448798938652065 94 69 64
-2.7187266306205315 4.971208228385438 -13.489536601577438 92 67 62
-2.719304156405663 4.974505210368884 -13.526063489663414 89 64 59
-2.7454498339401345 4.925241209971036 -13.62621597558378 87 61 56
-2.7211881053372613 4.9796355813075746 -13.601203550353699 87 57 52
-2.7279126123254693 4.970338543663884 -13.653359260329486 79 43 38
-2.7338673308545713 4.96264410212886 -13.703756863058175 77 36 31
-2.74130002172563 4.951935992512588 -13.758025094272767 93 48 41
-2.7470317475924353 4.944741391106478 -13.808191978869145 115 71 63
-2.7528722221697954 4.937343976364739 -13.858791804063365 122 95 90
-2.758560093128902 4.930279977905579 -13.909166081185347 117 101 99
-2.7561699412883733 4.9397931860272175 -13.939211870892375 112 94 91
-2.77514135700914 4.910198098473065 -14.06001620504286 111 91 85
-2.7841412812810162 4.896435258155222 -14.119491752173033 110 91 85
-2.7938315314872595 4.881285951464545 -14.180940655090506 110 91 85
-2.8075585048170657 4.857907075940216 -14.252973251982699 112 93 87
-2.8383017525647207 4.81887537657833 -14.518594331389625 124 113 109
-2.8568651373166656 4.785803522444276 -14.604613270689965 128 116 112
-2.9144393842197918 4.673209978525867 -14.792981826976456 132 119 115
-2.935863003828014 4.6344266274158645 -14.887435724162586 136 121 118
-4.1575892046420915 1.3518079386764024 -12.488156552584872 110 83 78
-4.082677723235449 1.530056489989466 -12.487586173397613 106 49 37
-4.06591088363056 1.570368879205569 -12.490776977840609 108 52 39
-4.032690514695929 1.6460169722487406 -12.463443937911478 109 53 40
-3.5125909513230407 2.881196509394102 -12.440563504625183 117 48 32
-3.4857820513452142 2.942469397560428 -12.420296541313565 117 48 32
-3.4605029243086975 3.0004597735612384 -12.402890158026175 116 47 31
-3.44150304363092 3.045064850595903 -12.397930020915794 117 48 32
-3.415656175708965 3.104217852235248 -12.379018896841359 118 49 33
-3.4083164019506684 3.123991360353455 -12.397361505280987 117 48 32
-3.378089634790781 3.192416340257801 -12.36925462394545 117 48 32
-3.3652262505641124 3.223911079997608 -12.376224027336711 118 49 33
-3.3497351980409418 3.260979830461472 -12.377767373056031 118 48 30
-3.3446647659098527 3.275906000165742 -12.400529650589345 118 48 30
-3.335358756273763 3.299826800367728 -12.414623678082428 118 47 29
-3.3208853257299538 3.334711392754614 -12.418065176326806 121 50 32
-3.257955224524224 3.484819569049442 -12.42052479220786 119 48 30
-3.2395795752227974 3.5279164824167717 -12.41538746032089 119 48 30
-3.22357022010763 3.56598478868791 -12.415064394390521 119 48 30
-3.1842779448216985 3.6533447195771958 -12.365882772119418 119 49 31
-3.1790453019400795 3.668557618800474 -12.387852969514062 117 47 31
-3.171644846677048 3.6883600153151255 -12.405274725265478 117 48 32
-3.1596012912523825 3.717984036500778 -12.412888089037857 118 48 32
-3.1576776758091123 3.726198198545312 -12.441855682228937 118 48 31
-3.151499335050665 3.7434140436828205 -12.461848014286492 120 49 31
-3.1414584556388503 3.7687938416160724 -12.473628768482321 121 50 32
-3.125878646246889 3.80587136473624 -12.473558408699095 118 47 29
-3.1108575608054045 3.8417562543382644 -12.474582625019156 115 42 26
-3.1009278955991646 3.8668793929496426 -12.486427736266833 120 47 31
-3.0855948878402732 3.9034025367982483 -12.4866212213139 118 45 29
-3.071946613981627 3.936358599248938 -12.490347061298664 112 39 23
-3.0555096869857024 3.9751866903399256 -12.487967971508974 116 43 27
-3.024962245977508 4.043753759080485 -12.454910553540238 117 44 28
-3.029612056856823 4.038096022150279 -12.498027061764333 115 43 27
-3.005869180044688 4.092281732488668 -12.479443234060575 114 39 23
-2.991412927967643 4.126881255452616 -12.480938951284056 115 40 24
-2.989692812967901 4.134650630972614 -12.510222330253308 115 40 24
-2.974382530751484 4.171034279138054 -12.509735290907143 115 41 24
-2.959268984608186 4.2069913211146295 -12.50958059913272 111 39 20
-2.9476405280537925 4.235604827287791 -12.51701539190839 121 49 29
-2.932402491391684 4.2718013681059475 -12.51640776028091 117 45 26
-2.92647492470115 4.288413370142314 -12.536345126525928 119 46 27
-2.9103863593729957 4.32637864166102 -12.533698482771442 117 44 25
-2.900827139102015 4.350613825439279 -12.545494637729778 118 46 24
-2.8930004939723224 4.371206147126077 -12.561126764570961 121 49 27
-2.8816227380031645 4.399251102228836 -12.568786429681422 118 46 26
-2.852195328140356 4.465166299475809 -12.53584267087577 113 41 23
-2.842405298430312 4.489852971226346 -12.546858422786247 113 40 24
-2.771601030716134 4.679803896044842 -12.71744984741936 133 86 67
-2.759848176437568 4.708557159456261 -12.723638648441732 84 42 28
-2.7484292120202456 4.736604934082264 -12.73053910625378 78 39 30
-2.7298602864199752 4.779575250162854 -12.720726735464591 67 26 18
-2.7358760872657157 4.771209467837808 -12.768174815617181 76 27 15
-2.7328637105466917 4.781700855464287 -12.79463645654872 103 46 29
-2.722596112771143 4.8073308078930665 -12.80411004205374 107 46 28
-2.7195923252311207 4.817809032504982 -12.830629717227684 112 46 26
-2.715144155752238 4.831303008332718 -12.853782837006278 118 48 24
-2.721167573294621 4.822981488496241 -12.901728111858915 111 40 15
-2.71907252728628 4.83158827749164 -12.930572602119822 101 34 16
-2.7086484793198244 4.85754313376841 -12.939667578683945 94 36 25
-2.701827180500988 4.875993473379969 -12.957301091621959 91 42 35
-2.69356460676734 4.89744178186459 -12.971485283349903 92 52 46
-2.6885846860548765 4.912060144208859 -12.993511626699654 90 56 52
-2.704464596284695 4.883313668271389 -13.065662257634543 90 58 53
-2.7068874283579234 4.882568233769495 -13.105680348630615 88 57 53
-2.7311525826905747 4.836460842800799 -13.198544959860971 90 59 55
-2.7341061072993957 4.834657938515241 -13.240202985211216 89 58 54
-2.7371390816238783 4.832704838262767 -13.282171208812619 89 59 54
-2.74065369706734 4.82976720071802 -13.325430097728859 90 59 56
-2.720096227303139 4.876777912527208 -13.310094158067917 90 61 57
-2.6982180244640737 4.926505103854236 -13.291352324999758 92 64 60
-2.6871123994082042 4.953879500656337 -13.298830504056 93 66 62
-2.6959659713957214 4.939892485317402 -13.355313742229342 94 68 64
-2.6928647538920147 4.950689794227452 -13.382527977684294 94 68 64
-2.696617725107715 4.947301936206025 -13.426720514923808 97 70 66
-2.690881614367719 4.963568534448256 -13.447537149584537 96 70 65
-2.677517796264779 4.995616224278342 -13.449420217314003 95 69 64
-2.685161442013393 4.984210456984477 -13.50352181536439 91 65 60
-2.6940078371697904 4.970341084136872 -13.560806376708257 89 62 56
-2.6936937594135113 4.975425147041805 -13.595362127810535 89 59 53
-2.6952296034158767 4.97669812814129 -13.634639282166226 86 50 45
-2.696551176834439 4.978426561412008 -13.673481345453975 75 35 29
-2.700287541862096 4.975183768758924 -13.71851486718137 76 34 28
-2.704566321204183 4.9708386088730085 -13.765052896632149 97 49 38
-2.708498265455823 4.967226370343202 -13.810852315939842 113 74 64
-2.7215231482864017 4.953961061703064 -13.95221143410623 112 92 90
-2.7296488306452806 4.9417836841703675 -14.009307953821594 112 89 86
-2.737817779015714 4.929541540992513 -14.066709079565854 110 90 85
-2.7476983293743187 4.913802404318718 -14.128710726231525 110 90 85
-2.7605181784186668 4.892045764839304 -14.19851562789955 109 89 84
-2.786510181916107 4.847905631294136 -14.339813022346348 111 92 88
-2.804234130896425 4.816173226431257 -14.423148868462796 112 93 92
-2.822681018603239 4.801973382849687 -14.659909932903979 121 105 104
-2.8379953038063586 4.775366640498826 -14.738382250137793 123 108 108
-2.8736768236264822 4.707081395017593 -14.871072807374883 126 113 113
-2.928631882599338 4.599408800300256 -15.055493047374505 130 119 118
-4.0477297544695094 1.5233512735786263 -12.37161793191152 102 56 46
-4.026914667759961 1.5725083087024085 -12.36730523151454 104 53 42
-4.009741092296824 1.6137821366720937 -12.369564727293422 106 51 41
-4.026612402845994 1.581519012336015 -12.434599913660085 108 51 39
-4.020262350581906 1.5994208366646685 -12.456872261070036 108 52 39
-4.008143815869387 1.6297744379728991 -12.468441925388525 109 53 40
-3.997964275309039 1.6559379827288137 -12.483572068826113 110 54 41
-3.4615739742703884 2.9248973214330825 -12.39043321919685 118 49 33
-3.4454280532025274 2.963548406364441 -12.391315824891025 126 56 40
-3.429271192233677 3.0022106411526908 -12.392076938133556 118 47 32
-3.4079735329104524 3.0518521718937155 -12.382345478728666 117 46 31
-3.388962390370788 3.0965872789224314 -12.377093611264328 119 49 34
-3.3740737683848083 3.132497254067081 -12.380088811518814 119 50 34
-3.3562882086320456 3.174584719994944 -12.377093703921751 118 49 33
-3.3368689038218835 3.220146377744017 -12.370642062738487 118 49 33
-3.318827359309565 3.2627499364857595 -12.366875907286987 118 50 31
-3.3142824034089493 3.2765347352641605 -12.390706736641096 116 47 28
-3.311198575315589 3.287205104854384 -12.417569534136305 117 47 28
-3.2988718249740385 3.317593717798969 -12.425388291483596 121 50 32
-3.287760489042264 3.3453833626317735 -12.43566189579035 120 49 31
-3.2147223903296753 3.513291515415779 -12.383354389459692 119 48 30
-3.1992270965324847 3.5503659971114487 -12.384046430826757 119 48 30
-3.1831658700270014 3.5886332339247318 -12.383454155807652 118 47 29
-3.1528622134793016 3.6571970009452146 -12.352807878063327 120 49 31
-3.1551449381522847 3.656403609849111 -12.390605211916142 119 47 30
-3.1517640470502224 3.667667330493652 -12.416528092667885 119 47 30
-3.1257941058335454 3.7269610847138503 -12.394610042921009 120 49 32
-3.137353494161097 3.706464437548676 -12.452226986189649 117 46 28
-3.127311954951065 3.7318879178194617 -12.464023409744991 123 52 34
-3.0846206662525053 3.8266548483113265 -12.4060368809204 123 52 34
-3.1028697785100445 3.7919764002471723 -12.478164820742062 117 46 28
-3.089380137770207 3.8247016533218687 -12.482416945216658 116 43 25
-3.0746236256168205 3.8601055693652757 -12.483863998664566 118 45 27
-3.059974932082139 3.8952694337320066 -12.485451704041113 120 47 29
-3.0475188517651652 3.9257725274218336 -12.491693492292057 115 41 23
-3.0249242988525333 3.977759460864747 -12.475869603545918 119 45 26
-3.0166745826849457 3.9993250894578942 -12.491071353164319 116 42 23
-3.0019875413699353 4.034525495148768 -12.492212549081561 116 42 23
-2.9934088512033856 4.05677847785579 -12.506619112395551 118 42 26
-2.9780717438619755 4.093336488754362 -12.506183836420963 119 43 27
-2.9652401515915447 4.12457953916308 -12.511155598080741 118 41 25
-2.942237604505067 4.17733177953775 -12.493637991879439 113 38 21
-2.933109435135494 4.200717256748181 -12.506589882336943 118 44 25
-2.921459525381811 4.229430514962497 -12.513924376346207 119 45 26
-2.9056538474299507 4.266919717405425 -12.511968150116902 116 42 23
-2.8993059619869817 4.284413146960694 -12.530966978849278 126 52 33
-2.8806084922323065 4.327990210118733 -12.522392519255757 117 45 24
-2.8763688895388055 4.341023748070764 -12.546041952249315 115 43 21
-2.866944312035046 4.3650041766980685 -12.558079609578698 121 49 26
-2.8589349449140062 4.385994316521714 -12.57326719250873 114 40 19
-2.8477963160047146 4.413582519121832 -12.581376480534262 114 40 20
-2.8341895017142287 4.446368123424035 -12.583847778215468 117 42 24
-2.7299805532371386 4.710818281501709 -12.71122654177043 121 67 42
-2.7230834666519206 4.7294223006651155 -12.728598253729743 95 46 27
-2.714204274331519 4.75218595627917 -12.74132703685884 83 39 26
-2.7080406540178794 4.769248012944217 -12.760394802322558 75 26 13
-2.7192333050082738 4.74990592960294 -12.82027771304399 99 42 26
-2.7143398003364574 4.764318549559175 -12.842450691913127 105 45 26
-2.707203855178019 4.783433561750492 -12.85934185337194 115 50 28
-2.7076802575259746 4.786597845391812 -12.894263273417018 122 52 26
-2.7016699556877177 4.803358771091297 -12.91385759604221 111 39 12
-2.707907193037597 4.794477348612264 -12.962630138814596 96 28 8
-2.6778890270247615 4.8614964376009375 -12.924976257273467 91 27 14
-2.671770367585583 4.87847699753161 -12.94425372575676 92 35 23
-2.66438474497493 4.898107779953797 -12.960493453892273 90 43 34
-2.6872953227869676 4.8543972534456765 -13.04963295082497 91 52 46
-2.6861835293572143 4.860936383383604 -13.081174039823772 93 56 50
-2.6907615964777225 4.85559667117152 -13.126545459706719 90 55 49
-2.690830309131571 4.859691161962546 -13.161117788442027 89 55 49
-2.693129214484945 4.8591399059786955 -13.20119444713501 90 55 50
-2.6957335500632023 4.857964783107766 -13.24212543661989 90 56 51
-2.697698045339677 4.85813845329448 -13.281606584610959 91 56 53
-2.6729314191917535 4.914067593410944 -13.255693082740363 91 58 54
-2.6659987252897674 4.932793127224595 -13.27336124165226 92 61 56
-2.676579471806522 4.915024431779377 -13.334159047424194 91 62 57
-2.667004355267928 4.939266272636515 -13.345401559702836 94 65 60
-2.6656471916193407 4.946392030075666 -13.376949935491115 95 66 60
-2.6683334096930933 4.945109956559034 -13.418599511010509 96 66 61
-2.661775896188546 4.9630749244230286 -13.437363957157757 97 68 65
-2.6462095886709767 4.999776509175663 -13.433652452284882 97 68 64
-2.6429129106194424 5.010954819838176 -13.460513960063823 95 66 62
-2.6556230441794613 4.988872175031577 -13.527556180914576 92 62 58
-2.6627327614012133 4.978454590369554 -13.580765900919125 91 60 54
-2.6640194521571905 4.980151095902668 -13.619474418665064 89 54 47
-2.664384316782331 4.9837736582583005 -13.6559547655866 83 46 38
-2.6655958659926005 4.9856503526998015 -13.694669911816046 73 34 27
-2.6694259990409126 4.9821078822268055 -13.74013735555313 79 33 24
-2.667652228391121 4.990201535423088 -13.771469796847985 100 53 42
-2.694197934256836 4.9574992065096435 -14.020425709681646 110 87 82
-2.70226822900381 4.945305171069826 -14.077829150109764 109 86 82
-2.726735214077446 4.899230486890758 -14.177938099388578 109 87 82
-2.7351407528848823 4.886405129034097 -14.236713125259389 109 87 83
-2.744057777712169 4.8725477800024555 -14.297022455439027 108 88 84
-2.751912160543636 4.86091086298789 -14.354764507774487 109 89 87
-2.767482940574242 4.83336759737571 -14.432913559056853 109 89 88
-2.781882986646967 4.80827726002156 -14.508288045241963 109 90 90
-2.8019667984794365 4.7950005048206945 -14.789719253945124 120 105 104
-2.8290250975541653 4.744054548131958 -14.900500028983817 126 112 112
-4.180692747922862 1.1565594263913646 -12.596980971162886 146 126 126
-4.044217640705767 1.457195095725802 -12.381269168600774 105 64 59
-4.024777981203611 1.5035223836870246 -12.379540747103363 101 52 42
-3.987936845335069 1.5876135326182261 -12.345597979248351 105 52 41
-4.008308584683702 1.547494374780987 -12.417159419122282 107 51 40
-3.9985682645779566 1.5727453253843287 -12.433161010928949 108 51 39
-3.986278849882774 1.6035226384795056 -12.444397587757773 107 51 38
-3.9835982377081365 1.6134562213117087 -12.473495520011777 108 52 39
-3.969600778223178 1.647929936845502 -12.4814847347789 112 55 42
-3.4156158111134136 2.9622480312739183 -12.383395309055288 118 46 31
-3.4053846443872215 2.9882705847229305 -12.396058717553991 119 47 32
-3.394319964691146 3.016079506056607 -12.406993057077429 120 48 33
-3.376868792968252 3.0576004028375694 -12.404882394502257 120 49 33
-3.3277352453409925 3.1671373877631783 -12.338000849564764 120 51 34
-3.3397703332361015 3.1453146508687126 -12.39582223571341 118 49 32
-3.313767231578395 3.205144273052303 -12.37580900179274 122 54 37
-3.296443159209163 3.2463296247437228 -12.373439469453828 123 54 37
-3.287279066260945 3.2700008709799855 -12.387783761406887 118 49 31
-3.2806611414046003 3.288209943829264 -12.407366239893793 119 50 33
-3.2676547800263407 3.3201115757716577 -12.413704535756413 125 55 37
-3.2547960511497207 3.3516885464032935 -12.420280750848612 122 51 33
-3.2175077919338007 3.4395949177054463 -12.409050707487733 119 48 30
-3.186684836962235 3.5095951006904196 -12.377721264959288 120 49 31
-3.1814038756911955 3.524903115853421 -12.399781744557604 120 49 31
-3.1653414672687337 3.5632780740707126 -12.399148856990095 121 50 32
-3.1429368725864846 3.6152042411516385 -12.385018312188036 119 48 30
-3.131717085404537 3.643196150306653 -12.39439436930732 118 45 28
-3.137703280489113 3.6344070638118504 -12.440245182570859 120 47 30
-3.1040211143413825 3.7103924170328835 -12.401804260165871 119 47 29
-3.0916585202991014 3.740803103379073 -12.40855756799867 118 46 28
-3.105233155939918 3.715822170161501 -12.47074210649328 121 49 31
-3.056334184010203 3.8242261672590256 -12.399132089711362 129 58 39
-3.07603373475506 3.786187284772483 -12.474592020591256 120 49 30
-3.063042444003251 3.817922308324998 -12.479850219807691 118 45 26
-3.048323477238217 3.853332985996519 -12.481300508293327 119 45 26
-3.0355990810453397 3.8844802984198727 -12.486982383663968 118 44 25
-3.025597373853831 3.909816535572335 -12.498512017589466 116 42 23
-3.0004803851823194 3.967351509219757 -12.477063944264389 119 44 25
-2.982116449140891 4.010478022195364 -12.470158713659565 117 42 23
-2.9681048904696437 4.04432135606294 -12.472652472003112 118 43 24
-2.952815720713669 4.0808736579897795 -12.47225444001284 120 44 26
-2.9391872179558542 4.11388028310002 -12.475412487966564 118 42 25
-2.9423616325207607 4.111136084286743 -12.515585488624115 118 42 25
-2.924614968401924 4.152891293272187 -12.509560426707772 112 36 18
-2.90769763258126 4.192867925373895 -12.505246009547914 119 44 25
-2.900141299005302 4.21293809567031 -12.521639956422415 116 41 22
-2.8836297172386898 4.25203012884228 -12.51804317045907 115 40 21
-2.8705790088166943 4.283758655220127 -12.522070636189852 117 43 25
-2.858577661594218 4.313250252133435 -12.528374559953296 119 45 27
-2.8496364647420083 4.33623989622123 -12.541494073623422 121 47 27
-2.8397512311143416 4.361228743264185 -12.552456344260747 122 48 28
-2.8309082868435596 4.384002287412834 -12.565733942520474 114 39 18
-2.8222417382325093 4.406398456118756 -12.57938302370665 113 39 19
-2.817412755254142 4.420658426373245 -12.60172431031242 117 43 24
-2.730170559748096 4.645657306685187 -12.735373792285522 136 74 53
-2.701973741663484 4.709252809211773 -12.703067699070711 119 55 24
-2.694596249845377 4.728874236079946 -12.719291038785624 112 49 23
-2.6859871249796434 4.751092845272646 -12.732608356380872 91 41 22
-2.707211792478832 4.710383521119054 -12.816181572138316 73 25 11
-2.7050194128085034 4.719088273664233 -12.84478251938419 94 37 23
-2.706897652618478 4.719219632765922 -12.883074481217761 109 48 31
-2.705718876680195 4.734033265154979 -12.982302049335765 112 37 10
-2.670993691957337 4.811249113984207 -12.933382441230258 96 27 6
-2.6486038457345304 4.862469416748444 -12.913703276262357 88 25 9
-2.62953667761051 4.906677434219789 -12.901817156823917 89 29 15
-2.6487561015580967 4.870369757699432 -12.982091605764456 88 37 23
-2.6426187268867154 4.887393622297731 -13.001385880522266 86 42 33
-2.6484367342054287 4.8793000189022155 -13.049660018837367 90 50 43
-2.6467791120409956 4.8869253352158815 -13.079921749266685 92 54 48
-2.641352828833001 4.902470020863968 -13.10106198703319 90 53 47
-2.620780531881257 4.949803095376567 -13.085220285359096 90 54 48
-2.6547798131274334 4.886815151604416 -13.237491486394765 91 54 50
-2.6612089602052453 4.885970525095847 -13.35785393748405 93 60 55
-2.6549519980197367 4.903305992209763 -13.377357764003438 93 61 56
-2.648468691948108 4.921115655644088 -13.396301867480293 94 63 58
-2.648064907575664 4.9262036561099745 -13.430404834328169 95 63 58
-2.6361311611705207 4.955419195329322 -13.435763550745431 97 66 62
-2.63163812574598 4.9690678113428906 -13.459700708171146 99 67 64
-2.6153536268664244 5.007366259825357 -13.454035463947218 97 66 62
-2.62642953082484 4.988481700939671 -13.517169234066765 96 65 60
-2.635856138599637 4.9730694921389835 -13.576365411036718 93 59 52
-2.639336083675007 4.970098158414516 -13.620711039925572 90 55 48
-2.628047429280736 4.99796578905522 -13.627694586096752 88 52 43
-2.6293893671854427 4.999474907774052 -13.666763687467382 77 39 31
-2.6325501836932403 4.9972032466375085 -13.710577404956288 75 33 27
-2.6309835920732727 5.004802233441003 -13.742424442236693 86 37 29
-2.62444042805271 5.022779881538318 -13.761572863191931 109 57 46
-2.674241251688437 4.941042309239571 -14.071701892402817 106 82 77
-2.6858845575075447 4.921275411706178 -14.138773988762138 106 83 77
-2.6948637863435327 4.907074853161969 -14.199134238085376 107 83 78
-2.7011829502633304 4.898425927290278 -14.252740423897151 106 83 79
-2.708577649221768 4.887564660694936 -14.309344993523386 106 85 81
-2.714667982011821 4.879434072543866 -14.362707441500037 106 86 85
-2.71741887777881 4.87825388709875 -14.407432820327472 107 86 85
-2.784129283619415 4.77691264730128 -14.890301371633328 112 99 97
-2.8400791665091156 4.665918326911176 -15.080145026050548 116 105 104
-4.113328462152415 1.2321258019455676 -12.5243889825914 122 101 96
-4.017477133566696 1.445399587938475 -12.382355016161558 104 61 55
-4.002601161591037 1.481895925453884 -12.388971455619949 103 52 44
-3.971443619455396 1.553896843046675 -12.365363658453713 105 51 41
-3.990230309290382 1.5169595783336423 -12.434243877750696 107 51 38
-3.976481571351087 1.5509814310877452 -12.44281472838843 108 50 38
-3.961587549754709 1.5874915326473804 -12.449181686030316 108 50 38
-3.9653385524610494 1.5833678466117274 -12.49036855021265 109 51 39
-3.9385824297438528 1.6457091868463083 -12.474411752367828 110 53 40
-3.389533635082829 2.9529551887810745 -12.382985684463161 118 46 31
-3.38379370257679 2.9693146953936953 -12.404754151023322 118 46 31
-3.3743408168428903 2.993692072413795 -12.418965012584449 119 47 32
-3.3473049324714053 3.0560178035974355 -12.397209539221187 119 49 32
-3.30643091682471 3.1481773904849835 -12.34687646970638 119 51 32
-3.312997899938031 3.1379556627672356 -12.393650694890507 118 50 31
-3.2996778158975553 3.170637661706327 -12.39959906276674 118 50 31
-3.270956168798195 3.236514797279881 -12.373662265826482 120 51 34
-3.259139799260649 3.265928951154496 -12.382496941299635 120 51 35
-3.251244833390883 3.2868875391953143 -12.399418475945385 123 53 37
-3.2428961712227604 3.3088217865071075 -12.415382207979773 121 50 34
-3.2274617709466953 3.3460113489346357 -12.416536213149435 119 48 30
-3.2162155213409283 3.374174025849449 -12.426359710811576 119 48 30
-3.1897471760759553 3.4350880468225844 -12.404188758485628 120 49 31
-3.1656709882462435 3.4908298554527493 -12.386832034020394 120 49 31
-3.1467386602128373 3.535486143517308 -12.38013360726925 120 49 31
-3.1331374119748867 3.56866447656871 -12.384574584733166 120 49 31
-3.1170198200745265 3.6072420385812105 -12.383601296689221 120 49 31
-3.107078826809918 3.6325355763732468 -12.395655268413439 121 48 31
-3.1089810585709206 3.6323854017237425 -12.432920518753244 122 49 32
-3.080915763518361 3.696596946637402 -12.406225071669985 122 49 30
-3.068727012764339 3.7266981680392766 -12.41331400518008 118 45 26
-3.0470513023109094 3.777150971285521 -12.399954559527874 120 47 28
-3.024922100723583 3.8285564654270265 -12.385447663632231 122 49 30
-3.0478218583613437 3.7833690042393195 -12.468030045036024 118 45 26
-3.0383518999503707 3.8076215868119236 -12.480842079475787 121 46 27
-3.0244859117690712 3.8412923716506295 -12.484075604626984 121 46 27
-3.000248003816983 3.897176661168041 -12.464645241116417 122 47 28
-2.991732814810826 3.9193594556486495 -12.479332937809652 124 49 30
-2.9770819008124 3.954677952283169 -12.480569810126761 122 47 28
-2.964515584004498 3.9855231141476493 -12.486287860295395 125 50 31
-2.9583533297166533 4.002655804591321 -12.50602560374038 121 46 27
-2.945186212589313 4.03477413293732 -12.510316369745771 118 43 24
-2.9265601179347165 4.078557749969535 -12.502457673675098 123 48 29
-2.910566340507012 4.11669718841446 -12.500295605745919 130 55 36
-2.892883155274899 4.158434173298768 -12.4942677173788 116 41 22
-2.874375003906646 4.201918287435683 -12.486270971575701 121 46 27
-2.8714678451352484 4.212064998970934 -12.51299870075377 126 51 32
-2.8539255722638237 4.253464373395447 -12.506976488194544 117 42 23
-2.846025559798392 4.274267689027647 -12.522485632816977 113 38 21
-2.833316874695176 4.305329421559299 -12.527147200493168 119 43 27
-2.8262058543834256 4.324442425006456 -12.544375911999474 119 43 27
-2.816193910919316 4.349740252691076 -12.55502888431247 118 42 25
-2.8041587148994456 4.379345935556761 -12.561047010641675 114 39 19
-2.7963251437345247 4.3999903813411745 -12.576561499272845 112 38 19
-2.782744482385011 4.432875509429364 -12.578945476139625 115 42 24
-2.6858571756057525 4.682514243245861 -12.722767992996296 110 38 14
-2.671166698210305 4.717668851264239 -12.721820586359282 108 36 10
-2.6623142540829683 4.740429294329243 -12.734550810164299 96 41 17
-2.6703995009050945 4.727274534992115 -12.78733116073336 77 29 16
-2.679725052251492 4.7115120239523165 -12.843231840051395 88 31 20
-2.6858136082892083 4.702630883735833 -12.891626512487068 111 49 34
-2.655407237219663 4.779114954702831 -12.921062890438701 111 35 9
-2.631463312010809 4.833815083706175 -12.897595804541186 100 29 7
-2.611348843139649 4.880389707359292 -12.88313805259302 90 25 9
-2.6090416544282498 4.8933263052651705 -12.945559646504977 88 31 18
-2.613968851818086 4.886958381460032 -12.99163547694031 86 35 25
-2.6027592342160206 4.914690218715591 -12.998565650714646 88 42 36
-2.6050345997037203 4.9139430618463225 -13.038352011784095 91 48 42
-2.600077264638929 4.928474416257606 -13.060547438963894 91 49 43
-2.6285486225431844 4.872477628389783 -13.164783087947946 91 52 45
-2.6191904335650733 4.896320449138683 -13.176401665068333 91 54 46
-2.6272059438959436 4.883528746503826 -13.230832819319065 92 55 49
-2.6262629946064306 4.889639875892802 -13.263296790230356 92 56 50
-2.6199203779838016 4.90713569889609 -13.282445094179996 94 57 51
-2.6203338607800335 4.910402738667847 -13.318387540164817 94 58 52
-2.6152238126174154 4.925309151886047 -13.340654234123067 93 58 52
-2.6119820118898973 4.936285807191861 -13.367606250733282 94 59 54
-2.6030681734411063 4.959200302210165 -13.38039271161017 96 61 55
-2.6065469589130483 4.956048898621379 -13.424269395720808 97 62 57
-2.594142098699333 4.986304558918831 -13.42828385685971 98 65 59
-2.585146755890782 5.009386020339594 -13.440828167564435 98 66 60
-2.5770199663686926 5.030639026077174 -13.455538035625823 99 66 58
-2.5800587886891924 5.02844221210805 -13.498557319087539 96 62 53
-2.6031167387703076 4.984236433713009 -13.592627397090936 92 56 47
-2.5940516184725597 5.007483753456665 -13.605157752206603 88 51 43
-2.596632320771409 5.006298591174359 -13.64743332259576 81 46 36
-2.5973457377699343 5.009043075691922 -13.685042122186497 72 33 26
-2.5966381498384337 5.014777441128184 -13.719094596214685 78 29 21
-2.5935819865841694 5.025441894302602 -13.747172650640795 96 40 30
-2.629936310499038 4.970861842320386 -14.023043142384704 104 79 75
-2.6676206595118326 4.896431944560134 -14.158365311948751 104 78 73
-2.6832807825767553 4.8680973854518275 -14.236500762111394 105 77 73
-2.683354893954939 4.872356597784263 -14.273940554498747 105 79 75
-2.672120003315098 4.90024127880179 -14.28164845861237 106 82 79
-2.6739717708303536 4.900802752899913 -14.323896263937707 106 82 81
-2.679824982089562 4.893029031955202 -14.376867923353151 105 83 81
-2.691951878411893 4.8766661381563585 -14.484447880514203 105 85 82
-2.7041766071948508 4.860182890703202 -14.59299404768355 106 87 83
-2.7354272777837574 4.799623723091523 -14.71503197403016 103 84 80
-2.7433259649335158 4.787737005014449 -14.774732826030828 101 83 79
-2.7467538314970996 4.785177437350578 -14.822571893604735 102 85 82
-2.811495138635124 4.659755962424756 -15.075712217898266 107 89 87
-2.7176582635072406 4.9296280220541195 -15.452051160764338 144 143 148
-2.697174675523928 4.986245438954617 -15.514855882314002 147 148 149
-2.713093477678873 4.963028429728812 -15.641412322219885 149 149 152
-2.720342786602089 4.95292223172806 -15.70298284525214 151 150 152
-2.72101338647765 4.956390622714253 -15.745832531853651 152 151 152
-2.720235406411142 4.9628548334133775 -15.78461743255027 152 152 153
-2.740395795267687 4.926241965747645 -15.88406108353773 153 153 154
-2.507095296578499 5.609420231764992 -16.922779204163096 194 194 194
-4.004566746709356 1.4032478256979042 -12.409035669184494 102 57 51
-3.979660385711318 1.461820086668073 -12.397075025546174 105 53 46
-3.9756082773825847 1.4746690466575982 -12.423706132098783 106 50 40
-3.9690210328838615 1.4930759925100974 -12.445642900441385 107 50 38
-3.9554361808078884 1.526810892278455 -12.454506150674996 107 49 37
-3.949566930738977 1.5436428759198861 -12.477765167425225 107 49 37
-3.944213278632942 1.5593476524598167 -12.502006300685254 108 50 38
-3.904369916591362 1.6505385527004712 -12.461276442377311 110 52 40
-3.883733057778066 1.6996669824183757 -12.45650327150085 111 52 40
-3.356212171900278 2.9632528870369255 -12.401305394889727 118 46 31
-3.3430499986979525 2.9957061396815474 -12.407895525379624 118 46 31
-3.3299153347297508 3.0280916611888777 -12.414472716352822 119 49 32
-3.291845252234982 3.1145398604467482 -12.36966621186395 119 51 32
-3.2836960891639935 3.1360858885133602 -12.386255270888718 118 50 31
-3.2711367810138188 3.167187606760116 -12.393704991052049 119 51 32
-3.241810968644283 3.234606948069146 -12.36631205470035 119 50 33
-3.2324248607486386 3.2588102922172695 -12.38014115013939 119 50 34
-3.2195002527131535 3.290671921499282 -12.38656178655642 125 54 39
-3.2124681694153328 3.309770561821339 -12.40523379368626 127 55 40
-3.1974224445768122 3.3462099892563053 -12.407102624439222 122 51 33
-3.186433560061692 3.373862404033443 -12.41740577430853 120 49 31
-3.1528428614332964 3.450389640066919 -12.380029113278407 120 49 31
-3.1300793317178917 3.503473409833858 -12.365230585581365 120 49 31
-3.1248321939116797 3.51867668788789 -12.387362054187843 120 49 31
-3.1118194837764177 3.550661066783249 -12.393013478418837 121 50 32
-3.094812922378253 3.591264167213663 -12.390087286198701 122 51 33
-3.084129542182273 3.618199255478247 -12.400546854102377 124 51 34
-3.083407903345432 3.623623859219773 -12.432288792733242 120 47 30
-3.0572438055182163 3.683964018997889 -12.409480707311033 119 46 28
-3.038808460422908 3.7276039974998785 -12.403086182550283 120 47 28
-3.0159601683983057 3.7807462358341466 -12.387034294714839 120 47 28
-3.042215523963902 3.727992452403342 -12.47704115914264 120 47 28
-3.0189660043483384 3.78198897178717 -12.460027976646465 119 46 27
-3.014976511671412 3.794461513328339 -12.484716378729043 121 46 27
-2.999307944430438 3.8320960343402097 -12.483964867818445 121 46 27
-2.9709371708439187 3.897072527583598 -12.455335680761031 120 45 26
-2.9553179390727538 3.9345681061858118 -12.454410552590502 122 47 28
-2.9484909381059285 3.953129301243834 -12.47270625629902 121 46 27
-2.9325245814923324 3.991353277919643 -12.470857439846421 121 46 27
-2.924136289426484 4.013265578064223 -12.485643641721438 123 48 29
-2.911062416582367 4.045250011841628 -12.490027949112783 121 46 27
-2.8933100095148694 4.087281939340856 -12.483944287794538 123 48 29
-2.87683118466089 4.12656199938846 -12.480565947864807 120 44 25
-2.8555756277091238 4.176089473980965 -12.46640552332412 118 43 24
-2.8402106603772133 4.212947241981934 -12.46525938758158 119 42 24
-2.84008114596233 4.217086180436075 -12.498205353271914 118 40 22
-2.824523937174874 4.254342633563602 -12.496507126999248 117 40 22
-2.81753100809292 4.273212980807752 -12.514025334654452 114 39 21
-2.809587712759068 4.294120837888049 -12.529387268283704 114 38 21
-2.8110599835736925 4.294839570774452 -12.56608711857724 113 37 20
-2.77249039275121 4.381391828659282 -12.51182415888434 115 39 21
-2.778091276649889 4.373258689884832 -12.557887469511003 114 39 20
-2.757269530360306 4.421737877645211 -12.543693516901602 118 44 24
-2.744582879491066 4.452777870780401 -12.547972713682206 121 49 27
-2.727528606496719 4.4931582727052914 -12.542140600168342 117 44 24
-2.6503013170931644 4.700956435148359 -12.73044961725109 118 42 13
-2.634906337702879 4.73769660978467 -12.727669180593836 116 52 24
-2.6329056186790742 4.745875805666085 -12.756615308576027 85 35 20
-2.6502748092639736 4.712790822336469 -12.831776807144642 80 27 16
-2.650174000783519 4.716949895902933 -12.86549103316392 113 51 35
-2.6632744836226854 4.693009793330116 -12.930908002235965 140 73 48
-2.6438508671028123 4.7383249658462905 -12.91845262053479 141 71 42
-2.618325937470067 4.796603452854756 -12.891143262228628 111 35 9
-2.6044807721246204 4.830010951082748 -12.891793110578568 101 27 7
-2.585115083717745 4.875145932363108 -12.878987101691417 90 21 7
-2.5790929305861043 4.895857074563356 -12.932471036928161 86 27 14
-2.575802309520685 4.906813852316067 -12.958594980280054 87 32 22
-2.567256281208361 4.928934388617644 -12.97190472385239 88 37 29
-2.564962510963302 4.937780479713647 -13.000518383808338 89 43 37
-2.5547712464880052 4.963390311657607 -13.009768491060647 91 48 41
-2.5763405755803923 4.92162527935179 -13.097254944238143 91 51 43
-2.57881488269998 4.920391149108263 -13.13791060665822 91 52 44
-2.588248651833881 4.904418486188671 -13.195923269943584 91 53 45
-2.584564896863645 4.916264564737224 -13.221555127435089 92 54 46
-2.5828465994304546 4.9239515988311915 -13.252117621950962 92 54 46
-2.578666228021894 4.936859007909955 -13.276593652798194 92 54 47
-2.5744826393219835 4.9497766605725335 -13.301091187793292 94 57 50
-2.5739606188995943 4.954950148275413 -13.334808454956317 95 58 50
-2.568665026932016 4.970229535943004 -13.356590908432262 96 58 51
-2.5831040946258454 4.943783465794315 -13.428177204339029 96 58 51
-2.575639756258896 4.963665389698859 -13.444633693174488 95 59 52
-2.55889806566851 5.003147934397917 -13.437550587801322 97 62 54
-2.566634661532335 4.990913459774036 -13.492569822322016 98 63 55
-2.551260623944203 5.027495819605974 -13.488864849894695 99 63 55
-2.548496186371076 5.037450727577026 -13.517269262345849 97 59 51
-2.5515862470339825 5.035059331791667 -13.560723994137891 90 52 44
-2.5648990545814296 5.0111222361122545 -13.630567250446994 83 48 39
-2.5638785756988316 5.0174345360999215 -13.663757518548543 76 37 29
-2.562470416431913 5.024572413710462 -13.696020162080035 76 29 22
-2.559160666719027 5.035724425479672 -13.723428342643913 84 29 21
-2.622214751674727 4.928455877335264 -14.106792698170427 103 74 70
-2.6415515425787404 4.892122422428886 -14.194767927665985 101 71 67
-2.6471595917898734 4.884667026816893 -14.246814104183326 101 72 67
-2.6542163381696424 4.874189343625538 -14.302866919929766 104 76 72
-2.656581788360607 4.8735800831254865 -14.346645740285979 105 77 74
-2.6567331204335307 4.877630762565559 -14.38465243389293 103 77 74
-2.672148254731772 4.849679722759191 -14.46351202322137 103 79 75
-2.67886708438603 4.839995961923042 -14.519396054829656 104 80 76
-2.664754929137529 4.873989286690518 -14.519555671301124 105 82 78
-2.674812483322187 4.857337937184442 -14.584653712527503 104 83 80
-2.6828950092774546 4.844849642743988 -14.644657290784918 102 82 78
-2.691142865416903 4.832039352035116 -14.70531540451152 100 81 77
-2.6991912741635407 4.819670841995436 -14.765643074432427 98 79 75
-2.6826899645193336 4.936524352957821 -15.429591359875246 141 142 144
-2.680824107268985 4.945083449095937 -15.464602859844064 142 142 144
-2.6855923629860485 4.939880012279845 -15.518630456756753 145 143 144
-2.6947319397852576 4.925626317270404 -15.585343791645805 145 142 141
-2.6999602688309574 4.9195127234507305 -15.641071244302356 141 137 136
-2.7067721164478504 4.910137169037106 -15.701536262467014 135 130 129
-2.712326026767432 4.9033924632103725 -15.758578404781456 134 128 127
-2.6966778289063624 4.940590575490802 -15.754492213272357 136 129 128
-2.68651410722346 4.966417342096111 -15.766180627778805 138 132 131
-2.691097246426735 4.961715629098587 -15.820690808327328 144 138 139
-2.7192633100623613 4.908242624673328 -15.94410542386762 149 144 145
-2.542932739585378 5.454810356631953 -16.994816342103086 188 188 188
-2.521435298974255 5.503704412342335 -16.970190110513254 189 189 189
-2.4965883490776246 5.559381205610674 -16.93453506210686 192 192 192
-2.4810950424001756 5.5960153472034895 -16.92880401744247 194 194 194
-4.001087547645797 1.3360940101791483 -12.419130461115554 100 71 66
-3.958545224965584 1.4376136011755616 -12.408655995933021 104 52 44
-3.9738749942692486 1.4077568620432732 -12.471524154307179 105 49 40
-3.926257592807228 1.5164944317285602 -12.41680634989005 105 48 36
-3.94150345786164 1.4868379476745073 -12.47965413729429 107 49 37
-3.916039534490946 1.5467766243120513 -12.466122948013886 108 50 38
-3.8947148604358497 1.5975893945465032 -12.460215928717243 109 51 39
-3.8660386843543115 1.6645519074859312 -12.440255752773005 110 52 40
-3.3279367504411725 2.9663758830169407 -12.46365832155511 121 50 34
-3.2728680147895965 3.0902181157735287 -12.383586087773 120 52 33
-3.2701493214593205 3.099953642498053 -12.411456212655212 118 50 31
-3.2553625338510646 3.135977402840008 -12.414298305033622 119 51 32
-3.234401460152525 3.185434218040836 -12.404190129218755 122 53 36
-3.202772792864095 3.258092771624727 -12.371644284707404 118 49 33
-3.1916887136714314 3.2860144488348366 -12.381845748443412 120 50 34
