ply
format ascii 1.0
element vertex 708
property float x
property float y
property float z
property uchar diffuse_red
property uchar diffuse_green
property uchar diffuse_blue
end_header
4.314420617859496 0.44787819673485707 -16.497634480593057 81 52 46
4.337752276454621 0.38309221583512176 -16.611854331050093 81 60 52
4.357864994155377 0.33467953096536895 -16.70965472320829 88 74 66
4.386913591620911 0.2938093801033501 -16.848323408257386 126 120 117
4.382929198349083 0.3639754186522506 -16.823562150433013 143 138 138
4.37119634137219 0.4714973569275269 -16.75945976621537 154 150 149
4.330720932830183 0.717710813631478 -16.54941256073948 161 157 156
3.756823466842677 -2.220140409223993 -13.986483932766168 210 210 212
3.765009339404669 -2.214960656501325 -14.023927995322634 208 208 210
3.7613517631235918 -2.128142382464988 -13.999730491717074 205 204 207
3.758762381583156 -2.0490658999066937 -13.981124333016826 200 198 197
3.7556595072880685 -1.9668406981106825 -13.95987834321338 191 184 177
3.7481486768028125 -1.8549516404819135 -13.915750658662729 161 144 136
3.7494679183025275 -1.8036346048596545 -13.917556123058063 114 88 77
3.7515763848176285 -1.7578469008339672 -13.923476728514004 95 59 46
3.753511906874611 -1.7110402881025326 -13.928511721674115 96 54 41
3.755775119554733 -1.6665939205592224 -13.935260742315565 98 54 40
3.756574237982497 -1.6124676098163668 -13.93442413179155 107 58 41
3.759365357229647 -1.571861601561495 -13.943937620432042 120 66 44
3.763614767789201 -1.5410893474030303 -13.961022773846743 130 71 46
3.768819607644531 -1.516716014493869 -13.98306498330541 135 75 48
3.7689276059704118 -1.45860619494292 -13.978696684745016 136 78 49
3.7753683850556703 -1.4425208750121659 -14.007152191493617 131 77 50
3.785519865790501 -1.4508059274385587 -14.05481957896324 114 63 37
3.7934698403392253 -1.4444559895024334 -14.091074055217213 108 55 25
3.805159912820562 -1.4624496009270063 -14.146674188766841 98 47 18
3.8167031792282335 -1.4792262603968913 -14.201493067890725 96 49 25
3.8264196682266536 -1.483885420895101 -14.24684389302553 100 58 36
3.8364480671512813 -1.4903885727259647 -14.293792476468525 102 65 46
3.8473667199099264 -1.5024496830909273 -14.345326083589757 104 71 55
3.8534038340435925 -1.4828858665804088 -14.37162233226004 103 75 63
3.865690010578718 -1.5033717714547281 -14.430189568366199 104 78 68
3.8766528660575714 -1.5151226300512182 -14.481901721308283 106 83 74
3.8875659857718006 -1.5263355343616167 -14.53333866896611 109 89 80
3.898947188033682 -1.5403035407436043 -14.587172349380548 110 93 85
3.9101944881850104 -1.553188386324024 -14.640295693169243 115 99 91
3.9215420172789286 -1.5664770749643395 -14.6939166513299 122 108 101
3.933059150621054 -1.5806013126968503 -14.748392405257285 132 119 112
3.945593146760646 -1.6008652060908117 -14.808087763251573 145 133 127
3.9502626879547886 -1.571693690003233 -14.827251059968557 157 146 141
3.9639404669943072 -1.5986901284281068 -14.892802979740328 166 158 153
3.982338761197167 -1.6546882299738277 -14.982627405363917 174 168 162
3.985372186143247 -1.6150511648171282 -14.993343271546495 174 167 162
3.9964092413050283 -1.624914936476114 -15.04524067723791 147 137 134
4.008343261843544 -1.6400867427055141 -15.10173322564289 95 84 82
4.020285746203509 -1.6550662685306463 -15.158248830267647 80 68 67
4.03473734630399 -1.6851423139215935 -15.227639392601247 71 62 62
4.048192004629752 -1.7088040576992434 -15.291879522285189 61 58 59
4.064017929830126 -1.7465728721789588 -15.368273861001384 63 61 60
4.080123525772164 -1.7856476895519684 -15.446071710731914 61 57 56
4.091117208046749 -1.7934670372465549 -15.497597152241418 52 46 46
4.098541597678503 -1.7796079806168272 -15.53079056042727 41 34 35
4.110012241279659 -1.789958480352424 -15.584735057961513 26 23 23
4.109316535215537 -1.727340223107106 -15.576270142140308 18 17 18
4.106484511609756 -1.6522308006661808 -15.556873553135063 16 16 16
4.107756466188986 -1.6018308326191484 -15.558537035145577 15 15 16
4.103503672915515 -1.5188714340412703 -15.531908589956306 13 14 14
4.09751257970818 -1.4260191857537938 -15.496407862663169 21 16 15
4.08901589728468 -1.3188520486633726 -15.448113975267008 37 26 25
4.0870102354835485 -1.2502988610079537 -15.433090394846225 51 35 33
4.076518673196217 -1.1323889164534977 -15.374665765287116 67 40 35
4.069150088158288 -1.0332822276770264 -15.332267101461674 97 60 44
4.063495431161101 -0.9446135537069074 -15.298673615277607 110 66 47
4.049811094436343 -0.8098241305750671 -15.224061212282606 90 41 22
4.038880607465499 -0.6916417374247317 -15.163582749635633 85 32 14
4.020196623618973 -0.5294053412716151 -15.06353647162193 99 43 29
4.004048625399903 -0.38259853979886405 -14.976517387390288 103 50 37
3.9873071593008014 -0.23317122128855328 -14.886532657135504 102 49 37
4.005954265572757 -0.23315489280914736 -14.972815900012016 101 48 35
4.126107690717087 -0.1613015789116128 -15.522775106161312 93 38 24
4.088884551272782 0.14494575377868735 -15.324879506016035 92 35 22
4.07525211754359 0.37205275816970307 -15.242773551939226 87 30 15
4.074026595841716 0.429360589859372 -15.23230192288313 87 30 15
4.069060100524287 0.506380744642092 -15.202868556149884 92 33 18
4.07143058128544 0.5440950676851477 -15.210677895211612 94 35 20
4.075908027285739 0.5705570614425657 -15.229179306376437 93 35 21
4.079133381639402 0.6036003349335308 -15.241335657289712 93 38 23
4.082347768080621 0.6366331563149057 -15.253442132658998 97 44 31
4.0980856674786 0.6039038634012535 -15.329006979255405 92 45 34
4.107287387738322 0.6056928575562814 -15.371435665476529 77 38 30
4.1196343807974785 0.591209478711817 -15.42978146467679 68 34 28
4.128915808544627 0.5928840928431631 -15.472588558419158 61 32 28
4.14104708791088 0.5799190192327481 -15.529809005933586 51 32 27
4.149534450344806 0.5859922066687098 -15.568573288390741 45 30 25
4.159467497487737 0.5847203989942154 -15.61464241110992 49 34 32
4.167371969607103 0.5940070061773275 -15.650440323238492 58 44 43
4.177676802584507 0.5910891136597769 -15.698367685166676 60 46 46
4.189582565234013 0.5801583806614259 -15.754374190244562 60 46 48
4.19945530604225 0.5797726491393247 -15.800090031924004 52 39 39
4.209503949824056 0.5786348472015517 -15.846682821818314 44 31 31
4.2187161466383065 0.5818699612670128 -15.889038839787156 38 24 24
4.228686036109316 0.5814045986885148 -15.935210882443977 40 25 24
4.238575950096822 0.58148182054902 -15.980967405539023 46 28 26
4.252580894684089 0.561086134145544 -16.047480233728205 52 33 32
4.255624531836878 0.5956860881260493 -16.058665328027963 53 37 36
4.266262076950215 0.5924105661148245 -16.108162188096664 61 44 43
4.277676129586833 0.5854400580070154 -16.161561673771306 69 50 46
4.298835259291007 0.5304382441666924 -16.26407768213226 76 52 48
4.327700927208768 0.4379023310310668 -16.405398025179426 78 50 47
4.345840210762305 0.3988159323405478 -16.492607203019507 78 49 45
4.350950985199547 0.42397554854194386 -16.51414828004811 79 51 44
4.3703223267481235 0.37943052337465044 -16.607515769647208 81 59 51
4.395551775173919 0.30675846208434443 -16.73034640333143 89 76 67
4.383895903870933 0.5636818794499208 -16.654888665613836 156 152 151
4.3735036198585 0.6631653527723884 -16.5984670606791 162 158 157
4.353942873606803 0.806035484402555 -16.495986163417626 168 164 163
3.7994339171270903 -2.229706218428631 -14.02859501043394 210 210 212
3.7977106951074515 -2.156757471285191 -14.01491885862175 209 208 208
3.7967666705294465 -2.0894135411207015 -14.005272702834294 206 206 206
3.791322816146126 -1.9919355205250646 -13.972529208021239 202 199 200
3.7909731009992056 -1.929261379948592 -13.965987875662435 194 189 187
3.786474225594346 -1.8389740610153895 -13.938162745116575 174 167 159
3.7877009594186153 -1.7874523829482838 -13.939760066358325 134 117 105
3.7908097334129334 -1.748674693627791 -13.951028832330968 103 75 64
3.793693817847205 -1.7085047844786567 -13.961153128460463 92 56 45
3.7965160962451434 -1.6680364698290537 -13.970969263786312 98 53 42
3.798749915357625 -1.623792001959031 -13.977777823493462 106 54 40
3.8033200642760745 -1.595078207929153 -13.99656956265354 113 56 37
3.805015437029454 -1.5475226700827527 -14.000637499503611 119 63 40
3.8102890434416667 -1.523551028811637 -14.023042503110542 131 80 56
3.8170411834928886 -1.5092362193276978 -14.05301749164789 116 68 46
3.8251940610583803 -1.5039798822409622 -14.090157055122267 104 54 31
3.834555893071389 -1.5064517127797696 -14.133473165499012 103 53 28
3.84493310317467 -1.5153263208234344 -14.181969921275286 98 57 35
3.8553883146955163 -1.524502519648415 -14.230849686190417 100 65 48
3.86709960299617 -1.541542874454266 -14.286133746838281 102 73 58
3.8770268172163913 -1.5469083373105228 -14.33228171027028 105 81 68
3.888099474556048 -1.5594046704530697 -14.384266691546266 108 87 77
3.899688588819404 -1.5749620288824424 -14.438871339121892 114 95 85
3.910492680699694 -1.5852972933773524 -14.489449268731853 119 103 93
3.9191822713376085 -1.5820551509565624 -14.529219447610807 123 111 103
3.930363228705861 -1.5943866097069606 -14.581690300549088 134 123 117
3.941608260965422 -1.606896740514915 -14.634470345596117 144 134 129
3.9533550073044674 -1.6223232787570536 -14.68979077281378 160 152 147
3.9647290300962075 -1.6351797504516012 -14.743192209053896 172 165 161
3.9758173817348887 -1.6460312188176482 -14.79512008035853 181 177 173
3.99011443871295 -1.6765692116056474 -14.863376327366328 187 183 181
4.047543053923958 -1.7383869555959777 -15.132762139850342 177 176 175
4.058867572639925 -1.7490960204247763 -15.185766620623419 132 128 127
4.07089505653092 -1.76385461864173 -15.24232761057203 77 71 68
4.080514953674904 -1.7638113230532397 -15.286634535874786 62 55 52
4.096740276013401 -1.8034437396175438 -15.364488038836418 58 56 54
4.112120377296266 -1.8375991596061692 -15.43801748904912 60 61 57
4.12339770082297 -1.8468108091346576 -15.490686783460529 62 62 59
4.1337165922904635 -1.850091177269623 -15.53847482438946 59 57 57
4.147280012140977 -1.8725185832532008 -15.602713805192394 52 48 49
4.1581327116738365 -1.8785674749316197 -15.653178422949715 38 36 38
4.161949264619415 -1.842798725327114 -15.667944008547114 27 27 29
4.162527908351791 -1.7880060083348557 -15.666298824729601 27 28 28
4.158097384922366 -1.7039535194115372 -15.639279018236135 25 25 27
4.167855846770623 -1.7034420308901108 -15.684187355978725 15 16 17
4.133672127254648 -1.3325525626864545 -15.497555826108062 44 35 34
4.113743943057083 -1.1607683545954295 -15.392250289272567 55 40 38
4.10406727383285 -1.0490638963035517 -15.338890793829314 65 42 37
4.096207045715133 -0.9483586806241435 -15.294763329192866 71 41 30
4.071497717930824 -0.7515118738438638 -15.165463658939697 77 33 20
4.052595184457168 -0.5889417867160054 -15.065607249676646 92 40 25
4.050438957100216 -0.5226779438240863 -15.050462520424 100 49 35
4.030779443897515 -0.35724237234883915 -14.946893952678451 102 51 38
4.016270333527827 -0.22186378845866006 -14.869413271110101 102 51 38
4.024594585461117 -0.21610627835770835 -14.907302777528958 101 50 37
4.032670554688623 -0.20884856201745716 -14.943930646243363 101 49 35
4.041553189378037 -0.20602368614595346 -14.984622833693305 100 48 34
4.135643360758671 -0.04325787731889896 -15.405208170758405 93 39 24
4.11554758847931 0.2190258600088022 -15.292011206984723 93 37 24
4.110805309451147 0.295240158337152 -15.264172040777204 92 36 22
4.107405458814169 0.3639978661789103 -15.243102852840194 94 36 22
4.105457840249376 0.4247854556198991 -15.229349809983649 97 38 24
4.107125266837751 0.4662668215412431 -15.233766871996442 96 36 24
4.108887830359363 0.5071288136352736 -15.238670870904935 93 36 21
4.107156073321549 0.5661942328615561 -15.22604759180543 93 40 26
4.110846806437766 0.5966924644335379 -15.240648262869836 97 47 34
4.120314776004223 0.5970373201098678 -15.284231669217101 90 44 34
4.130364724980465 0.5944920369030058 -15.330723102382157 76 35 28
4.140570808498298 0.5912889459467303 -15.377985457861094 62 31 25
4.153489381552683 0.5742374975083457 -15.438831280983702 58 32 26
4.164961915821512 0.5648683281031746 -15.492412130005608 50 27 24
4.1750019998904815 0.5630420735460318 -15.538801559110738 46 32 28
4.183080303737078 0.5713978325716624 -15.575353799546964 52 40 39
4.191831489953287 0.5764071151349324 -15.615268675657232 54 40 42
4.200601455393943 0.5814264147445449 -15.655269262963602 51 36 38
4.206156690470866 0.6028446699015886 -15.679172352012657 45 31 32
4.212981148130678 0.6178550327190626 -15.709425725204909 38 24 25
4.221907656602572 0.6223210345989827 -15.750190894687522 33 21 20
4.235795394877191 0.6019807970098929 -15.815759527516601 31 19 18
4.280911571064981 0.4255516574486151 -16.037449208124595 31 17 16
4.290159985500886 0.4793164772747005 -16.07581882959873 45 24 23
4.300378286623266 0.47840842467199174 -16.12295691262708 47 27 26
4.2995160251709414 0.5324459021560504 -16.114734170854675 47 29 28
4.299905396649349 0.5801205496456827 -16.112777148299024 50 32 33
4.300971402081226 0.6243162890468561 -16.11421045988458 65 48 45
4.315199259937112 0.6038791357179933 -16.181353346122137 74 53 48
4.342793105328592 0.5184026200404723 -16.315178052873918 77 51 47
4.382000418961004 0.3770189381241087 -16.506893858880797 77 48 44
4.388008218568881 0.39785022078785826 -16.532927687679646 78 50 43
4.4087171787826405 0.34752477266937554 -16.632274541327117 82 60 52
4.4266908253937425 0.3108478860437076 -16.717948514836323 94 80 73
4.443511892101199 0.2800811315546401 -16.79784863178127 116 106 103
4.410732647218504 0.5866333932815655 -16.622747606979914 158 154 153
4.402660312523051 0.674290407046942 -16.578669643057 162 158 157
4.378488786591656 0.8378453869304137 -16.45446617980131 168 164 164
3.806549312610777 -1.999758690187181 -13.889891517267941 211 211 213
3.810723250240004 -1.9677533647350236 -13.906673798618462 209 209 209
3.8124844723709748 -1.9196819788232906 -13.911210671238578 206 206 204
3.8149056929651914 -1.876167957480451 -13.919109237625303 204 202 200
3.823006672302549 -1.8705018328757381 -13.955836624415383 198 195 194
3.825246262682657 -1.8259280126707997 -13.962824368307196 189 184 179
3.8251984512003565 -1.7663996167869866 -13.958223108795197 166 155 148
3.8276761013250984 -1.723715289758486 -13.966441490874502 133 112 100
3.829943097498869 -1.6797763476364498 -13.97360163035884 108 79 66
3.8345989092016675 -1.6515841402787004 -13.992874086438187 100 64 48
3.840193424081869 -1.629542063121554 -14.016903396292452 103 61 41
3.8475306673427774 -1.6188131858367765 -14.049756230334168 112 69 46
3.8536827839331087 -1.600336298399637 -14.076604689467167 118 77 55
3.8600596221703434 -1.5832825606408782 -14.104588300430727 103 65 46
3.868061480755091 -1.57664597571463 -14.140789762260521 96 55 39
3.8746400086446378 -1.5607806541619116 -14.169785639789513 102 63 47
3.8841283892811678 -1.5634715543154787 -14.213489699067829 103 75 62
3.8942773773361323 -1.570210866008443 -14.26052077897114 108 86 77
3.905982436282129 -1.586647406249834 -14.31540056832651 116 99 90
3.916875453439368 -1.5976945423135644 -14.366160268693742 125 110 103
3.928530535579741 -1.6133376695046842 -14.42075250004558 138 125 119
3.9388514140598656 -1.6203431170862679 -14.46859132018594 158 148 142
3.9505652781730185 -1.6358966388638434 -14.523446481645259 174 165 160
3.9610540323325063 -1.6435476567439293 -14.57210256479458 180 173 169
3.971958840716792 -1.653598632427931 -14.62284300023994 186 181 179
3.9829030052265173 -1.6636857585466576 -14.673766551904139 190 188 185
3.9938866347616058 -1.673808584362778 -14.72487368593351 194 192 190
4.00591564526526 -1.6901766678126968 -14.781233813656721 195 195 194
4.017151269470728 -1.7014132340591361 -14.83357837496629 198 197 196
4.118913923470393 -1.8549122386203916 -15.311478361687456 136 134 131
4.129593042678504 -1.8606919216773177 -15.360869550031197 106 104 100
4.150556553014862 -1.927634948988855 -15.461918956359902 108 106 102
4.166693651053547 -1.9653121428086804 -15.538684040412633 116 116 112
4.172055538934797 -1.9387301800397854 -15.561312520162545 99 96 94
4.176387546439433 -1.906078161283082 -15.578771976325925 67 63 63
4.185842144687115 -1.9036581134939592 -15.621944907378523 54 51 53
4.21459642536575 -2.014448485615933 -15.7619441461401 43 42 46
4.211787513107987 -1.9396106759908829 -15.74355576581156 37 37 41
4.1298246987923655 -0.9573105853105393 -15.295431562169489 54 32 26
4.067720187897269 -0.49645173643186613 -14.976745944778402 98 45 32
4.053532487490991 -0.3101570828593756 -14.897979103170893 101 52 38
4.044645013818665 -0.20760791758616826 -14.849679494933676 101 52 38
4.060219906118586 -0.2422655668641589 -14.92364448570206 100 51 37
4.071548933775956 -0.2529164901258092 -14.976374208412722 100 51 36
4.134273936448345 0.1815226236273073 -15.231999758664978 93 39 27
4.139730797541898 0.20340060103951263 -15.255409980312537 93 39 26
4.137754044783025 0.2645874745759107 -15.241842084541041 94 41 28
4.138878122451819 0.30919025995052696 -15.2437128646967 96 46 33
4.1363339472845615 0.3729341623358273 -15.227355003192699 99 46 31
4.133912055691775 0.43578331891448663 -15.211623698923574 96 39 25
4.135392444599007 0.47800090472579004 -15.215303812372014 91 33 20
4.136811145909528 0.5204166869642624 -15.218686487073448 92 38 24
4.139522959389107 0.5559950115212633 -15.228501642052878 95 46 35
4.146289835924545 0.5705033179520065 -15.258461026162664 87 43 35
4.1570511988712715 0.5644467487176712 -15.308249699506174 73 32 28
4.171131705957344 0.5414877038433863 -15.374501494716345 63 27 25
4.184981659157834 0.5199856189771594 -15.439588907342397 56 28 26
4.193088770020087 0.5281110217643716 -15.476163374648355 48 27 24
4.207388859759982 0.5047556959254296 -15.543451168067415 49 34 32
4.216561115861309 0.5077355497444938 -15.585288299570285 53 42 41
4.22855662118664 0.4965299529126055 -15.641114776237561 46 35 36
4.23821287174949 0.49734318217041196 -15.685330602306125 41 28 28
4.244307689814723 0.516220360667444 -15.711886870700454 39 25 24
4.254865713499371 0.5127135036801693 -15.760555505285689 36 22 20
4.264653429520996 0.5132192561616877 -15.805396758870861 32 18 14
4.274810411165218 0.5120157598902839 -15.852056985549167 30 15 15
4.3413529278851675 0.38089619893579396 -16.166818739336655 41 21 20
4.353797163245362 0.36955240248312116 -16.224712899203716 44 23 22
4.34750269108236 0.45022076478463013 -16.189913382142628 43 24 23
4.352376360743747 0.47598886154176423 -16.210363202028397 42 25 26
4.350151775741695 0.5363036496563875 -16.195723146112236 52 37 36
4.3759499171162455 0.5098527279474281 -16.315959501689036 75 51 46
4.392277048222234 0.48041243558242286 -16.392989583359473 74 47 43
4.407436328931357 0.456907025347574 -16.464227973939888 76 49 44
4.436618845930997 0.3664255650418866 -16.604695765107348 82 62 55
4.463094372701212 0.2895752107365004 -16.73174808674942 97 84 78
4.477820181194287 0.26934250202069965 -16.80075801546972 121 112 110
4.441960061343222 0.5883091894135886 -16.612852810912276 158 154 153
4.44139914537748 0.6399717547027421 -16.60647789628927 164 160 159
3.837961216531223 -1.9370128346570832 -13.877004302241918 210 209 211
3.8449507246756753 -1.923888929336453 -13.908007226779798 210 210 212
3.8482371939077904 -1.8863118704689361 -13.920430247668637 207 207 208
3.859297628350111 -1.8998724121530213 -13.971845353612444 206 205 206
3.857981037836188 -1.8321912972044272 -13.961192700006455 203 200 199
3.8592417282154825 -1.7816091015420925 -13.963476958912036 197 193 190
3.8633217197126073 -1.7495390031577127 -13.979899768278978 188 183 178
3.867584694289307 -1.7187138289469903 -13.997243200698772 175 165 158
3.87237412318638 -1.6913418951214565 -14.017226511323077 157 144 132
3.878408816207748 -1.6720218215893752 -14.043446152205206 147 131 116
3.884860446311141 -1.65535779755891 -14.071751095396067 150 133 117
3.891316441529229 -1.6386833003250372 -14.100075244443179 154 137 122
3.898293608981006 -1.6252965867020839 -14.131003811005918 144 128 116
3.9062155578678146 -1.6178615290539877 -14.166653088627113 131 113 102
3.9133692704238516 -1.6054578133525563 -14.198454923442323 133 114 104
3.923480365850616 -1.611685730415818 -14.245033776610285 140 128 119
3.9330297377425265 -1.6141912463505657 -14.288793301689926 156 147 141
3.9450315745009625 -1.6319454903331732 -14.344793093626292 170 163 158
3.9556539805459554 -1.6408058890495285 -14.393886395641003 180 174 170
3.9655607102952537 -1.644999008712852 -14.439392838109805 189 184 181
3.9755388100310665 -1.6494662797473714 -14.48524385303514 194 191 189
3.9870503785217926 -1.6632757778331424 -14.538735217376122 198 196 194
3.9985281091522182 -1.6766456535202279 -14.592041970964452 200 197 196
4.0089753228778555 -1.6834340404705035 -14.640193469614783 200 199 197
4.019456696685671 -1.6902455759442594 -14.68850247834408 201 201 200
4.042548671676195 -1.7163139799212432 -14.795693039152308 202 202 202
4.218043840237801 -2.0715205745534124 -15.621100419183612 170 169 167
4.233962635084693 -2.1065850804796042 -15.696166513129768 153 152 150
4.234389916307213 -2.0506888611466136 -15.694282157882405 98 96 94
4.2371305876808725 -2.008475484903702 -15.703895845073133 56 54 55
4.264178427303145 -2.0493389677687954 -15.830157745295345 42 40 45
4.111051966101886 -0.5107116244467909 -15.025664783016069 101 52 39
4.084902849762479 -0.31211130826967803 -14.892683809882044 101 52 38
4.080237722245376 -0.23381425237095232 -14.866018636200483 101 52 38
4.087859072137391 -0.22383395548419838 -14.900121232932786 101 52 38
4.101355354376551 -0.2461811392714086 -14.963257438175539 101 52 38
4.1661610712613015 0.0741653276284433 -15.237083155854204 95 42 28
4.158572199892997 0.16515549461930856 -15.196201909047833 94 41 27
4.158388265349285 0.21671704153886573 -15.191825061863845 94 40 28
4.165143649169143 0.23165385070717903 -15.221634966427555 93 40 28
4.1652802717848925 0.28129194131865365 -15.218853241896843 99 47 34
4.164130871538849 0.3374766426788929 -15.209752410786344 102 54 40
4.16301055129606 0.39330328255313773 -15.20080887808442 98 45 30
4.162126365699672 0.4476999780262396 -15.193041269129113 93 35 21
4.163037013316633 0.4926161280747108 -15.194116483897336 92 36 23
4.165112608816572 0.5313856954248655 -15.200930721251618 97 45 33
4.1785001371222075 0.511894312088601 -15.263374607466716 88 42 35
4.186643326088372 0.5195363075775683 -15.300019527959154 70 30 26
4.196302316140769 0.5195197012571668 -15.34410865258647 61 27 23
4.208661578772228 0.5058799724538767 -15.401457628455262 55 26 23
4.222597226578329 0.48445016694149867 -15.466536361151485 48 26 24
4.231313463230526 0.4897152108076712 -15.505959996125252 52 35 34
4.250659104329033 0.44141999746417415 -15.59757543020376 52 40 39
4.261369347434548 0.437016337868811 -15.646763913609073 43 32 31
4.274378723820365 0.4212376313170134 -15.707227042471725 36 24 24
4.28684795271592 0.40839225334431095 -15.765023458941332 32 18 19
4.2971006485712895 0.40681575748026333 -15.811929537938077 30 16 15
4.367786685906476 0.30568589225366516 -16.141510313466387 25 13 12
4.387115284163827 0.2608083286999463 -16.232813494629717 28 15 12
4.392211128499344 0.28583882290526663 -16.25435605370855 34 17 15
4.399784251371461 0.2987963429631506 -16.28803427354884 38 18 17
4.400467772334908 0.3452531304773796 -16.28796708721305 40 20 20
4.402147943096199 0.38674500494125486 -16.292789668808613 40 23 23
4.398966010290319 0.4515808248529458 -16.273817948325622 44 32 30
4.398243039887067 0.5043362062996888 -16.266898797586794 64 48 43
4.41785087039578 0.4594195926829272 -16.359479199597143 74 52 45
4.436799253713663 0.4180639103931343 -16.448805296039048 72 48 43
4.454357654963997 0.3837206464869025 -16.531305813322522 73 48 43
4.486905813779938 0.2784916661735428 -16.68708932912734 83 65 58
4.4986565088829735 0.2725672917465376 -16.741131230440203 103 91 84
4.510437865675955 0.2666736351852048 -16.795310978186066 126 118 116
4.48657768840814 0.5271669254801878 -16.668531699006962 159 155 154
4.471306149445121 0.6473841021310882 -16.590578227224032 166 162 161
3.8862175649835358 -1.809332032830154 -13.93726406382606 208 207 207
3.8936033471228 -1.7986697899885584 -13.970145839879123 206 203 202
3.898197833755206 -1.7699766140539923 -13.989196728749398 204 200 198
3.902192047702167 -1.7374712037533326 -14.005277421332085 201 197 195
3.908124674779703 -1.7174173538348194 -14.030958508113343 196 192 190
3.9156107521197754 -1.7072453395043938 -14.064327214740128 193 190 187
3.92197935956803 -1.6898959170508805 -14.092161467294513 195 191 188
3.9291720971621418 -1.6777311626215354 -14.124070446190386 194 190 189
3.936354894348996 -1.6654371625235926 -14.155926031547152 192 188 188
3.9441975694226796 -1.6572300302394023 -14.191040131568968 191 187 184
3.9517102470740264 -1.646861450996493 -14.224517198152046 190 186 183
3.956402414768183 -1.6187761345624407 -14.24405062525401 193 189 187
3.96576566534263 -1.6198443155256665 -14.286664365935973 196 192 192
3.977691113693756 -1.636687334580893 -14.341924415983774 198 196 194
3.9888584472026407 -1.648586158253579 -14.393425010987528 200 199 199
3.998974588910477 -1.6537758395992004 -14.439722114116723 201 201 202
4.010101407902464 -1.6650132958236448 -14.490996525222908 203 202 203
4.0211393063248 -1.6754921924114026 -14.54181861438052 205 204 205
4.032864148330656 -1.6899662767226902 -14.59601636772772 206 204 206
4.04308623129175 -1.6950404429796224 -14.64278750689046 205 204 205
4.052649848170504 -1.69593543186501 -14.686300671893889 206 206 207
4.056587183698722 -1.6054788479565714 -14.698434885367545 206 206 207
4.315598447299638 -2.209633626257572 -15.913807151830268 55 53 53
4.311723234400418 -2.1291591911981875 -15.891077120575753 46 44 47
4.320297449037058 -2.1202028488650733 -15.929467590084982 43 40 47
4.3224235217980596 -2.0744006220176017 -15.936213405475318 41 39 44
4.119214379494915 -0.38268135814807547 -14.905188011882151 102 52 38
4.105301472541545 -0.2536807519927562 -14.833759390315281 101 52 38
4.104684499586784 -0.19837841809747836 -14.827436465328669 102 53 39
4.119190299323171 -0.2261095536616473 -14.895114320778639 107 58 44
4.170445549850547 0.2138489040442586 -15.100014452189809 96 43 30
4.172850840175497 0.2514328721564789 -15.108552019126563 96 42 29
4.176910169062881 0.2802939312964732 -15.125160515609384 95 42 30
4.1795387188583195 0.31655639619475195 -15.134796654160496 95 44 31
4.183795017208066 0.34429231208887856 -15.152371766442545 102 52 38
4.186332306787875 0.3808814948390067 -15.161572434436724 101 52 37
4.188514004382097 0.4192159278404173 -15.16904625649191 93 38 21
4.191505242821886 0.4532920383280663 -15.180469559546584 91 35 19
4.19287308784128 0.4956126355391586 -15.183991628725426 96 43 32
4.201568423774464 0.5003833287106341 -15.223198838291802 86 40 32
4.209543349813442 0.5089267694078323 -15.25889247194404 67 28 22
4.21873244733902 0.5113873222193295 -15.300490307373458 61 28 25
4.228843772749545 0.5092981148677369 -15.346568210661104 53 27 23
4.243373678721851 0.48505673456367937 -15.414133513669668 47 25 23
4.246854698201399 0.5166841593873066 -15.427938172378763 54 37 36
4.283645480556208 0.3811717187292558 -15.603736199663544 54 41 41
4.317322518191579 0.3119515253863421 -15.761166796391095 41 29 29
4.3958241869844565 0.22277912169453717 -16.12354621562922 21 10 8
4.400601508680031 0.24925360205130076 -16.143569088843982 21 10 8
4.418508143763959 0.21180510686511766 -16.227318447109184 21 11 9
4.437700712886809 0.16847919702105862 -16.317285013307238 24 12 10
4.4232563928826885 0.2882816147095788 -16.244027074298423 27 14 11
4.440302667845025 0.25561351946278865 -16.32356280823135 30 15 13
4.443218331050228 0.2912307584160736 -16.33454462643261 35 18 17
4.445705017871842 0.3288286507475311 -16.34345116552626 36 22 22
4.448201797023099 0.36629029685683623 -16.35241223399772 38 27 27
4.456622867589703 0.3754316598768854 -16.390095055975358 57 42 38
4.461039884586651 0.40368020382894354 -16.40836783542133 72 50 44
4.479546353217199 0.365154054178201 -16.49491136514509 73 48 43
4.4983260111075305 0.3257063381062064 -16.58275489082883 73 50 46
4.514472010648129 0.2990343475246595 -16.657818261140676 86 70 63
4.538116275200718 0.23745968857316146 -16.769174283041835 110 99 94
4.534016128888421 0.35563566439354677 -16.74302283826772 145 140 140
4.496674877657177 0.6271442514445553 -16.556068697927344 162 158 157
4.493650449258451 0.6895286510218508 -16.538355809142303 166 162 161
4.49228007060145 0.7440497625772 -16.528659194185725 170 166 165
3.9123929161547792 -1.8319308630594717 -13.90714660511414 210 211 213
3.917599447909647 -1.8072410325744377 -13.929248785267067 210 210 212
3.92478439717408 -1.7951900510029084 -13.9610426426017 209 208 208
3.9291338486194984 -1.765031444996831 -13.978946627488128 210 207 208
3.935486684680392 -1.7476255152621913 -14.006661913982999 208 205 207
3.941842717896056 -1.730206352488076 -14.034390885904864 207 203 205
3.9482026822692253 -1.712778583327629 -14.06213713524851 206 203 202
3.9584609157330357 -1.7198131888750483 -14.108953934320766 205 204 200
3.96485226351182 -1.7024394763016772 -14.136845322663724 205 204 201
3.9736765822021565 -1.7002253031740917 -14.176632609265404 206 204 201
3.9817199870975144 -1.6930216742338215 -14.212594391325476 204 203 203
3.983245242642565 -1.6452681877662867 -14.216689738560454 203 202 203
3.9921637303478437 -1.6434102788454465 -14.256923925024338 205 202 204
4.001721974071864 -1.645368308623552 -14.300276168186908 206 203 206
4.010487042416003 -1.6422956570204024 -14.339745019934332 206 205 205
4.020837236320525 -1.6488167831489067 -14.386947654204228 207 206 208
4.043305729613642 -1.6720853228576598 -14.489951568344665 207 207 209
4.067192777489796 -1.7030898450559544 -14.599826676155962 209 209 211
4.07251303153134 -1.6782588993084966 -14.622434998842314 208 208 210
4.065996629222062 -1.5822145351617527 -14.587317656696408 208 208 210
4.1699115401995765 -1.74594259873418 -15.066997314798057 205 205 207
4.354718362299732 -2.239645664973417 -15.931973313549781 97 96 93
4.350679402400319 -2.1587377310964895 -15.908951681983181 54 53 53
4.355752431711516 -2.129741051819031 -15.930197044638431 46 44 47
4.358780971475754 -2.08923744186008 -15.941518319237847 43 41 45
4.36471287188037 -2.0651630425537144 -15.966937885953485 41 39 44
4.357967369754027 -1.9699953865427 -15.930835680726904 40 38 42
4.153262457294509 -0.3989772855036362 -14.912586241342286 101 52 37
4.143883651421408 -0.2957387688420532 -14.864098190114738 101 52 38
4.132342633446018 -0.18122764083439957 -14.805167286087404 102 53 39
4.143701189459134 -0.19146723122873865 -14.857149663760218 105 56 42
4.155460391035847 -0.20367650286044192 -14.91106005034241 101 52 38
4.1893554944258415 0.3244055874668721 -15.03337586294398 97 44 31
4.20232761376368 0.3069101297845025 -15.093083373612714 95 44 31
4.206057486307281 0.3372661404183921 -15.108173065725303 97 48 34
4.212323052659205 0.35454846591173794 -15.13550084113161 101 52 38
4.217166363485289 0.37914267198775775 -15.155965586024873 98 46 32
4.216958987111035 0.429507490925765 -15.152069928214871 95 41 26
4.219760068305143 0.46438907552592035 -15.162692423805487 96 43 31
4.224940808256715 0.4871172976327909 -15.184793125012355 88 41 33
4.233677966551895 0.4918475286436337 -15.224038385836579 66 28 22
4.2434524718109925 0.4914488799235306 -15.2682773286989 60 30 24
4.270637931455361 0.4036221929137991 -15.396409764968109 55 31 26
4.288297584650418 0.36421831476003685 -15.478608133486517 47 29 25
4.338382131022001 0.2626006692971803 -15.711135744824409 46 36 38
4.352155943367082 0.24387314954673833 -15.774542110132622 51 41 40
4.431118161978 0.1545691465189103 -16.13697642624971 20 9 7
4.442397349800556 0.14959627749471238 -16.188290499106095 19 9 7
4.500070105254797 0.12111541678583126 -16.45084898810672 22 11 10
4.500802809897461 0.16740250873922324 -16.451445297305547 23 13 11
4.493893784861257 0.24985466305495851 -16.41535008069173 29 18 19
4.499787400073282 0.2713127878456376 -16.440750097934373 32 24 23
4.505592403852787 0.29319872276705183 -16.465724153957055 53 41 38
4.504917111967757 0.34560225843019143 -16.45959213380968 69 48 44
4.520856356979559 0.3198387037241037 -16.53320713537249 70 46 43
4.5400161454280905 0.2792934511781322 -16.622258476471444 73 53 49
4.554867261621418 0.2592329435526688 -16.690616364481926 92 79 73
4.577122979656812 0.20498191730144555 -16.79447716563371 116 108 105
4.552762482891726 0.36741805880566414 -16.674742310945362 140 131 133
4.554515493893421 0.4082604696680967 -16.68027376287133 151 145 146
4.555209620406146 0.4538794618403088 -16.680734794594038 159 154 153
4.568747986579164 0.5859869157852682 -16.734218606547763 174 172 170
4.588191738919667 0.5459169491360241 -16.824526564268016 180 178 177
3.9732174139617986 -1.785525590037322 -14.029451238557685 209 209 209
3.9793568269444584 -1.766595385412562 -14.056080008424203 209 209 207
3.987131347320257 -1.7578375229520757 -14.090620098985973 209 209 207
3.994098326457527 -1.7439725812016933 -14.121248493291521 209 209 209
4.0010724042209285 -1.730096224932561 -14.151908240807282 208 208 209
4.006217166853695 -1.7048621796022854 -14.173718241901527 208 208 208
4.018035145752545 -1.7207458015963217 -14.227794580619737 208 208 208
4.031910045790404 -1.749021390560694 -14.291801361755642 209 209 209
4.041384243551241 -1.75004284763674 -14.33452239229005 209 209 209
4.051578811255275 -1.7553130154575918 -14.38071632852007 209 209 209
4.061533782377341 -1.7589517321301633 -14.425743412082873 210 209 209
4.071517637013781 -1.762601800255263 -14.47090118071375 209 208 209
4.069754346398746 -1.6384118381427744 -14.456272629347861 208 208 210
4.081096372410195 -1.6501362098701193 -14.507981585664421 208 208 210
4.088477514370622 -1.6379168246617528 -14.540563732397082 208 208 210
4.093069846447886 -1.60897353765065 -14.55968617563671 208 208 210
4.401256428004643 -2.310998558658153 -15.985375884572004 156 155 153
4.393764562930576 -2.211055629913136 -15.946255047098415 101 100 97
4.388878733174666 -2.1261701659186976 -15.919681068224142 55 54 51
4.394246045861076 -2.098921580952008 -15.942384814267356 47 46 45
4.399843693658669 -2.0729731791027337 -15.966195865807148 44 42 45
4.39642502480133 -1.996976281663672 -15.946707746074486 43 40 44
4.170436251968218 -0.2720933461523707 -14.836104971974589 100 51 36
4.157488210588553 -0.1509922705291178 -14.771273446219908 101 52 38
4.164844003958026 -0.13952717222309996 -14.803782057477935 101 52 38
4.177011008252385 -0.15375827563770628 -14.859341204378536 101 50 37
4.188066648215888 -0.16183751692519177 -14.909564157938476 102 50 37
4.213529677760889 0.35650911294610665 -14.996320631695863 99 45 33
4.222554895435161 0.35947621236361815 -15.036804940960396 100 49 36
4.228903554945329 0.37621557861637633 -15.064494008912817 103 54 42
4.2326785882585725 0.40608037717469614 -15.079886211259087 100 50 36
4.239396786532963 0.4209689542780479 -15.109339124016593 97 44 31
4.245371909193936 0.4396580619942938 -15.135241013532594 97 47 35
4.249910876971074 0.46560846411888335 -15.154284306492244 88 43 35
4.255602345817712 0.4857415365283435 -15.178831032711699 67 28 23
4.26662575764155 0.4791613085719355 -15.22882812685419 59 26 22
4.292698444813666 0.3975478213846593 -15.350638625019457 55 29 26
4.309256947285835 0.3639555182602674 -15.427017029974145 49 29 27
4.332830720389609 0.29584856417016336 -15.536846597828932 48 36 36
4.4802077841889965 0.020134504031865674 -16.215390748670814 20 9 7
4.48510295126607 0.04642731283338719 -16.236019707649195 20 9 7
4.493681583914947 0.05499448756706915 -16.274191299521508 19 8 7
4.504449547651067 0.05315507916998019 -16.32278271262503 18 8 7
4.525650065859205 0.10126438944052207 -16.41566621320478 19 10 10
4.534694991422895 0.10801677298170453 -16.456035433196412 19 11 10
4.5406711814596274 0.12935654124421525 -16.48179938860362 19 11 10
4.548252107331193 0.14315230236490528 -16.515196351014644 22 13 14
4.559464658460508 0.1399575321187232 -16.565862903006607 31 25 23
4.56715645902745 0.15339600127369835 -16.599778418161815 56 42 39
4.574857470421062 0.16684949400448978 -16.633734604242093 68 47 44
4.582813829703154 0.17917306519618226 -16.668901569384673 71 48 46
4.5827108056512955 0.22894312529171224 -16.665757440479293 77 58 55
4.594511269951165 0.2235078140831286 -16.719192251328934 99 88 83
4.591615408509265 0.2860041920606271 -16.702785555680997 122 117 113
4.585688472099918 0.3622017616579001 -16.671990918152595 142 136 137
4.584652858523998 0.41566555574026864 -16.66444806173836 152 147 148
4.587732075672432 0.45014506085379047 -16.676458224404016 159 154 153
4.601769420773513 0.4346283088030001 -16.740509482212385 164 160 158
4.565883476753891 0.6461315122554172 -16.567511343325624 168 164 162
4.572573987182432 0.6636749323347679 -16.596696600718424 172 168 166
4.080326889551535 -1.5667346808342124 -14.350199048539071 209 209 211
4.442516970443556 -2.3516092766423755 -16.01252322346697 181 180 180
4.438845853223629 -2.2735697521423264 -15.992238323492684 159 158 155
4.431727242949479 -2.1767281750614496 -15.955575153412074 101 100 96
4.427040869921742 -2.093773388129632 -15.930497481218627 54 53 50
4.42751532485919 -2.0396268766437293 -15.929970203516703 47 46 48
4.431367804966304 -2.0042295898075633 -15.945507153060284 47 43 47
4.234469189625851 0.4043498415914657 -14.94465271453118 101 49 35
4.248468717445908 0.3821143694913367 -15.008508407304952 107 57 44
4.2552151219888295 0.3968077269505219 -15.03803498830071 105 56 43
4.2622128741603404 0.41027753139758616 -15.068748446819901 96 46 32
4.268736145131827 0.42618229732102186 -15.097215240863264 97 47 35
4.276580885489057 0.4355023618970204 -15.131929530134798 90 44 35
4.28740008400358 0.43003933511213344 -15.180704256123423 72 32 26
4.2938510384701445 0.44649567228830467 -15.208819785605222 64 30 26
4.306783557838527 0.4307996954523503 -15.26757105215631 58 30 26
4.325490524486303 0.38673893393637737 -15.353602079032068 48 26 24
4.344570937139491 0.34122770442755357 -15.441378524762184 50 34 33
4.366997680118162 0.27964915782348765 -15.54494562012032 38 28 29
4.456435334681359 0.08922987048121644 -15.95526637514553 41 31 31
4.51174782771214 -0.02866179295821425 -16.209034458752722 24 13 11
4.516093042482474 0.0003047056395635295 -16.227095800138393 21 10 8
4.551947648355707 -0.021380581847543212 -16.388909808996345 19 9 7
4.558232773628238 -0.001418047281993573 -16.416109971887444 20 11 9
4.5658694749496105 0.012182378793860416 -16.449681698247296 21 11 10
4.560136418914457 0.0887756967240021 -16.420223178155616 22 12 12
4.567038547133042 0.10575091316661123 -16.450336067507386 20 11 11
4.57347259769459 0.1249529561213647 -16.47824120560962 21 11 11
4.580455166817667 0.1416190829677486 -16.508729897231316 21 11 11
4.58937881401917 0.14929381374595518 -16.548362028955896 34 25 23
4.595376089040363 0.1706330742893174 -16.574204148996774 56 42 39
4.607087919246004 0.16555649878082246 -16.626961964138058 67 46 44
4.622978345733406 0.14138028413431591 -16.699390474076424 71 49 46
4.620195022937593 0.20333054876604084 -16.683874673580824 87 67 65
4.627199935583518 0.22018713679412194 -16.7144542033067 108 97 94
4.622695771681789 0.28967849609222096 -16.690853474397226 129 124 121
4.617112572452866 0.3638133987143233 -16.662187344130977 145 140 138
4.611996618648197 0.43552464620277753 -16.635734883109933 153 149 149
4.606694970411392 0.5077900501143722 -16.608422710995136 160 157 155
4.594053955926318 0.612911772133315 -16.546594413405153 165 162 159
4.625883103432542 0.5652903955485309 -16.691632118698912 173 169 168
4.085220745566156 -1.629713141427274 -14.22636599483761 210 210 212
4.477855661858557 -2.3588252347104675 -16.01119143075845 191 189 190
4.476816267391831 -2.2958071873365675 -16.003764064828264 182 180 179
4.470416749437096 -2.2035767620285878 -15.971118838916272 158 156 154
4.465336840051596 -2.1189780884977045 -15.94470146055373 102 100 97
4.4607413306218655 -2.0373839880871216 -15.920579177286132 55 53 49
4.457355402975738 -1.9627166173340314 -15.902162434663982 51 46 46
4.275551383143369 0.20283084579291533 -14.994856349097656 101 49 35
4.2757557886453785 0.25091492571356167 -14.99364150002621 100 48 33
4.259123178689786 0.3839239994874646 -14.913515686853561 99 50 33
4.268749333722494 0.3839807533190376 -14.956480588676236 105 57 42
4.277862071641204 0.3867458423942223 -14.997033979633262 111 63 49
4.287079522903378 0.3890999251802221 -15.038072953118604 97 48 34
4.292297206447519 0.41154294885570675 -15.060369785863347 97 48 35
4.301213960987785 0.4155664564012511 -15.099992710904152 94 49 39
4.313702334202743 0.40196653011638794 -15.156337612026837 75 36 28
4.319012643387519 0.4241039303065106 -15.179061410368602 66 33 28
4.330755844824465 0.4144962456905201 -15.231903538016487 66 37 34
4.345126470963865 0.3921483480493171 -15.29703709374925 54 30 27
4.3653729393343905 0.34123843249438846 -15.389661705504459 49 32 31
4.38834029357777 0.2774519134809941 -15.4950009535652 37 26 27
4.40081310010964 0.26535205620064417 -15.551210008138785 23 15 15
4.432187731801176 0.1615496555049889 -15.695846372587358 18 10 11
4.44117549925781 0.16702232893377733 -15.735722160691502 17 9 10
4.455014552566227 0.14914668401291653 -15.798285129934317 17 10 11
4.4669589302936705 0.14064105309675767 -15.851976475543651 24 16 17
4.478941241765718 0.13213701627207097 -15.905837072114595 37 27 26
4.506262798514141 0.05032690709678622 -16.031409149024714 39 26 25
4.524426321844395 0.012879982014514901 -16.114140702552703 32 20 19
4.542954535840262 -0.025948184496562554 -16.198561199396835 26 15 13
4.55494305998238 -0.033356741605542695 -16.2524010629784 21 10 8
4.5662725715896695 -0.03746548710479214 -16.30315336748967 21 10 8
4.577103290590249 -0.03905920909972238 -16.351567991344034 21 10 7
4.583495859955993 -0.019617268785967035 -16.379241825183204 22 12 8
4.593518158212589 -0.01718784078229252 -16.423869989393218 25 14 12
4.5977876939883835 0.01228229165231376 -16.441623780505886 31 17 16
4.592695579239523 0.08539198659527703 -16.41566019361592 36 21 21
4.596711413370125 0.11584019760990127 -16.43223828912901 35 20 20
4.602580970664683 0.13764770255334646 -16.457472948088746 32 17 17
4.6107885107313 0.14865117251243287 -16.4936214225581 32 19 18
4.621953577275115 0.1460893868228217 -16.543571270881287 37 28 24
4.629801296088493 0.15892941155715956 -16.578032394172677 56 42 39
4.639200728357578 0.1647176038210274 -16.61973173538239 66 46 44
4.645548273137186 0.18455598914614768 -16.647187058283684 71 50 47
4.659620408379873 0.1692147515543212 -16.710678292667357 94 78 74
4.662682508285697 0.20412334201900784 -16.72280196267295 116 108 104
4.655369899520419 0.2859616199336914 -16.686540802215447 137 131 130
4.651177891594204 0.35336064959692237 -16.66484758150702 150 145 145
4.647008264425787 0.4203990228857091 -16.643270215206222 157 152 154
4.6388957326026 0.5048839468155117 -16.60332142189345 161 158 159
4.653131595204793 0.5844970188484204 -16.663342700688037 173 172 170
4.511113795161223 -2.297699522330854 -15.997901983588637 193 191 192
4.512912623751145 -2.2507348524467865 -16.00404087603403 182 180 181
4.51511545092855 -2.2060947158949924 -16.012066952648794 158 157 155
4.508898967647115 -2.11604839021999 -15.980884164164898 104 100 95
4.503522648502772 -2.0309213033550915 -15.953629365396836 58 53 49
4.4462143660880376 -1.6122426227196076 -15.682414241861531 50 44 44
4.29026741223556 0.23342154459578968 -14.916484411975174 101 48 34
4.303600267354027 0.2150527138447833 -14.976461060105795 101 49 35
4.303606019971208 0.26384077058156663 -14.974559516211349 101 50 35
4.299383754585939 0.3336387698117642 -14.953038814592068 103 55 38
4.305989834695059 0.34910319809700674 -14.981785335801288 118 71 56
4.312391459054355 0.36562345143944075 -15.009581552857785 104 55 40
4.318451249666324 0.3838720798151183 -15.035790393739859 96 47 32
4.3263200430532205 0.3931921062420374 -15.07039110264304 97 52 40
4.333813294922149 0.40443925221402655 -15.103246788018264 78 40 32
4.347449331557153 0.3855351092223671 -15.164591916664698 66 33 27
4.354487003235904 0.39923155315881864 -15.195326261545386 64 37 34
4.3637563865385545 0.40206454473359354 -15.236407414530838 57 34 32
4.387212410710537 0.3358444719836129 -15.34326143844012 55 38 36
4.401270251876633 0.31582917439621294 -15.406524952738746 39 28 28
4.424018127651621 0.25394288043920543 -15.510060789112728 20 14 16
4.441390646451503 0.2185279697381235 -15.588662979116004 17 9 10
4.4728725306225465 0.11546788487427406 -15.732639017341851 15 9 9
4.484912315031379 0.10654985600676614 -15.786495968166435 16 10 10
4.490900248058954 0.12680644526654827 -15.812306160956354 23 18 18
4.502801215611321 0.1188360278793903 -15.865508780665134 24 20 19
4.515262026534204 0.10837949676792302 -15.921297539700223 33 23 22
4.543613935721873 0.022664822193309675 -16.050678860918218 37 23 22
4.564246081953779 -0.025866616203181536 -16.14428490308177 33 21 19
4.580716764483668 -0.0543355876547853 -16.218604979125928 23 12 10
4.586868233828715 -0.033935532565442905 -16.245136258979652 22 11 9
4.600965974124975 -0.05080898940571554 -16.308452983212995 22 11 9
4.608792947154785 -0.038107713645215924 -16.342734284851396 23 12 9
4.616026041071619 -0.0225746226248571 -16.374264537563292 25 13 10
4.622729941545878 -0.004535240036343424 -16.403344061932952 31 16 14
4.630143142070367 0.010244556068005117 -16.43570446161347 39 20 18
4.630727169132862 0.05665400949602173 -16.436466717956073 43 23 21
4.636349020370839 0.07969910693941795 -16.460539901662592 42 22 21
4.650793522730363 0.062184496991594784 -16.52542295863598 40 21 19
4.658501419315864 0.07578759146598113 -16.559139464166194 39 22 20
4.658437030416749 0.1249696604286683 -16.55691064868865 39 29 25
4.663713854015401 0.14965965913327928 -16.579385559773957 52 40 36
4.673939127981911 0.15185654140965532 -16.62473980822633 64 46 43
4.688165579843897 0.13604923418002635 -16.688586413008284 76 59 55
4.6944995243805625 0.1561221193396296 -16.715941534031906 102 90 86
4.6958182567665165 0.19880209489424416 -16.720116127007763 126 119 116
4.694301064782998 0.2541041716352037 -16.71118933002255 142 136 138
4.682999607582652 0.3530294680294572 -16.657058247992904 153 148 150
4.691278249932924 0.36409529951848096 -16.693411363365314 158 154 157
4.676814835109337 0.5716343924611857 -16.620938369490947 169 167 168
4.546046707639659 -2.2466757117592184 -15.993085193221681 191 190 192
4.554608243225087 -2.236415464729123 -16.030609036995322 182 181 181
4.5526407758611995 -2.169681680897721 -16.01958141562652 163 158 157
4.545230695999814 -2.074134903372439 -15.983469947219302 109 104 100
4.522767002081887 -1.898861952388966 -15.877978418878723 59 53 49
4.3244834442201 0.2141292134461823 -14.927127099599758 102 48 35
4.334181516241648 0.21430740036658502 -14.97003047858188 101 50 35
4.32623871945587 0.3023824801574362 -14.93182200880389 104 52 38
4.332102557278935 0.3215795744945149 -14.957098740624382 115 66 53
4.338442015930935 0.33844035948797124 -14.984561187608687 116 69 56
4.3451484254913115 0.3535213575880203 -15.013709166442748 100 50 34
4.351826389906675 0.368782592749219 -15.042725015773105 101 52 37
4.368392199729737 0.33560430973788424 -15.11717589840498 88 49 41
4.374919989233362 0.3518200834352223 -15.145494071864196 76 41 35
4.382205272712424 0.36437789742241655 -15.177291117675512 69 38 34
4.393212230774675 0.3589041844637926 -15.226182422478146 59 35 33
4.406606330875903 0.3420241872453156 -15.286032712010691 54 36 36
4.424071280479484 0.3057036449799613 -15.36457123818344 48 34 34
4.435983780404248 0.2964737933311854 -15.41759987706969 24 13 14
4.456827090499495 0.24452994256931682 -15.51162984193306 17 10 11
4.480227876029106 0.1807713452807116 -15.617386655024085 16 8 9
4.504451292693024 0.11358779829549803 -15.72690243370764 25 16 17
4.5168272990306475 0.10333850599891203 -15.782017357295269 63 58 57
4.52738278296544 0.10192420709950234 -15.82876981768587 81 76 75
