ply
format ascii 1.0
element vertex 708
property float x
property float y
property float z
property uchar diffuse_red
property uchar diffuse_green
property uchar diffuse_blue
end_header
2.838818964733059 -0.10847059962078909 -14.289643426625892 72 19 6
2.8625124341847035 -0.039125068612760217 -14.261167417920907 70 16 4
2.869296978916726 -0.044181205674847845 -14.302647539924047 64 14 6
2.8761910599878306 -0.048861121350075365 -14.343885178434038 61 17 7
2.8831960886959696 -0.05315623815131332 -14.384869777666331 64 22 9
2.890418744111292 -0.05658980739683095 -14.425145346943275 68 24 11
2.8973333940133066 -0.061498858366951126 -14.466934707971447 66 22 9
2.9019364728596146 -0.07684682825884082 -14.51882086797674 62 22 10
2.909127364037742 -0.08076588567173637 -14.559916632821112 47 10 3
2.9162102843096545 -0.08527670163217493 -14.601691542239534 50 11 3
2.924207864588661 -0.08578095863833557 -14.639718302278858 90 45 21
2.9324577778391063 -0.08523789454557207 -14.676826577021323 98 55 20
2.9400615898926734 -0.08770422253412402 -14.716939550158056 89 38 11
2.946924263447776 -0.0936339032604403 -14.760521703493868 85 31 11
2.953510301914739 -0.10094166130237525 -14.805568808807577 68 26 12
2.9599105848646423 -0.10922418574160986 -14.851698046881985 40 10 3
2.9663337874273696 -0.11753583549375257 -14.897991409983181 39 9 1
2.9752295284952504 -0.11465495789837199 -14.933431706025047 50 13 2
2.9802616527393977 -0.1295979932520046 -14.986497237938352 54 16 4
2.9865930535195657 -0.1387287035744187 -15.033997448729075 40 10 1
2.993315325240841 -0.14619642734890004 -15.079993899978358 32 9 1
2.9966036563815623 -0.1696934961572385 -15.142029314352467 30 13 10
2.991491174152373 -0.23239831150742507 -15.24328951360587 23 6 7
2.9924762080419054 -0.2671563892645237 -15.317097876768464 22 5 6
3.0086105385442026 -0.23151441301389486 -15.320776909017116 21 7 7
3.0217686126180734 -0.24959458728666117 -15.417708932511562 7 0 1
3.020796295917189 -0.2943722147039187 -15.502418331218053 7 1 1
3.027003236080437 -0.3056347865446929 -15.553589698306771 9 3 4
3.0277954331449832 -0.34266483457862495 -15.631031831441526 11 5 7
3.056827277986723 -0.2460934992558519 -15.573026112462966 14 10 11
3.05822093746112 -0.28050744895569757 -15.648040465503353 16 14 15
3.0853985151545285 -0.19227816105389195 -15.59807088673017 18 16 17
3.1020250245417875 -0.15410855261497147 -15.598992498268167 20 18 19
3.1193318359513347 -0.11256746254908734 -15.59634634214557 20 18 21
3.134088833415401 -0.08315644885341733 -15.606063410030687 23 21 24
3.148831227833465 -0.053754064133869406 -15.615730069485831 25 23 26
3.163365585338115 -0.025295449122064717 -15.626313962743593 24 22 24
3.184979812126559 0.037550901677411375 -15.601161102983927 25 23 24
3.2023897546909685 0.08020685372289105 -15.59677121992073 22 20 21
3.2203751617212517 0.12580939642843258 -15.589174768483705 19 17 18
3.2276872191792876 0.11936545935112886 -15.635861746978346 19 17 18
3.2452404519837192 0.16301399593753008 -15.630157653256937 18 16 17
3.2610353135714645 0.19816016432562478 -15.633253024855614 14 13 13
3.272674508190073 0.21290048959497643 -15.657765660065017 13 11 12
3.2944419566268808 0.2777432674230269 -15.629344609580652 15 10 12
3.306287234023954 0.2936135862992426 -15.65255995131648 16 11 12
3.322820698446982 0.3328098774549977 -15.651005383468902 15 11 12
3.3357827041773787 0.3542984298264953 -15.668197046426286 15 10 10
3.347861679852321 0.3713841014691788 -15.69007287047545 15 10 8
3.3574365505836496 0.37588262794516325 -15.725434130730767 28 20 18
3.495183962146946 0.2080971320270253 -16.697368657451158 121 120 122
3.5107254093938947 0.19213072657727182 -16.801122452664742 126 124 126
3.5243162295851898 0.2152765040823228 -16.81792331467152 129 127 128
3.6060373019108254 0.35574952516957214 -16.91635951692222 155 155 157
3.6606164848711744 0.5028735052931159 -16.875900700754496 169 170 172
3.6736049064178764 0.5232488382173548 -16.895432512715132 172 173 175
1.9328722925559543 -2.111197006173562 -13.928577596718647 114 60 53
1.9685615062450807 -2.001893920729601 -13.876873182018105 115 60 50
2.0346322295941595 -1.772381618042174 -13.727447647321721 112 61 53
2.0516978791518743 -1.7357919356912754 -13.733720124918971 114 72 62
2.0749664001634143 -1.6745682810353726 -13.719860674015372 114 60 45
2.0942849893659155 -1.628855600690196 -13.71847361598258 122 58 35
2.112564586382705 -1.5871695738321145 -13.720261792367968 137 72 43
2.1297937785194994 -1.5495783458938641 -13.725307367957527 148 83 55
2.147444196606635 -1.5102324320397686 -13.728824006276554 121 56 36
2.1665215372425726 -1.4651003902913775 -13.727473614009927 117 51 31
2.170424443739873 -1.4806536593408266 -13.776207178970516 120 54 33
2.1665559310166147 -1.5275309058427284 -13.851074459652946 121 58 42
2.1878591329648573 -1.4734314974954117 -13.842247509853458 130 59 37
2.2969206941392515 -1.190473529846015 -13.785201263095647 105 41 24
2.3246616080362914 -1.109296656403143 -13.752492819486708 117 51 35
2.3446905524854063 -1.0593138563839926 -13.745935116857936 113 51 35
2.37520219207907 -0.9663708440596892 -13.702726325606475 147 84 50
2.3947165663224648 -0.9181494389702287 -13.697280794573519 149 78 37
2.4054148573180654 -0.9059729901182898 -13.722490956998604 135 58 20
2.4237669870198433 -0.8623557665782906 -13.720794777057414 150 74 39
2.4397333928096288 -0.8284606288344945 -13.727330966057902 165 92 59
2.4512566896185195 -0.8128397652650277 -13.74953131906886 138 63 39
2.4638909414538386 -0.792632828576461 -13.76778183871726 126 52 30
2.4894534349965576 -0.7188293478223304 -13.73961678295498 119 40 18
2.5001037628829375 -0.7067313236510397 -13.764761049565688 121 36 15
2.529969171167613 -0.6146783410070888 -13.72033494520372 129 46 22
2.5244405831270447 -0.6699430104820872 -13.804138615799767 125 42 18
2.532574701165868 -0.6684078683533308 -13.838576597380303 124 41 17
2.6734500122216605 -0.4026780562134915 -13.9621591703035 124 47 24
2.6973263173444213 -0.33398653699330083 -13.936333709836159 123 52 30
2.719572193843514 -0.272062605672029 -13.916378357839832 120 48 28
2.7391407931303875 -0.22145246638343785 -13.90645945008789 107 27 7
2.75855078968843 -0.17137710018153296 -13.896867263601308 104 22 2
2.757894173780181 -0.2078317149282416 -13.965923130045441 107 30 3
2.7715490503244125 -0.1825731035542475 -13.978887047039324 128 67 30
2.7852552131922694 -0.15705687113288302 -13.991577848914897 85 27 6
2.796898282018941 -0.1404768599586088 -14.012433484168488 115 45 12
2.807407535520821 -0.1288438701774739 -14.037847331359503 112 35 1
2.8186922952095506 -0.11384995979816548 -14.060188418363964 97 24 1
2.8183492816622686 -0.1497911563973231 -14.12967386194748 91 22 4
2.823625787075639 -0.1613147515196376 -14.176767732897133 83 19 7
2.8318290644819695 -0.16009759765008535 -14.212153078169845 69 13 3
2.828851216539401 -0.20827115423565346 -14.29368676034084 61 12 1
2.8638563546279046 -0.08884037893566799 -14.218805607511289 66 14 3
2.861038184152531 -0.13653442261088777 -14.300126784322464 74 19 6
2.873186793495448 -0.11805912543326347 -14.319563909072647 70 16 4
2.886562078948644 -0.09411822747180132 -14.333845250941112 67 14 2
2.899697716777282 -0.07121692643541166 -14.349078121566247 77 29 12
2.9064926600038645 -0.07666054698658797 -14.391145550982557 97 50 29
2.913283049812554 -0.0822376535038396 -14.433455941755458 96 45 25
2.920095299693742 -0.08783087729253847 -14.475898908842737 87 37 16
2.925923625984939 -0.09797412318683385 -14.522805652492657 79 32 14
2.9331334486510183 -0.10201355098761056 -14.564007928576746 51 12 4
2.9398225477222626 -0.10852059522970059 -14.607690423218983 54 16 5
2.9469347407575333 -0.11322825070509257 -14.649764196515406 94 50 24
2.9535816449917887 -0.12016772248935315 -14.694107330982842 95 54 24
2.9621481336807234 -0.1184718553422126 -14.730219419775787 72 27 9
2.970470341929779 -0.11797621581549578 -14.76757930554011 59 17 7
2.9777544796414395 -0.1223315950915227 -14.80974866992337 41 9 3
2.984891605643901 -0.127477665142381 -14.852804174735976 36 7 1
2.992321339784402 -0.1313939380524829 -14.894776058194232 45 11 1
2.9984663106503096 -0.1413631628070684 -14.94279747602684 64 24 10
3.0040133278309056 -0.15424978861659788 -14.99383266671284 68 24 8
3.0106108142780115 -0.1624170976005841 -15.040375910197026 67 25 10
3.0167268479847666 -0.17296595645967194 -15.089410113248844 64 28 16
3.0201805311142365 -0.1961038289949757 -15.151070992512313 43 20 14
3.025149784392284 -0.2123626084556287 -15.206112140794147 23 7 4
3.0301418730942036 -0.22869850426708727 -15.26141097082463 21 7 5
3.0120741118692385 -0.3538098904502478 -15.42555371723819 19 7 6
3.0216845053193753 -0.3490064831345201 -15.460330544776127 11 3 2
3.0264919410646476 -0.36701729076726064 -15.518090453878845 7 1 1
3.0494288863509524 -0.2991583801821882 -15.489583717893868 7 1 1
3.0526830650957804 -0.3247284670906243 -15.555134653205094 8 2 3
3.051999230678251 -0.36933991815154954 -15.640193446976543 10 4 6
3.076823514921287 -0.29219906017784414 -15.602028588536506 13 8 9
3.089551134599864 -0.2727980609741678 -15.622302809408982 14 11 12
3.104658250331441 -0.24193860360325647 -15.630882681570322 13 10 11
3.125298777507424 -0.1842996514561852 -15.612004172778802 14 11 12
3.1438815369647566 -0.1364007888592882 -15.602904505366912 15 11 14
3.1621375172916335 -0.08992114884528757 -15.595105582134831 15 11 15
3.1660823539016283 -0.1129539100468353 -15.658821341135091 14 11 14
3.182279826686701 -0.07640278105730758 -15.661170412329184 15 12 14
3.21629163343415 0.0474809011608901 -15.572908414512888 14 12 13
3.2336431512738932 0.09016276849386617 -15.56845193510134 11 9 10
3.2514448762293724 0.13520418426153302 -15.561404052381548 12 10 11
3.2395482590621594 0.03370591184382299 -15.707287223800815 12 10 11
3.255147992127776 0.06772113377429001 -15.711896734436285 12 10 11
3.270714509905917 0.10166390916321255 -15.716496471131862 13 11 12
3.2864303532218058 0.13644366980439937 -15.720129190078534 12 10 11
3.3085755426106043 0.20346004111364024 -15.689640816478876 15 9 9
3.322816527778697 0.23114042422512782 -15.70051638738557 16 10 11
3.343153226864083 0.2895329939475273 -15.678748050869935 17 11 12
3.3598741859675485 0.3299314210050319 -15.675901619049434 18 12 13
3.372890077777713 0.3517189052088048 -15.692785151049364 24 18 16
3.5541126208999105 0.21482154983630863 -16.79835020833397 128 126 127
3.579769061585708 0.25302562984247157 -16.841007822285913 135 134 135
3.6691993224100954 0.49008687256555294 -16.78427189955161 159 159 160
3.680274632575669 0.4998733459559883 -16.81594460861563 163 164 166
3.695570911623825 0.5333910977673053 -16.820139761243958 167 167 169
3.7093057126083697 0.5581826900706943 -16.834395311090724 169 170 172
3.721952988795346 0.5768422498813432 -16.855765425172468 173 174 176
1.8718539182681693 -2.4105774844858487 -14.080660594878491 126 87 83
1.9535527183732837 -2.1510555604416606 -13.945955998017396 113 59 52
1.9898470496396228 -2.0387392217618467 -13.891952509037619 115 59 51
2.0590471420600687 -1.7952929115174108 -13.731489011600193 110 62 55
2.077790061441192 -1.7519059156951213 -13.73228107803748 129 84 73
2.100180493268103 -1.6938726604786938 -13.721054783875188 132 72 52
2.1183747800624175 -1.6524601599774504 -13.723206174644062 119 51 29
2.136437976385766 -1.611484288487448 -13.725613369101218 120 54 30
2.154451602783326 -1.570620176819138 -13.728012607059133 126 59 34
2.172415429594834 -1.5298691017028023 -13.73040534100976 118 48 28
2.176854352403779 -1.5435092825710433 -13.777525222180415 114 44 26
2.192159985904833 -1.5134175107126033 -13.78864823743994 120 53 35
2.1896870542063316 -1.5551723833997828 -13.859250272425626 118 57 41
2.218508296622505 -1.4703676945338033 -13.824972291333223 130 59 37
2.2329774573040044 -1.4435663889864951 -13.838717377396584 137 60 29
2.322490221317321 -1.206556110014687 -13.784016513639756 110 45 29
2.3457906385539498 -1.1431083171150354 -13.766336895297272 117 51 36
2.3729640380291817 -1.063562910954083 -13.734824527766161 115 54 38
2.3959461529979564 -1.0010236337967466 -13.71746839379718 136 72 42
2.418326835684826 -0.9407833852275012 -13.701866368650013 154 81 39
2.4305342560221046 -0.9224273526304403 -13.721814609990755 151 74 34
2.448162842782457 -0.881611106985031 -13.72254239523485 166 94 53
2.4658638705954803 -0.8403991045788262 -13.722825680648798 169 99 63
2.483624059859909 -0.7988437865750191 -13.722706491192625 134 62 37
2.500739013751653 -0.7598790433941929 -13.724712709815732 132 56 33
2.5170087115453614 -0.7243564257517612 -13.72959834638165 114 35 14
2.531235750563278 -0.6973100054753258 -13.741752301656998 121 39 18
2.5351808543738996 -0.7133579411999476 -13.791333058454477 125 42 18
2.547057568249752 -0.6962051673671521 -13.812126319061958 126 42 18
2.569255065719128 -0.6355735729544776 -13.79491641770624 122 42 17
2.7439683487530755 -0.1890769495362985 -13.719756601355662 122 42 21
2.7239483470169477 -0.34225588680434527 -13.928566279107187 130 61 38
2.7433075119525405 -0.29243958404378745 -13.919566844209243 116 40 21
2.771887673104493 -0.20249943338234377 -13.874105623470882 104 23 4
2.7814059503886153 -0.19506117806596635 -13.903149475945483 104 22 2
2.7817809652208227 -0.2274912146192829 -13.96851001291113 119 44 11
2.7969932730846017 -0.19538076078740563 -13.975243648169446 120 63 26
2.8080397776568216 -0.18143048479754054 -13.99851506702115 91 29 5
2.8191826615986306 -0.1670743282080176 -14.021431874762285 116 44 9
2.829674640462772 -0.1555944616511491 -14.047008786443325 109 32 2
2.833149460542579 -0.1750618590184132 -14.10114371299066 97 23 1
2.8297792201379175 -0.2249351789594085 -14.183563380539944 92 25 6
2.8215742372759087 -0.29653123717465846 -14.286444996043839 78 16 3
2.854096036284001 -0.1878266210910935 -14.22223234389205 66 13 2
2.843024725120799 -0.27259450499442295 -14.337820559040512 61 10 1
2.873789713838412 -0.17131539779107996 -14.28012494082019 67 15 4
2.885169039519671 -0.15627865884261194 -14.302790237516938 74 18 5
2.8970198094557174 -0.13914272412864204 -14.323497591884454 70 16 4
2.9086027534869787 -0.12321257164482535 -14.345343221501103 79 25 7
2.9222241754433997 -0.09811347154560934 -14.358541901572735 105 55 28
2.929642406856056 -0.10097523570125855 -14.398170047677134 97 47 19
2.9372691353933806 -0.10299539288068527 -14.437102561463387 92 39 17
2.944916032863751 -0.10502224655746506 -14.476140689991912 85 35 15
2.9494927532762247 -0.12110812199516552 -14.528691827615834 69 26 10
2.957401805668749 -0.12217368640705217 -14.567045475843276 47 10 2
2.9642644836253282 -0.12811637361071515 -14.610172482260703 52 13 5
2.970459532564594 -0.13723835943019402 -14.65647754215465 63 18 5
2.9779872755351158 -0.1403765590742827 -14.697150273245555 61 16 4
2.9855365988522924 -0.14352311445816035 -14.737938346451028 50 8 2
2.992548263807462 -0.1492603427945456 -14.781345254995948 51 11 4
2.998927613113272 -0.1580468544115412 -14.827836983130481 42 10 6
3.0031591289221486 -0.17693988550482853 -14.884314174412077 37 5 0
3.0107016433184706 -0.18062024964284085 -14.92611858215033 65 24 9
3.0182664606865846 -0.1843107110207054 -14.968045062741536 99 51 25
3.0251326602810633 -0.1913837249466539 -15.013406383153782 85 32 6
3.0337864374359875 -0.19020713102379183 -15.05077451362337 76 28 10
3.0398077346446937 -0.2014993842058006 -15.100541891533457 61 25 13
3.043685764136249 -0.2230544237972767 -15.160622326649504 30 9 5
3.044125272662206 -0.26107889941641815 -15.237257161752101 21 6 3
3.0472520352099948 -0.2866696582648878 -15.301812825757438 21 7 5
3.0508956773300175 -0.310042462552774 -15.364385812106423 18 7 7
3.0574578993851897 -0.31973327330814705 -15.413490609844168 9 1 1
3.0668886035903653 -0.3158696219973214 -15.449147792740419 6 1 1
3.0791891407791576 -0.2983333327442068 -15.471131644456925 5 1 0
3.0803580237276247 -0.33429763831315906 -15.547067717450755 7 2 2
3.087286624153158 -0.34280923495770743 -15.595538235198852 8 2 4
3.1035604662745357 -0.30631078105506404 -15.598527879841132 11 5 7
3.111738153257189 -0.3089473112054373 -15.64119608598574 11 7 8
3.1330187015669217 -0.24802445736043932 -15.61921045186072 11 7 8
3.1556646655603253 -0.18020556755207728 -15.589952305373096 12 8 9
3.171352435718138 -0.14611458195685945 -15.594979288532619 12 8 9
3.168936985328094 -0.2006735026375681 -15.690971698141706 10 6 7
3.182286102124568 -0.17815564118482818 -15.707987329418522 10 6 7
3.197979552638974 -0.14405625061759686 -15.713023862677701 11 8 9
3.2136956755968984 -0.10975373153971191 -15.717765725883567 11 9 10
3.2276815870921687 -0.08393917293106234 -15.731231545643585 11 9 10
3.2440105477849626 -0.046426934924130414 -15.73248444314213 11 9 10
3.260297927760936 -0.009009013987357761 -15.733731784349494 12 10 11
3.2765430482191444 0.028310774751092893 -15.734977943856421 13 11 12
3.2927465675527503 0.06553527931073244 -15.736220351369862 14 12 13
3.3137004669181955 0.1267871080230405 -15.712091465316643 14 11 12
3.330110031016895 0.16535364965136523 -15.7116449462252 16 11 11
3.3437468759530256 0.19000055598699994 -15.72580173058216 17 12 12
3.363397857040916 0.24524051415156212 -15.707496806656529 19 13 13
3.376461797897531 0.26714059875846363 -15.72441725500914 22 15 15
3.383246748362285 0.25696517269987584 -15.77549426549019 29 20 20
3.390552775034551 0.24928374147830645 -15.824066134722077 36 26 25
3.3971814230877766 0.23795418319116113 -15.876691390930409 46 35 34
3.3992821101503643 0.20307068882571677 -15.954778737047901 57 52 50
3.4056593954092342 0.18998725471589406 -16.009693336772102 70 66 67
3.594833578785796 0.27501937423761014 -16.710178476131667 126 125 127
3.697689746301525 0.4846822174491603 -16.770323339436217 158 158 160
3.716268444766163 0.5370473123021249 -16.75274372671603 162 162 164
3.7259960965283923 0.5391720229942836 -16.793174916961533 167 167 169
3.7584457186218807 0.6177389967370583 -16.78777382871882 173 173 175
3.7728354368596735 0.6466704070835094 -16.79697453089688 177 177 179
2.0389338247343782 -1.9648033459303376 -13.81773802184771 114 61 50
2.086200863538037 -1.8073457954410683 -13.72674533604185 112 64 55
2.104651287885429 -1.7649420095882302 -13.728347935547694 133 89 72
2.1231258976101266 -1.7223489161165029 -13.729692182013444 160 97 62
2.1438344368395774 -1.6706674157060952 -13.723528723761081 156 79 38
2.162307706484659 -1.6278747491415935 -13.724478145763094 152 83 43
2.1805541970838367 -1.585903632203821 -13.725992869650927 154 92 60
2.1867399755873933 -1.5926878575199561 -13.767433371532 129 58 37
2.2037992164316793 -1.5554449989257169 -13.77273970903104 117 46 28
2.2192783749001825 -1.5245524002060442 -13.783204273174064 122 57 38
2.22680322522184 -1.5260173430578714 -13.820394812777604 114 54 39
2.2477914256002727 -1.4725996827112144 -13.812125972583452 129 59 37
2.256956391120211 -1.4674042029763905 -13.84382812090535 136 59 26
2.349411082951006 -1.2170771736866373 -13.778152619033154 108 42 26
2.3686220078043085 -1.1701696921499094 -13.774453652048829 117 51 36
2.3933309275314 -1.100379580254888 -13.751274432815421 115 54 38
2.422283310251054 -1.0127701132843834 -13.712752068380308 122 59 35
2.442074273592203 -0.9629624431938986 -13.706051212079593 129 57 25
2.4550330777301017 -0.9414869346660497 -13.7233566501443 130 55 24
2.472448014701101 -0.9013923400523671 -13.724731754465672 147 77 41
2.4904892849115323 -0.8585842980041658 -13.723679937402604 150 81 46
2.5090206065247274 -0.8136167107039833 -13.720658157936914 130 56 29
2.524846600073907 -0.7799005568658313 -13.727205942405217 127 48 27
2.5450051849799133 -0.7278752655725302 -13.717863339237091 113 32 12
2.542021492305158 -0.7733481805238318 -13.792816012545064 120 39 17
2.550827775597921 -0.7692400604770899 -13.82499928397992 123 40 17
2.5679367401999174 -0.7300088463237149 -13.826659790726705 123 40 16
2.5899394549189503 -0.6699032848330386 -13.809994308390658 125 45 20
2.600885304853126 -0.6566702564032747 -13.834168186129673 127 45 21
2.748399625911028 -0.35986084334676693 -13.929205854657473 132 65 42
2.7698200387165866 -0.3007939560450872 -13.911906253073013 112 35 17
2.7976317932130157 -0.21359696091596359 -13.868982367457672 101 20 1
2.8101609036118598 -0.19304168994809157 -13.886119385620635 104 24 1
2.805318511480201 -0.2487638516777766 -13.972552979878037 120 50 14
2.818132978516813 -0.22710162601691053 -13.988836111616202 107 48 16
2.831078094357271 -0.20484391506044553 -14.004555588195302 102 33 8
2.843245118549079 -0.18600548720134746 -14.023384244261624 118 43 10
2.856409572501922 -0.16273944808955054 -14.038140675214596 104 27 1
2.857864953126268 -0.19147678969553272 -14.100753695495346 93 21 1
2.851166031362966 -0.2567555532409287 -14.197329044211823 91 24 7
2.8487761550020676 -0.30319208354817917 -14.276868247686853 75 15 3
2.8770461162497165 -0.21271665170252962 -14.229649816636936 62 11 1
2.8678089761334995 -0.2901618270571138 -14.33833938891977 61 11 1
2.8933098170497336 -0.21184221046340568 -14.30216089465637 70 16 5
2.9148691060863294 -0.15099694427070087 -14.28203125383397 73 17 4
2.920627975419568 -0.16134765349101077 -14.328470148556265 69 16 4
2.9321787112066495 -0.1455967943144847 -14.350500240104559 79 28 13
2.9430144428717244 -0.133103115350095 -14.375611662484054 103 56 33
2.9509224907431557 -0.1339652674541938 -14.413376744027381 87 42 22
2.9586350765219716 -0.13581266347785448 -14.452168860554305 72 28 14
2.9661437567541498 -0.13869170343423232 -14.492039856565373 57 16 5
2.9733756978340766 -0.14294467669034105 -14.533324057626032 50 11 4
2.982370018705396 -0.13920443502633173 -14.56708189723512 50 11 5
2.9890196954226584 -0.14634676261110968 -14.611336728669318 54 14 3
2.99570716268188 -0.1534425917073463 -14.655673439913594 79 34 16
3.0029993846993053 -0.15786443689366703 -14.697561626519757 78 30 11
3.0098900578235246 -0.1642677815776823 -14.741476848072324 74 27 12
3.016814674180825 -0.1706397389679708 -14.785485825607331 78 31 15
3.0225047546591823 -0.18290529370228548 -14.835340377713337 56 19 10
3.025248482994058 -0.20912788902541557 -14.898934380464446 40 7 1
3.0325701179013898 -0.21408921855387852 -14.94200753959786 73 33 13
3.0401762226255507 -0.2178337672518671 -14.984008856704769 86 44 19
3.0483612380152283 -0.21896235125384234 -15.023556722159181 66 25 6
3.056447202281451 -0.22066321311924586 -15.063767227524838 52 15 7
3.0629084859627245 -0.2301817979958818 -15.111790634517714 33 10 5
3.067227185309026 -0.2500466269001702 -15.170188466006582 20 7 3
3.067833004931162 -0.2878357787895425 -15.246555037347761 20 7 5
3.071031769063222 -0.31352541348564866 -15.311187401505318 21 6 6
3.0755632739144674 -0.3330631194584299 -15.369919164455805 17 6 6
3.0784748603451884 -0.36060458137585716 -15.436847896862954 8 0 0
3.0865172174522675 -0.36364805758497987 -15.479474430982078 6 0 0
3.102252147848513 -0.3295947788949576 -15.484950058050927 5 1 0
3.110139329953075 -0.33352903954260515 -15.52860348532096 5 1 0
3.1155075013941667 -0.3498461722920574 -15.58488038505887 7 1 3
3.1275152814699148 -0.3339653180617619 -15.608742861037825 7 2 4
3.138041213842656 -0.325350835421669 -15.639996141405865 7 3 4
3.1527488331204134 -0.2962732719782899 -15.650475184192263 8 4 5
3.165797758502037 -0.27529828024320047 -15.669166720792267 8 4 5
3.175825813521754 -0.26921941860601617 -15.703086736805496 11 7 8
3.190118442539117 -0.2421036855462564 -15.715493169505256 11 7 8
3.198202825128147 -0.2457593432761147 -15.759503822339227 9 5 6
3.214118004476687 -0.21055496083033187 -15.76355994812181 11 7 8
3.2286445434112174 -0.18218706170694876 -15.774594904774613 12 10 11
3.2940573612815074 0.05739247496787403 -15.606455343972186 12 10 11
3.3101162906507966 0.09421008924332508 -15.60802532820318 13 11 12
3.327881759523376 0.1397652385402166 -15.60036442586437 13 11 12
3.347511355474636 0.1949372074705975 -15.582479151079859 14 12 13
3.3460514060247433 0.1430887342108118 -15.676802646883736 15 13 13
3.361604574615636 0.1775916997348741 -15.680573004576297 18 14 13
3.374521452435707 0.19870566337440465 -15.69839130786228 18 14 13
3.3868730178920337 0.2169355769522756 -15.719247265437456 20 14 14
3.39875623313854 0.2327536168025537 -15.742663673253723 25 17 17
3.3943974895989824 0.16466478877463864 -15.855390857362556 30 21 22
3.4011109500262346 0.15339829193980403 -15.90796940902184 37 27 26
3.4051166647424256 0.12786757287287287 -15.975974515077993 46 36 34
3.4166862762864456 0.14149800129613688 -16.002220712934765 58 54 51
3.416523586852705 0.09371927028952598 -16.09453718683803 72 69 68
3.610873344418781 0.251374001813109 -16.674325706288723 120 119 122
3.6454246322621278 0.28753201167995357 -16.761564407547056 133 133 135
3.722816314502393 0.5138200733828944 -16.673974455649002 151 151 153
3.7329689077892207 0.5184217849712462 -16.711339814460246 156 156 158
3.7492615445628394 0.558228979335393 -16.708153429206007 161 161 163
3.7516613876183387 0.5179923617503706 -16.797473396744117 166 166 168
3.7672093620242553 0.5535010725164966 -16.799261157762498 168 168 170
3.78348759946553 0.5933886806512927 -16.79585244345693 171 171 173
3.7985396084842358 0.6262798329449284 -16.800475254757632 175 175 177
2.0644831149356637 -1.98428926568256 -13.818869417734728 113 62 49
2.112655564917244 -1.8221643941735808 -13.724239957632236 111 64 55
2.130632465766626 -1.7814954961647702 -13.727265605097951 123 81 63
2.1490264917864095 -1.7390514744247385 -13.728754107158476 145 83 53
2.1667698042546015 -1.69915331474395 -13.732208831586457 159 82 41
2.1850669491883634 -1.6569198656246673 -13.733664402469785 169 101 56
2.20331070940743 -1.6148099065530683 -13.73511624363964 161 102 67
2.2178955329581695 -1.58753635117567 -13.748631481992783 124 54 31
2.2405361612059282 -1.5272901937424788 -13.734992351235933 117 46 29
2.2492626263108626 -1.523879997315781 -13.768032449287166 123 58 40
2.252085821695324 -1.5447622329835387 -13.821222898656707 112 52 38
2.272950616054482 -1.4915926565243005 -13.81319865078714 129 60 39
2.285661092704661 -1.4718908123445162 -13.832838521752237 137 60 26
2.3376729294000977 -1.3551916562225577 -13.84346092079893 105 42 24
2.373021190054436 -1.2412808859408075 -13.783793616912572 107 40 24
2.3916053298395217 -1.196779386427143 -13.782168135305321 116 51 35
2.4238656731632733 -1.0951038155186748 -13.732129078397389 114 53 37
2.446812023906988 -1.0320241214686714 -13.714400779795028 123 60 36
2.4682184709233033 -0.9752079867160246 -13.701787182598897 124 52 21
2.4806576922313797 -0.9558800501887124 -13.720917927282915 118 42 15
2.4988413794169793 -0.9123753612522272 -13.719400715922962 129 55 24
2.5169639581264325 -0.8690197926956351 -13.717894243532665 136 64 33
2.534925301705638 -0.8262370128897274 -13.716762784763102 118 44 17
2.553265825777908 -0.7817418819288502 -13.714043198085388 124 44 24
2.5685889015411316 -0.7499372323390778 -13.722152032165955 115 34 14
2.572857380725333 -0.798569158752839 -13.835550764485745 121 39 15
2.5898232386633975 -0.7598090558515906 -13.837674599776747 125 42 18
2.6100183042973497 -0.7071343302475377 -13.827565301751939 125 43 19
2.6321360772313365 -0.6460579592741427 -13.809946619700725 123 41 17
2.812183256458882 -0.23932947007735983 -13.841390070450569 109 31 13
2.8211897361043596 -0.2342684430153481 -13.872510592290102 100 20 4
2.818436136562471 -0.2812257048971798 -13.950780147906867 103 26 3
2.831139431970471 -0.26003098665764757 -13.967501454707367 117 52 19
2.8429146772989085 -0.2429390536872873 -13.987939185533133 98 38 14
2.8545243082877465 -0.22658639641295686 -14.009053885398835 114 40 10
2.8644139065968885 -0.21791133469072133 -14.037198748851328 116 39 7
2.8714031928951873 -0.22224576286593667 -14.07732071605096 99 24 2
2.8854548025516347 -0.19503499383823275 -14.088535660844126 90 20 1
2.883583797845106 -0.23930874225924548 -14.165626016095555 89 22 7
2.883005928321046 -0.27805899203525986 -14.237911582710126 72 14 2
2.9039676034025623 -0.2198492763581159 -14.22058398765707 61 10 1
2.9048210907723737 -0.2524369311146826 -14.287457050618489 64 12 2
2.9178636925793966 -0.22997704485509818 -14.30327360755415 74 18 6
2.9306929008736113 -0.20846441532152937 -14.319952195947081 73 17 4
2.9436602702322485 -0.18630331126712907 -14.336004664522815 65 13 2
2.961644569155454 -0.14119155060835809 -14.330475191454079 64 17 6
2.968700174141278 -0.14601485870757713 -14.37184343291509 68 22 8
2.9755474623372558 -0.15190856851660328 -14.414334820240683 62 17 4
2.9824169839773744 -0.15781956026333965 -14.456960592587055 56 14 3
2.9897320694600364 -0.16179405350927833 -14.49786641628555 54 17 5
2.997249695557781 -0.1649424420828529 -14.538095123595877 48 12 5
3.0057150708543987 -0.1638007838264155 -14.574334868628352 51 10 2
3.0133010286993582 -0.16683670348105029 -14.614656495284516 80 36 15
3.0199985537228633 -0.17412508192979015 -14.659163814921769 102 55 26
3.0257586463692547 -0.18592872609345612 -14.708142334083163 88 37 9
3.033102360874338 -0.19046301560408274 -14.750260350833742 79 30 8
3.0402768471493227 -0.1959114032307081 -14.793376881573973 71 26 11
3.0461781042811844 -0.20748534321605216 -14.842552467285966 50 14 7
3.0529377611254027 -0.21515991605525908 -14.888088539375744 41 7 1
3.059977288811915 -0.22164590357511038 -14.932597972163709 51 13 2
3.067800032333354 -0.2245425957453575 -14.973725848035249 50 14 3
3.074116966300085 -0.2347270043002485 -15.022103118273694 42 10 2
3.0804575977640436 -0.24495209178254118 -15.070666652635264 38 10 4
3.0868227701557167 -0.25521471662890516 -15.119414208569841 30 10 4
3.0887106495188914 -0.28714003224995466 -15.189704713354795 21 6 0
3.091576057915936 -0.31463371794312955 -15.255867803977072 22 6 3
3.1028477769627316 -0.30177858576847516 -15.282209067945988 21 7 5
3.103390668405309 -0.34091934507955646 -15.36033964814197 16 6 5
3.1055895877102557 -0.3723389828390795 -15.431065235213257 8 0 1
3.1167582040932778 -0.36035028548933656 -15.458613191824076 6 0 0
3.123281163612515 -0.37109047772870607 -15.509000570517031 5 1 0
3.13155627424529 -0.37341439473082705 -15.551075677554628 5 1 0
3.1418050956665327 -0.36616197754103563 -15.58360219067071 6 0 2
3.164114759335164 -0.29955552035951083 -15.556164522293052 6 1 2
3.1728713941063003 -0.2996350439505351 -15.596087792584267 5 1 2
3.1816627182978494 -0.29965093089495465 -15.63604559077476 5 1 2
3.189317573444095 -0.30542337759834837 -15.681970241902995 6 2 3
3.2004487632103342 -0.29401173911061296 -15.71046376139649 7 3 4
3.212718416062457 -0.2769513646018753 -15.733207923639576 8 4 5
3.2248369172168805 -0.26065809905040815 -15.756748544998107 8 4 5
3.2513225041200915 -0.1721276237651823 -15.705894027785732 9 5 6
3.271002844406706 -0.11750291275485747 -15.689677414907214 11 7 8
3.31297050223674 0.005633266522340641 -15.642238973254592 13 9 10
3.3506932639057525 0.0631182068598024 -15.702435407127181 14 12 13
3.360825488330155 0.06974364225294671 -15.735644427771582 15 13 13
3.370246332558135 0.07262949467830815 -15.772851785915702 18 14 13
3.380698337287522 0.08074873261365667 -15.80462539125104 19 14 13
3.3982950471799325 0.12585601472380858 -15.797344283541143 21 15 15
3.4055650700391302 0.1174075447582057 -15.846694316869865 26 17 18
3.403262337884242 0.058825258833729244 -15.949484468084762 31 21 22
3.4137643126805544 0.06679309964727054 -15.9817776931447 39 28 27
3.4219051550180306 0.062289830666046875 -16.027456015352275 49 39 36
3.429531006846798 0.054922683009460904 -16.07633173982797 62 55 52
3.443906727340907 0.08307411038946455 -16.08720024775594 73 68 66
3.4564776281756884 0.10171448058042465 -16.108258203164596 79 74 76
3.74746295532949 0.48731054896628123 -16.684395639571346 150 150 152
3.7618241057213653 0.5161041162120847 -16.69395662255904 155 155 157
3.7770913979421468 0.5502500034217874 -16.697286143986638 158 158 160
3.7798781882991777 0.5115928641743563 -16.784672809601187 163 163 165
3.7898259041431874 0.5144923534524892 -16.824246670270107 166 166 168
3.8067310352571693 0.558239280444722 -16.81645442676121 169 169 171
3.824184343239413 0.6054256047950579 -16.804502937749874 173 173 175
3.830844282108065 0.5887708956031448 -16.866946076717372 176 176 178
2.068898084449669 -2.0895268786586634 -13.888935282994765 114 62 51
2.1387833300142103 -1.8382986358477131 -13.722796649529865 111 65 53
2.1570190941107557 -1.7964119484885757 -13.724858464366399 116 73 58
2.175423758573243 -1.7537442834219616 -13.726185267104007 116 59 41
2.1926914893052554 -1.715627392130111 -13.731104530430638 124 61 33
2.211289660172154 -1.671984354312408 -13.73143455378934 140 79 46
2.2296880666939587 -1.6290604171843128 -13.732241347442422 144 83 52
2.2490057226029334 -1.5822589911939513 -13.729763537563148 117 47 25
2.263116699725874 -1.5567922823170912 -13.744685712159283 115 46 28
2.2780049142727816 -1.528088393711121 -13.756909932561957 122 56 39
2.311790001178006 -1.453939474930647 -13.767356840471095 129 60 41
2.333694623360044 -1.395934350127959 -13.75507592543353 139 61 28
2.3498928615189416 -1.3615137239012434 -13.762252920381453 145 78 43
2.388084934610669 -1.2682526429242147 -13.755949485381523 106 41 24
2.410233715188788 -1.2086613759121594 -13.74172884317614 106 40 23
2.4164861506107433 -1.215601645043229 -13.78330855686696 113 50 33
2.4497378036937834 -1.1091143329401634 -13.729294989095639 111 50 33
2.4725954160613863 -1.0460539987541866 -13.711622243168204 145 82 51
2.4913121010018746 -1.0002893204716372 -13.708417099679131 144 73 32
2.507379761620733 -0.9656164961021414 -13.71451993623399 134 55 22
2.525002244571295 -0.9242784528427475 -13.714862224292464 143 65 34
2.5425716146420716 -0.8830656329511619 -13.715204696278086 153 78 50
2.560088722950119 -0.8419748736144275 -13.715545130888259 124 49 26
2.5785072987959823 -0.7969358603397678 -13.71238480182998 119 43 20
2.600501890284502 -0.7364820616654741 -13.69581219388013 119 38 18
2.5872212203302194 -0.8270621923442167 -13.809579430403508 118 36 15
2.5893909513736233 -0.8517382719992881 -13.866734479269766 122 40 16
2.608162256498282 -0.8051199728320206 -13.862138355241399 125 42 18
2.630123972921622 -0.7446072728547639 -13.845304124348575 124 42 18
2.659778951795508 -0.6506330447505562 -13.799041822656793 122 40 16
2.8107812377022108 -0.33556658087760205 -13.877089955089957 128 59 37
2.829388007666852 -0.28815530707363646 -13.870228559916207 113 36 16
2.834627551364009 -0.30002337735449736 -13.916684865433332 98 18 2
2.846482129054225 -0.2825559668276263 -13.936755985820245 109 30 5
2.865980820587392 -0.23094883908003627 -13.92587559438167 119 58 21
2.8774421750801826 -0.21516155573751128 -13.947392952565066 94 35 9
2.900090701114915 -0.14917948628715738 -13.923168997461884 123 48 11
2.911878512191183 -0.2036681122511892 -14.08100369822219 92 22 3
2.917594084701363 -0.21408471857952627 -14.126826821750093 85 20 4
2.90993653920233 -0.28538352842282055 -14.229016494129137 70 13 1
2.901498243389066 -0.3606756279745076 -14.335339024583634 64 10 1
2.932270577650299 -0.2574409496732093 -14.276359086852203 68 12 2
2.939531094027467 -0.26137445768057166 -14.316726451113249 75 17 4
2.9586839522953325 -0.21085959718520808 -14.306378561654633 72 16 3
2.9684996958315732 -0.20312243709780642 -14.33590335371652 65 14 3
2.982298933573286 -0.17706914443279764 -14.348290856607848 70 25 8
2.992070096274689 -0.1695930525390139 -14.378115052064578 86 38 19
3.0001324110428427 -0.17008839037924162 -14.415509836224725 87 37 17
3.006291276384525 -0.17952073034245508 -14.461448233890119 84 34 15
3.0138557832053956 -0.1825457050433128 -14.501446491488995 73 29 16
3.020298132077433 -0.19091902685968964 -14.54663434214293 49 12 4
3.0262647610689632 -0.2016560611100413 -14.5942071447768 54 13 3
3.034281550417292 -0.20291827978407895 -14.632867588687136 81 37 16
3.041829650843759 -0.2064871729015918 -14.67383532541924 96 51 25
3.0492923289989795 -0.21057266938414276 -14.71540815580472 83 37 15
3.056882565639972 -0.2141715328701661 -14.756623867842034 63 22 8
3.064188833115651 -0.21923271333288064 -14.799361759846544 44 10 2
3.0698485492485816 -0.23225023586085136 -14.849922892546953 36 6 2
3.076510494142674 -0.24065457683623048 -14.896162908490185 43 9 2
3.0833359963575036 -0.2484200393905347 -14.941916412482787 60 19 6
3.0903333988752317 -0.25550192008584727 -14.987135343029902 67 22 7
3.095231948299287 -0.2728149561079851 -15.042497749053547 62 20 4
3.0999491292591554 -0.29119770862121186 -15.099092823715164 64 30 17
3.106898451335903 -0.2989893402138408 -15.145456246601793 39 16 9
3.1127455806921165 -0.3122701362795466 -15.197369704847357 22 5 2
3.1176502912247477 -0.33030974047141015 -15.254154061218449 21 7 5
3.125741746117267 -0.3330146972940389 -15.295920266999874 20 7 5
3.127802803925458 -0.3653264348833192 -15.367234967898156 17 6 5
3.159543737109252 -0.29499494788147107 -15.375766301592751 6 0 2
3.128906492114913 -0.48905380296826806 -15.609625452458115 4 0 0
3.1529422962060893 -0.41392201604264844 -15.574116469977536 5 0 0
3.169070895001639 -0.37768575172156815 -15.577494922633235 6 0 2
3.1759011581789074 -0.38760458856565805 -15.627401726987014 6 0 2
3.181907769727117 -0.4018000430862001 -15.68179109566529 5 1 2
3.192772866066167 -0.3918763523753004 -15.71186391517784 5 1 2
3.2040537891522822 -0.37991740549366515 -15.739911270017293 5 1 2
3.2181468451528863 -0.3538424122144068 -15.753585291630342 6 1 2
3.236099097713322 -0.30823806975656254 -15.747232302169575 7 2 3
3.25565436840059 -0.2543534950428876 -15.732237824186827 8 3 5
3.2591721490622314 -0.28171837089510543 -15.800645625814937 10 4 6
3.2913014207545204 -0.16358761379592845 -15.719217700697605 10 6 7
3.3199421639601048 -0.06267609922471351 -15.655059821311124 12 8 9
3.3303017168522135 -0.054972759461675125 -15.687107705980011 13 9 10
3.345100276629223 -0.024509497010287262 -15.695550864592045 14 10 11
3.3521605357785846 -0.033887204737674814 -15.74545903802543 15 11 13
3.391181057102559 0.0760804756314899 -15.710844737969914 16 13 13
3.4015644175654227 0.08388661497505545 -15.742802994485327 18 14 13
3.414208020087927 0.10343231273541331 -15.762453064535642 20 14 14
3.4244983899417876 0.11065354659723603 -15.79511325773136 22 15 15
3.431815044990806 0.1021691487677856 -15.84446639112246 28 17 17
3.4355737910230646 0.07474491427325702 -15.914077330917364 32 20 20
3.4417468859760145 0.05979743690249251 -15.970662201364195 40 26 25
3.45051309756592 0.05839734356697068 -16.01297483070957 49 35 33
3.4606066862641613 0.06393598510744081 -16.047973975336756 63 52 50
3.4745591601794166 0.09001044165281691 -16.061013548810404 72 64 63
3.48614922071318 0.10346799417719676 -16.087582863979517 77 73 75
3.774297067537564 0.47333026545755885 -16.680435493860482 149 147 150
3.790265464584725 0.5116850091306011 -16.679024956405442 154 152 155
3.8231541964385594 0.5385202125296855 -16.77620306224398 165 163 166
3.835827187745682 0.5575050493235656 -16.797062129394217 169 167 170
3.854308913003027 0.611261094683754 -16.777461482623732 172 170 173
2.092404772582872 -2.118103400232818 -13.897279733236434 113 62 51
2.1618058136468696 -1.8671498977350076 -13.731592975300007 110 62 55
2.1831545104056467 -1.812347713996127 -13.723275628636248 129 80 65
2.2019421084249386 -1.7679255360029105 -13.723203912609716 123 64 38
2.2217580910012917 -1.7191652827966575 -13.719497319821318 115 51 27
2.2400653306542053 -1.6765081140224742 -13.720625800482257 116 52 26
2.255837788037947 -1.6442321915855374 -13.730120678639413 128 63 37
2.2743321664441556 -1.6006246301154485 -13.730281126952214 115 46 24
2.2990198231961285 -1.5312071876058155 -13.709151931961948 114 42 25
2.302748806184307 -1.5487547565588304 -13.759348724600635 117 50 33
2.337140508948455 -1.471805424563179 -13.767535959113662 129 59 40
2.3599600591806746 -1.4096704627121381 -13.751871123997006 139 59 28
2.3787036851226 -1.3644466102621822 -13.750074784744292 143 76 42
2.398954029558769 -1.3127782696363663 -13.742784063105027 114 54 33
2.413191516096125 -1.2862912307451584 -13.756397616015715 107 42 26
2.427007744967126 -1.2615468055678827 -13.771434621902923 107 41 25
2.456668389669982 -1.16976864118298 -13.730094296515343 113 50 33
2.477694822666487 -1.1142694695769269 -13.718999599772527 113 52 34
2.502236405936266 -1.0436819587399118 -13.694984799640352 139 76 47
2.51657727343357 -1.0162842733775959 -13.707329169988139 155 84 45
2.5326038963862474 -0.981655804654018 -13.713487195999427 150 72 35
2.549301648172937 -0.9440865275051831 -13.717064048144689 162 85 46
2.5672756906089353 -0.9009647547780135 -13.71580855966853 163 92 55
2.58571018034826 -0.8557563384966151 -13.712650739948641 132 60 32
2.6036738799985613 -0.8124537533190166 -13.711004360997265 125 50 26
2.627729814297305 -0.7427704286537935 -13.686526523634608 123 42 21
2.616765705347373 -0.8241921305589166 -13.792263288743015 116 34 12
2.618886411822351 -0.8493839194911139 -13.849782408752144 126 44 20
2.6908617512321586 -0.6400389865336118 -13.774921210057613 122 40 16
2.8250211813938986 -0.39836356425416497 -13.918268127444573 120 48 28
2.845878540227771 -0.34074873301187836 -13.902383469292094 103 27 7
2.8472627894202374 -0.37023792106119746 -13.964773450174075 100 21 3
2.882450395887895 -0.2480565276919151 -13.890397569793288 107 29 3
2.899375850631836 -0.207631431067532 -13.889560028575362 113 51 15
2.9124713376888094 -0.1843887379488045 -13.904214278774234 95 35 10
2.9161408226292127 -0.2764844076626849 -14.096119602317415 93 20 0
2.928919654301346 -0.25497018256989445 -14.112640996105387 91 23 3
2.9412590156535505 -0.2354455524712158 -14.130974273495855 81 19 4
2.932579954204795 -0.3122166770898911 -14.238135034714322 68 11 0
2.937860513051475 -0.32533699958435935 -14.286881088872974 66 11 1
2.9531187202976685 -0.29266633963941935 -14.293310457080677 72 15 3
2.9655740684895147 -0.2728600725405199 -14.31162921202295 74 17 4
2.9783096537449802 -0.25174658314107656 -14.328719227462658 72 15 3
2.9907722692880108 -0.23188268630651798 -14.34696092463119 77 24 7
3.006392765539478 -0.19731845651512625 -14.35141403092166 103 56 30
3.014914325993568 -0.19577521870390058 -14.386815508426892 93 47 20
3.0234542707132537 -0.1942296517849842 -14.422295265422168 89 39 16
3.0277666914136785 -0.2125861832596776 -14.476657747670298 87 35 17
3.037171947310712 -0.20719447966953375 -14.50870581412957 66 24 11
3.043809084014905 -0.21491233187080727 -14.553266481114537 45 10 3
3.047217459621045 -0.23801991758041297 -14.612609788482976 54 14 7
3.056372283055397 -0.2341218918755752 -14.646375795633922 58 17 5
3.0632409073366036 -0.24115760628415384 -14.690678855544437 64 22 7
3.069700266858374 -0.2502759815378699 -14.737106944302983 54 15 2
3.0769312234754724 -0.2558552576392419 -14.780266450568288 50 13 4
3.0867411111077248 -0.24921334990498956 -14.811754049825502 39 9 4
3.0915328101942308 -0.26672678136053296 -14.866667244562851 33 4 0
3.099015421879984 -0.27147927899123925 -14.909384415227644 63 20 7
3.1026400700824386 -0.2949814840649516 -14.970452334537395 93 47 22
3.1121907749094366 -0.2900260546268738 -15.003985691330207 87 38 13
3.1178209580311895 -0.3041750233208207 -15.056263837617418 69 24 6
3.1238397411916528 -0.3166124803856496 -15.107030830022572 56 23 13
3.129363410624267 -0.33163846433330946 -15.160500013597705 29 8 4
3.1360032269647116 -0.3413881335450881 -15.208942315215527 20 6 4
3.1409831723918025 -0.35944479999219503 -15.265737062198145 21 6 5
3.1436032958436213 -0.38932573783680713 -15.334433624356876 21 7 4
3.1530409889549005 -0.38582424051335185 -15.370227515524132 19 7 5
3.1676012478666986 -0.3570457738411319 -15.380929294571654 12 1 1
3.1764626301052887 -0.35650550663354075 -15.419769861475286 9 0 3
3.158054639747857 -0.49186903729758047 -15.594746560690826 8 1 2
3.1663644560031297 -0.4946896252784265 -15.637506219139748 7 0 2
3.17943710442609 -0.4737786334835601 -15.656498418240572 7 1 2
3.1870423752823287 -0.48032227986928167 -15.703178689815996 7 0 2
3.194672796097703 -0.4868889828349481 -15.750016028199795 6 1 2
3.2024790029284103 -0.4927182074603955 -15.796239749111 4 1 2
3.2184894103528325 -0.45710732113425934 -15.800453811530037 3 1 2
3.228894923171233 -0.44989213915078086 -15.833529476556027 5 1 2
3.303254722952313 -0.2073002446733696 -15.70607798474579 11 4 7
3.319614976728808 -0.1690393011390432 -15.706819078964033 11 7 8
3.3347851275011884 -0.13680028375929876 -15.713674319417922 14 11 12
3.3432699006872464 -0.13909891299639998 -15.756227085389979 12 8 10
3.356811597811882 -0.11525625246772453 -15.77174630971475 10 10 12
3.376537062907679 -0.059152644626540685 -15.753647100139425 12 11 13
3.4116757768875954 0.07777226703137785 -15.650972334826873 16 11 13
3.423635481110112 0.09388331856843912 -15.674098574477888 18 11 13
3.4358799624216596 0.11147859635262236 -15.695679398780081 23 13 14
3.4447689185780774 0.11135651509417954 -15.735905464455119 25 13 13
3.4560971315977134 0.12403245620075332 -15.762732611244083 29 16 15
3.4584077525155625 0.08876004259884507 -15.840304666622178 34 19 16
3.4626025124349478 0.06317879668239623 -15.907897172080373 39 20 16
3.469704716880368 0.05285624557877355 -15.959510918295123 45 21 18
3.4791782502741726 0.0550666606283583 -15.997924918823362 50 24 21
3.4884238887233394 0.05594111193818474 -16.037857896530674 55 33 29
3.501284197281484 0.07622317123755984 -16.05709252385447 61 45 42
3.514006561572463 0.09576921508146352 -16.07710824177375 68 58 58
3.5282084741559996 0.1233688340691863 -16.088442839486834 76 71 72
3.8381159646581446 0.5668625372932352 -16.638161565248883 153 151 154
3.8567030142353684 0.5648633528495521 -16.72559662519459 162 160 163
3.8655041992269585 0.5606536796571548 -16.773212571422842 165 163 166
2.049134809836011 -2.3541790551204054 -13.998598450503131 114 74 67
2.11512391500025 -2.1501106170125643 -13.908354303853105 112 62 52
2.1876537591953666 -1.88454722354036 -13.731152959522102 112 64 57
2.208443193887551 -1.8317864754569761 -13.7245176347008 138 88 69
2.2265923798795324 -1.789819383685857 -13.726462454626024 158 95 56
2.2465326811040467 -1.740326733257267 -13.722202355706257 142 70 29
2.2657097985955494 -1.6938807674213283 -13.720283841564218 137 70 32
2.285081777142367 -1.6465089318411135 -13.717487738088904 150 84 55
2.300513151845938 -1.6154666095509551 -13.72791320320832 122 51 30
2.32381928666483 -1.551435355175391 -13.711243008777544 111 37 20
2.331706997865087 -1.5518371780131544 -13.747326666198967 118 50 34
2.3634634718866208 -1.4856155181266395 -13.764359478811823 128 59 39
2.3864265462639294 -1.4225322890448 -13.747945065084053 134 58 25
2.4057220214471 -1.3747611179577977 -13.744051454464547 140 75 39
2.424136127364559 -1.3305980695750081 -13.743031483633276 118 60 39
2.437856585600399 -1.306245283900414 -13.758440625125209 108 43 26
2.4541973569146105 -1.2707215819026816 -13.764467176926342 109 42 26
2.4830202436226028 -1.1819224817729683 -13.72568230116105 113 49 32
2.509403637375997 -1.1032401555753957 -13.695097060883999 112 51 33
2.525147569234893 -1.0698390761326246 -13.70246331681771 122 58 32
2.5407185320402066 -1.0371131900361839 -13.710331328068044 131 60 29
2.5544464657957895 -1.012246425046495 -13.724802329886636 139 63 30
2.570545234037059 -0.9771346540165151 -13.730523810654036 154 80 37
2.588061738557259 -0.9358258098625658 -13.730879591473496 152 80 40
2.605885444707741 -0.8930844632989219 -13.729903155375368 125 51 21
2.6250107323049727 -0.844588123079947 -13.723876535004209 123 45 22
2.637867405027224 -0.8232029781981058 -13.741027306611636 126 45 24
2.6475335632015855 -0.850448352376822 -13.835820095216405 125 43 20
2.7226385507464435 -0.6259737783855543 -13.747824793592173 123 41 19
2.851320598704568 -0.40771102745551513 -13.911509907379287 113 41 21
2.872670889884635 -0.3475199651526104 -13.893340163145039 105 26 7
2.8821462756853395 -0.34081072052165773 -13.923091367213475 101 19 2
2.9231472140370953 -0.19128272078195874 -13.824043382207492 106 27 4
2.935415671423968 -0.3181152483233758 -14.118748086480046 93 20 1
2.9550165517144067 -0.2652582202685805 -14.106607973907774 91 24 8
2.9566855391572684 -0.29490237135288044 -14.170121111534865 76 16 3
