ply
format ascii 1.0
element vertex 863
property float x
property float y
property float z
property float nx
property float ny
property float nz
property uchar diffuse_red
property uchar diffuse_green
property uchar diffuse_blue
property uchar class
property uchar detection
end_header
-0.5884 3.4015 -14.3944 0.389 0.424 0.818 106 55 43 0 0
-0.5450 3.4674 -14.4326 -0.370 0.592 0.716 105 57 46 0 0
-0.6224 3.2912 -15.5807 0.591 0.794 0.144 98 62 52 0 0
-0.6204 3.2922 -15.6229 0.659 0.728 0.189 78 45 39 0 0
-0.6371 3.2050 -16.8858 -0.319 0.113 0.941 101 102 102 0 0
-2.3587 0.6781 -12.4533 -0.093 -0.235 0.967 114 54 43 0 0
-0.9284 2.9147 -12.4745 0.299 0.130 0.945 127 49 27 0 0
-0.8915 2.9719 -12.4848 0.250 0.360 0.899 132 54 33 0 0
-0.8169 3.0895 -12.4665 -0.124 0.359 0.925 125 47 27 0 0
-0.8028 3.1110 -12.4786 0.175 0.689 0.704 123 45 24 0 0
-0.7876 3.1341 -12.4889 0.083 0.817 0.570 123 45 26 0 0
-0.7743 3.1543 -12.5024 0.193 0.323 0.927 123 44 26 0 0
-0.7596 3.1768 -12.5133 0.193 0.323 0.927 124 45 28 0 0
-0.5808 3.4038 -13.5591 0.248 0.951 0.185 89 40 32 0 0
-0.5756 3.4103 -13.5891 0.287 0.917 0.278 94 44 36 0 0
-0.5443 3.4400 -13.9739 0.745 0.380 0.549 62 15 10 0 0
-0.5774 3.3678 -14.3768 0.461 0.878 0.126 111 58 45 0 0
-0.5543 3.4043 -14.3716 0.818 0.540 0.199 109 58 45 0 0
-0.5715 3.3052 -15.8036 0.728 0.490 0.480 16 5 7 0 0
-1.3835 2.1568 -12.3825 0.047 0.619 0.784 125 52 35 0 0
-0.7535 3.1381 -12.5037 0.304 0.467 0.830 124 45 28 0 0
-0.6812 3.2505 -12.5236 0.277 0.173 0.945 133 61 51 0 0
-0.5511 3.3988 -13.5848 0.386 0.877 0.286 84 31 17 0 0
-0.5283 3.4156 -13.9461 0.545 0.701 0.460 87 39 31 0 0
-0.5205 3.4264 -13.9718 0.545 0.701 0.460 68 16 11 0 0
-0.5162 3.4315 -14.0044 0.614 0.737 0.283 76 20 8 0 0
-0.5563 3.3488 -14.3810 0.310 0.948 0.067 114 59 45 0 0
-0.5841 3.2411 -15.6039 0.859 0.511 0.014 73 44 38 0 0
-0.0385 4.0255 -16.9554 -0.370 -0.086 0.925 185 185 187 0 0
-1.6623 1.6642 -12.4508 0.199 0.063 0.978 122 50 35 0 0
-1.1200 2.5174 -12.4300 -0.332 0.407 0.851 128 51 33 0 0
-1.0798 2.5821 -12.4003 0.495 0.336 0.802 127 50 31 0 0
-0.9685 2.7553 -12.4335 0.369 -0.051 0.928 127 49 29 0 0
-0.9520 2.7807 -12.4422 0.427 0.008 0.904 127 49 29 0 0
-0.6843 3.1965 -12.5303 0.147 0.295 0.944 127 51 38 0 0
-0.5327 3.3899 -13.3540 0.206 0.966 0.156 89 45 30 0 0
-0.5268 3.3868 -13.5810 0.386 0.877 0.286 106 55 34 0 0
-0.5093 3.3940 -13.9535 0.318 0.839 0.442 94 39 27 0 0
-0.5018 3.4043 -13.9799 0.466 0.731 0.499 76 18 6 0 0
-0.5230 3.3480 -14.4026 0.588 0.779 0.217 117 68 54 0 0
-0.5133 3.3620 -14.4252 0.822 0.507 0.258 121 71 56 0 0
-0.5262 3.3163 -14.8900 0.391 0.920 -0.043 113 65 52 0 0
-0.4951 3.3111 -15.8843 0.739 0.489 0.463 37 35 36 0 0
-0.0094 4.0165 -16.9440 -0.252 0.131 0.959 186 186 188 0 0
0.0108 4.0482 -16.9430 -0.252 0.131 0.959 188 188 190 0 0
-1.0957 2.5079 -12.3898 0.004 0.372 0.928 125 48 30 0 0
-1.0775 2.5361 -12.3964 0.563 0.528 0.636 127 50 31 0 0
-1.0664 2.5525 -12.4145 0.718 0.488 0.495 128 51 31 0 0
-1.0503 2.5774 -12.4242 0.749 0.332 0.574 128 52 29 0 0
-0.9899 2.6720 -12.4331 -0.017 0.461 0.887 124 47 27 0 0
-0.9732 2.6977 -12.4417 -0.025 0.547 0.836 126 48 28 0 0
-0.6939 3.1316 -12.5484 -0.243 0.658 0.712 121 45 29 0 0
-0.6625 3.1820 -12.5300 0.005 0.343 0.939 126 53 39 0 0
-0.5027 3.3744 -13.5777 0.499 0.851 0.163 110 59 39 0 0
-0.4990 3.3785 -13.6105 0.499 0.851 0.163 109 58 39 0 0
-0.4848 3.3817 -13.9498 0.339 0.831 0.441 104 58 38 0 0
-0.4789 3.3893 -13.9794 0.466 0.731 0.499 99 52 28 0 0
-0.4625 3.4075 -14.1130 0.804 0.541 0.248 109 62 51 0 0
-0.5030 3.3294 -14.3663 0.469 0.882 0.054 112 63 53 0 0
-0.4995 3.3329 -14.4019 0.528 0.844 0.095 109 66 53 0 0
-0.4969 3.3226 -14.6567 0.430 0.903 -0.005 102 48 38 0 0
-0.5014 3.3024 -14.8874 0.317 0.947 -0.045 109 62 49 0 0
-0.5161 3.2278 -15.7974 0.200 0.775 0.600 86 53 42 0 0
-0.5040 3.2458 -15.8174 -0.111 0.407 0.907 68 63 62 0 0
-1.2672 2.1857 -12.4132 0.313 0.178 0.933 123 48 32 0 0
-1.0823 2.4802 -12.3677 0.228 0.407 0.885 127 50 30 0 0
-1.0572 2.5179 -12.3992 0.563 0.528 0.636 125 48 28 0 0
-1.0480 2.5313 -12.4204 0.718 0.488 0.495 128 51 30 0 0
-0.9675 2.6575 -12.4324 0.214 0.217 0.952 126 48 28 0 0
-0.5287 3.3279 -12.8120 0.723 0.486 0.490 95 45 30 0 0
-0.4945 3.3655 -13.0920 0.434 0.882 0.184 101 57 42 0 0
-0.4909 3.3692 -13.1240 0.369 0.922 0.118 102 57 40 0 0
-0.4844 3.3500 -13.6260 0.823 0.554 0.126 114 70 53 0 0
-0.4601 3.3696 -13.9459 0.339 0.831 0.441 82 45 28 0 0
-0.4784 3.3162 -14.3633 0.469 0.882 0.054 97 50 43 0 0
-0.4714 3.3104 -14.6522 0.430 0.903 -0.005 106 53 45 0 0
-0.4737 3.2936 -14.8784 0.317 0.947 -0.045 100 47 33 0 0
-0.5000 3.2081 -15.6262 0.277 0.960 -0.041 78 47 42 0 0
-0.4889 3.2160 -15.7912 0.200 0.775 0.600 80 48 38 0 0
-0.4771 3.2333 -15.8120 0.169 0.697 0.697 44 38 36 0 0
-0.6112 2.9503 -17.0314 -0.441 -0.427 0.789 85 83 82 0 0
-1.2858 2.1036 -12.4423 0.156 0.775 0.612 124 48 32 0 0
-1.2297 2.1933 -12.4253 -0.210 0.650 0.730 122 46 30 0 0
-1.0353 2.5023 -12.3994 0.552 0.632 0.544 129 52 32 0 0
-1.0269 2.5143 -12.4219 0.552 0.632 0.544 126 49 29 0 0
-1.0184 2.5263 -12.4444 0.552 0.632 0.544 126 49 29 0 0
-0.9463 2.6412 -12.4334 0.214 0.217 0.952 127 49 29 0 0
-0.9291 2.6678 -12.4411 0.277 0.263 0.924 126 48 28 0 0
-0.8791 2.7455 -12.4663 0.224 0.254 0.941 124 46 26 0 0
-0.4943 3.3413 -12.6758 -0.119 0.791 0.600 71 14 4 0 0
-0.5071 3.3174 -12.7367 0.489 0.774 0.403 77 14 4 0 0
-0.4564 3.3613 -13.3349 0.722 0.623 0.301 96 57 45 0 0
-0.4317 3.3614 -13.9759 0.425 0.832 0.357 60 15 10 0 0
-0.4530 3.3046 -14.3584 0.640 0.769 0.002 96 46 39 0 0
-0.4475 3.2955 -14.6510 0.631 0.776 0.011 89 35 26 0 0
-0.4467 3.2834 -14.8712 0.391 0.920 -0.043 108 56 39 0 0
-0.4749 3.1959 -15.5774 0.447 0.895 0.008 97 59 48 0 0
-0.4708 3.2001 -15.6152 0.673 0.667 0.319 80 48 43 0 0
-0.4749 3.1902 -15.6720 0.712 0.669 0.216 69 27 21 0 0
-0.4601 3.2069 -15.7814 0.684 0.585 0.435 64 32 23 0 0
-0.4518 3.2184 -15.8101 0.684 0.585 0.435 12 6 6 0 0
-0.4303 3.2494 -15.8567 0.534 0.490 0.689 36 36 36 0 0
-0.4187 3.2666 -15.8778 0.534 0.490 0.689 36 36 36 0 0
-1.4069 1.8644 -12.3780 0.735 0.151 0.661 122 50 35 0 0
-1.2364 2.1334 -12.3989 0.585 0.784 0.206 125 49 33 0 0
-1.2342 2.1348 -12.4320 -0.117 0.555 0.823 126 50 34 0 0
-1.0145 2.4851 -12.4013 0.511 0.342 0.789 125 48 28 0 0
-1.0058 2.4973 -12.4236 0.552 0.632 0.544 127 50 30 0 0
-0.9974 2.5094 -12.4461 0.552 0.632 0.544 124 47 27 0 0
-0.9250 2.6248 -12.4345 0.214 0.217 0.952 127 49 29 0 0
-0.9078 2.6515 -12.4422 0.103 0.308 0.946 126 48 28 0 0
-0.6213 3.0999 -12.5347 0.325 0.063 0.944 119 43 27 0 0
-0.4674 3.3356 -12.6660 -0.243 0.708 0.663 69 13 3 0 0
-0.4606 3.3306 -12.9182 0.745 0.593 0.305 96 59 44 0 0
-0.4478 3.3280 -13.2822 0.785 0.571 0.241 79 44 36 0 0
-0.4114 3.3445 -13.9391 0.572 0.714 0.405 70 28 15 0 0
-0.4043 3.3541 -13.9662 0.572 0.714 0.405 83 37 21 0 0
-0.4310 3.2869 -14.3610 0.670 0.743 0.009 92 42 30 0 0
-0.4203 3.2861 -14.6430 0.430 0.903 -0.005 104 59 51 0 0
-0.4214 3.2704 -14.8675 0.357 0.934 -0.036 115 65 48 0 0
-0.4603 3.1686 -15.5051 0.531 0.843 -0.087 107 59 41 0 0
-0.4599 3.1605 -15.6460 0.798 0.566 0.205 80 49 43 0 0
-1.5403 1.5969 -12.4387 -0.339 0.159 0.927 122 50 35 0 0
-1.4820 1.6882 -12.4583 -0.089 0.241 0.966 121 49 34 0 0
-1.2244 2.1026 -12.3790 0.729 0.579 0.364 125 50 34 0 0
-1.2116 2.1196 -12.4316 -0.013 0.591 0.807 124 48 32 0 0
-1.1965 2.1428 -12.4438 -0.123 0.623 0.772 125 49 33 0 0
-1.1771 2.1733 -12.4489 -0.127 0.616 0.777 126 50 34 0 0
-0.8993 2.6159 -12.4282 0.646 0.306 0.700 128 50 30 0 0
-0.8871 2.6343 -12.4442 0.277 0.263 0.924 127 49 29 0 0
-0.6953 2.9390 -12.4449 0.065 0.646 0.761 126 47 30 0 0
-0.6834 2.9568 -12.4610 0.065 0.646 0.761 126 49 33 0 0
-0.6696 2.9780 -12.4735 0.319 0.855 0.408 127 50 33 0 0
-0.6650 2.9834 -12.5023 0.281 0.347 0.895 125 48 30 0 0
-0.6506 3.0055 -12.5140 0.087 0.302 0.949 123 46 28 0 0
-0.4608 3.2905 -12.7688 0.799 0.553 0.234 85 26 14 0 0
-0.4420 3.3103 -12.9242 0.745 0.593 0.305 87 49 41 0 0
-0.4356 3.3087 -13.1051 0.176 0.940 0.291 88 51 43 0 0
-0.4297 3.3162 -13.1329 0.176 0.940 0.291 93 57 46 0 0
-0.4239 3.3237 -13.1607 0.176 0.940 0.291 92 55 44 0 0
-0.4200 3.3279 -13.1923 0.263 0.948 0.181 91 54 43 0 0
-0.4157 3.3326 -13.2234 0.263 0.948 0.181 92 54 45 0 0
-0.4320 3.3021 -13.2944 0.846 0.441 0.300 90 54 44 0 0
-0.4269 3.3083 -13.3240 0.833 0.506 0.222 88 53 44 0 0
-0.4119 3.3184 -13.5346 0.447 0.843 0.299 95 54 38 0 0
-0.3895 3.3278 -13.9407 0.572 0.714 0.405 100 52 30 0 0
-0.4253 3.1861 -15.2474 0.345 0.934 0.092 115 63 46 0 0
-0.4217 3.1864 -15.3321 0.799 0.565 0.206 96 52 42 0 0
-0.4225 3.1789 -15.4274 0.846 0.531 0.046 105 59 44 0 0
-0.4210 3.1784 -15.4710 0.835 0.550 0.013 108 59 44 0 0
-1.3616 1.8331 -12.3777 -0.132 0.581 0.803 122 49 34 0 0
-0.8556 2.6328 -12.4648 0.224 0.290 0.931 126 48 30 0 0
-0.8395 2.6579 -12.4741 0.266 0.192 0.945 126 48 28 0 0
-0.7638 2.7847 -12.3810 0.366 0.621 0.693 126 48 26 0 0
-0.7473 2.8104 -12.3892 0.330 0.439 0.836 125 47 26 0 0
-0.6915 2.8959 -12.4393 0.300 0.216 0.929 127 49 29 0 0
-0.6866 2.9017 -12.4677 0.188 0.228 0.955 128 50 31 0 0
-0.5631 3.0957 -12.5079 -0.034 0.170 0.985 121 43 29 0 0
-0.5412 3.1307 -12.5057 0.008 0.532 0.847 124 51 38 0 0
-0.5293 3.1487 -12.5213 0.132 0.252 0.959 134 68 57 0 0
-0.4318 3.2982 -12.6048 0.378 0.683 0.625 59 10 1 0 0
-0.4417 3.2687 -12.8116 0.551 0.685 0.477 94 46 34 0 0
-0.4115 3.2921 -13.1793 0.787 0.584 0.198 106 68 51 0 0
-0.4200 3.2749 -13.2350 0.697 0.584 0.416 106 66 49 0 0
-0.4128 3.2846 -13.2606 0.697 0.584 0.416 108 67 49 0 0
-0.4056 3.2943 -13.2862 0.697 0.584 0.416 108 66 49 0 0
-0.3772 3.3246 -13.5100 0.688 0.680 0.253 107 62 43 0 0
-0.3548 3.3190 -14.1265 0.532 0.842 -0.087 101 57 43 0 0
-0.3951 3.1807 -15.2337 0.138 0.990 0.001 117 62 45 0 0
-0.3966 3.1656 -15.4236 0.551 0.824 0.132 111 63 45 0 0
-0.3937 3.1676 -15.4639 0.628 0.636 0.450 108 60 45 0 0
-0.3996 3.1540 -15.5248 0.897 0.431 0.103 107 63 47 0 0
-0.3782 3.1658 -15.8587 0.721 0.588 0.366 32 31 31 0 0
-1.3272 1.8373 -12.3590 0.132 0.707 0.695 122 50 35 0 0
-1.3172 1.8519 -12.3797 0.205 0.235 0.950 123 50 35 0 0
-1.0816 2.2237 -12.4392 -0.049 0.143 0.988 125 49 33 0 0
-0.8922 2.5274 -12.4171 0.720 0.309 0.621 128 51 32 0 0
-0.4194 3.2730 -12.5468 0.560 0.529 0.638 127 51 6 0 0
-0.4083 3.2869 -12.6011 0.608 0.314 0.729 64 11 5 0 0
-0.4207 3.2526 -12.8128 0.551 0.685 0.477 92 45 33 0 0
-0.4272 3.2387 -12.8633 0.660 0.547 0.515 97 57 47 0 0
-0.3966 3.2593 -13.2720 0.833 0.410 0.371 107 61 42 0 0
-0.3896 3.2687 -13.2981 0.833 0.410 0.371 108 61 42 0 0
-0.3841 3.2754 -13.3271 0.851 0.452 0.267 104 58 38 0 0
-0.3786 3.2822 -13.3561 0.851 0.452 0.267 103 56 36 0 0
-0.3731 3.2890 -13.3852 0.851 0.452 0.267 102 57 37 0 0
-0.3642 3.2960 -13.4882 0.732 0.592 0.337 96 51 32 0 0
-0.3580 3.3041 -13.5161 0.732 0.592 0.337 107 60 42 0 0
-0.3274 3.3115 -14.1169 0.619 0.785 0.033 104 61 46 0 0
-0.3600 3.1872 -15.1624 0.253 0.967 -0.004 111 61 44 0 0
-0.3951 3.0898 -15.7619 0.632 0.530 0.565 83 28 16 0 0
-0.3476 3.1564 -15.8935 0.584 0.768 0.263 36 36 36 0 0
-1.3224 1.7912 -12.3871 0.488 0.586 0.647 122 50 35 0 0
-1.0578 2.2108 -12.4366 0.018 0.232 0.973 127 51 35 0 0
-1.0399 2.2390 -12.4437 0.008 0.273 0.962 129 52 36 0 0
-0.7457 2.7108 -12.4248 -0.128 0.593 0.795 127 49 30 0 0
-0.7322 2.7314 -12.4384 -0.120 0.485 0.866 129 51 31 0 0
-0.3996 3.2555 -12.5497 0.560 0.529 0.638 128 55 11 0 0
-0.3993 3.2370 -12.8136 0.619 0.631 0.467 93 47 34 0 0
-0.3962 3.2398 -12.8459 0.556 0.830 0.046 95 57 46 0 0
-0.3942 3.2404 -12.8806 0.556 0.830 0.046 98 63 49 0 0
-0.3662 3.1047 -15.4177 0.414 0.406 0.815 94 47 36 0 0
-0.3520 3.1264 -15.4323 0.858 0.440 0.265 109 62 43 0 0
-0.3766 3.0627 -15.7761 0.426 0.409 0.807 83 29 16 0 0
-0.3645 3.0453 -16.2907 0.072 0.812 -0.579 39 38 36 0 0
-2.3082 0.1539 -12.4571 -0.292 -0.473 0.831 115 90 88 0 0
-0.6631 2.7927 -12.4298 0.306 0.367 0.878 127 49 29 0 0
-0.6525 2.8056 -12.4853 0.100 0.106 0.989 128 50 30 0 0
-0.3792 3.2389 -12.5517 0.474 0.294 0.830 137 69 21 0 0
-0.3787 3.2286 -12.7014 0.869 0.372 0.326 79 15 6 0 0
-0.3242 3.2366 -13.7845 0.373 0.910 0.180 111 66 49 0 0
-0.3361 3.1262 -15.0319 0.784 0.576 0.234 114 61 47 0 0
-0.3457 3.0818 -15.4262 0.315 0.637 0.704 94 49 37 0 0
-0.3261 3.1097 -15.4758 0.519 0.749 0.412 111 64 49 0 0
-0.3729 2.9875 -16.1206 0.767 0.605 -0.216 36 36 36 0 0
-1.0182 2.1712 -12.4448 0.135 0.293 0.946 126 49 33 0 0
-0.7132 2.6639 -12.4073 -0.021 0.592 0.806 126 49 31 0 0
-0.6799 2.7163 -12.4232 0.582 0.447 0.680 127 48 29 0 0
-0.6668 2.7362 -12.4374 0.625 0.511 0.590 126 48 28 0 0
-0.6478 2.7636 -12.4783 0.680 0.285 0.676 128 50 30 0 0
-0.3219 3.1887 -13.7846 0.712 0.450 0.539 75 35 19 0 0
-0.3110 3.2046 -13.8040 0.620 0.467 0.630 104 58 38 0 0
-0.2668 3.2573 -14.0486 0.134 0.436 0.890 85 25 5 0 0
-0.2636 3.2597 -14.0845 0.753 0.633 0.180 96 47 33 0 0
-0.3166 3.1465 -14.4573 0.360 0.849 0.387 97 47 38 0 0
-0.3121 3.1103 -15.0317 0.510 0.794 0.330 114 62 47 0 0
-0.3297 3.0545 -15.3979 0.594 0.800 0.088 92 48 38 0 0
-0.6067 2.7792 -12.4815 0.387 -0.055 0.920 126 48 28 0 0
-0.4930 2.9637 -12.4644 0.562 0.439 0.701 121 42 27 0 0
-0.4747 2.9899 -12.5060 0.337 0.665 0.667 118 41 25 0 0
-0.3482 3.1617 -12.9174 0.893 0.436 0.113 97 60 47 0 0
-0.2999 3.1721 -13.7860 0.635 0.574 0.517 55 13 3 0 0
-0.2892 3.1879 -13.8056 0.555 0.473 0.684 102 56 34 0 0
-0.2456 3.2356 -14.0948 0.810 0.500 0.308 95 48 34 0 0
-0.2881 3.0946 -15.0312 0.510 0.794 0.330 114 62 47 0 0
-0.3101 3.0299 -15.4085 0.807 0.413 0.422 96 52 42 0 0
-0.3349 2.9594 -15.8031 0.798 0.588 -0.133 76 31 22 0 0
-0.3267 2.9666 -15.8816 0.850 0.244 0.467 108 55 36 0 0
-0.3167 2.9807 -15.9071 0.850 0.244 0.467 48 23 19 0 0
-0.4918 2.9158 -12.4640 0.697 0.115 0.708 121 42 25 0 0
-0.4735 2.9450 -12.4683 0.562 0.439 0.701 120 41 26 0 0
-0.4521 2.9767 -12.5043 0.337 0.665 0.667 118 41 25 0 0
-0.3297 3.1591 -12.6932 0.626 0.777 -0.066 72 14 5 0 0
-0.3470 3.1008 -13.0744 0.776 0.626 0.081 98 61 44 0 0
-0.3425 3.1025 -13.1445 0.897 0.416 0.149 105 65 49 0 0
-0.3394 3.1049 -13.1781 0.921 0.336 0.199 106 66 51 0 0
-0.2966 3.1323 -13.7009 0.452 0.805 0.383 107 63 44 0 0
-0.2897 3.1413 -13.7282 0.452 0.805 0.383 89 51 34 0 0
-0.2684 3.1691 -13.8095 0.555 0.473 0.684 75 29 12 0 0
-0.2419 3.1927 -14.0499 0.473 0.052 0.880 89 29 11 0 0
-0.2957 3.0073 -15.2892 0.793 0.600 0.102 118 62 46 0 0
-0.2559 3.0561 -15.4820 0.736 0.516 0.438 116 67 50 0 0
-0.2524 3.0586 -15.5217 0.729 0.441 0.524 109 63 49 0 0
-0.2492 3.0605 -15.5622 0.155 0.861 0.485 93 52 44 0 0
-0.3056 2.9393 -15.9399 0.466 0.571 0.676 46 22 18 0 0
-0.7282 2.4858 -12.4361 0.679 0.175 0.713 127 48 33 0 0
-0.7228 2.4923 -12.4640 0.701 0.524 0.483 127 48 33 0 0
-0.4997 2.8518 -12.4799 0.366 0.187 0.912 122 44 27 0 0
-0.4840 2.8765 -12.4889 0.537 0.211 0.816 120 43 25 0 0
-0.4601 2.9156 -12.4832 0.302 0.684 0.664 119 42 24 0 0
-0.4515 2.9276 -12.5051 -0.003 0.542 0.840 117 40 22 0 0
-0.3912 3.0219 -12.5450 -0.109 0.260 0.959 139 74 64 0 0
-0.3740 3.0493 -12.5509 -0.042 0.358 0.933 159 99 86 0 0
-0.3073 3.1425 -12.7300 0.532 0.709 0.463 83 17 5 0 0
-0.3174 3.1215 -12.7874 0.900 0.303 0.312 87 26 11 0 0
-0.3213 3.0923 -13.0672 0.440 0.887 0.140 81 55 45 0 0
-0.3273 3.0784 -13.1184 0.776 0.628 0.054 73 50 40 0 0
-0.3197 3.0821 -13.2227 0.851 0.505 0.141 58 37 33 0 0
-0.3154 3.0864 -13.2542 0.855 0.518 0.037 75 50 41 0 0
-0.2751 3.1149 -13.7031 0.686 0.654 0.320 113 72 44 0 0
-0.2662 3.1274 -13.7265 0.452 0.805 0.383 101 58 34 0 0
-0.2089 3.1918 -14.0713 0.779 0.452 0.435 92 35 13 0 0
-0.1696 3.1975 -14.7795 0.853 0.343 0.393 115 58 45 0 0
-0.2733 2.9877 -15.2935 0.897 0.421 0.132 117 62 47 0 0
-0.2296 3.0628 -15.2399 0.435 0.895 -0.096 105 54 41 0 0
-0.2317 3.0277 -15.6269 0.715 0.693 0.097 80 45 38 0 0
-0.8965 2.1597 -12.4646 0.622 -0.101 0.776 125 48 32 0 0
-0.7165 2.4524 -12.4540 0.552 0.235 0.800 126 47 32 0 0
-0.7042 2.4710 -12.4699 0.474 0.645 0.599 126 47 32 0 0
-0.4395 2.8987 -12.4851 0.636 0.150 0.757 120 43 25 0 0
-0.3653 3.0145 -12.5372 -0.042 0.358 0.933 141 77 67 0 0
-0.3361 3.0601 -12.5585 -0.164 0.489 0.857 157 84 61 0 0
-0.2935 3.1295 -12.5546 -0.159 0.260 0.952 151 89 49 0 0
-0.2873 3.1245 -12.7332 0.565 0.765 0.310 81 16 4 0 0
-0.3056 3.0887 -12.8064 0.783 0.486 0.389 89 29 17 0 0
-0.2964 3.0823 -13.0617 0.135 0.974 0.182 49 43 44 0 0
-0.3066 3.0608 -13.1211 0.829 0.559 -0.007 47 44 48 0 0
-0.3027 3.0610 -13.1930 0.777 0.601 0.186 43 45 48 0 0
-0.2992 3.0640 -13.2260 0.756 0.634 0.163 48 45 46 0 0
-0.2911 3.0683 -13.3305 0.693 0.716 0.080 9 1 2 0 0
-0.2797 3.0647 -13.5931 0.623 0.774 0.112 30 6 2 0 0
-0.2456 3.1084 -13.7306 0.269 0.231 0.935 110 66 39 0 0
-0.2166 3.0845 -14.5760 0.584 0.809 -0.068 102 53 43 0 0
-0.1971 3.1158 -14.5778 0.014 0.918 0.397 112 64 46 0 0
-0.2045 3.0525 -15.1905 0.802 0.575 0.162 116 60 45 0 0
-0.2015 3.0539 -15.2306 0.794 0.588 0.156 106 55 42 0 0
-0.2027 3.0237 -15.5676 0.810 0.231 0.539 87 50 39 0 0
-0.2047 3.0160 -15.6208 0.726 0.672 0.145 81 46 39 0 0
-0.6980 2.4308 -12.4602 -0.350 0.629 0.694 126 47 32 0 0
-0.3381 3.0097 -12.5267 -0.014 0.298 0.955 142 78 66 0 0
-0.3197 3.0392 -12.5304 0.058 0.410 0.910 160 97 83 0 0
-0.3098 3.0537 -12.5497 -0.042 0.358 0.933 159 85 60 0 0
-0.2886 3.0883 -12.5478 -0.078 0.290 0.954 167 97 64 0 0
-0.2658 3.1258 -12.5429 0.174 0.223 0.959 140 81 44 0 0
-0.2802 3.0430 -13.2324 0.756 0.634 0.163 44 43 44 0 0
-0.2762 3.0466 -13.2647 0.756 0.634 0.163 18 12 15 0 0
-0.2581 3.0476 -13.5951 0.623 0.774 0.112 29 5 1 0 0
-0.1762 3.0994 -14.5385 0.709 0.248 0.661 103 54 45 0 0
-0.1646 3.1167 -14.5574 0.516 0.255 0.817 111 64 46 0 0
-0.2032 3.0309 -14.8248 -0.201 0.923 0.327 110 62 46 0 0
-0.1801 3.0042 -15.5718 0.740 0.453 0.498 84 48 36 0 0
-0.1669 3.0029 -15.8343 0.733 0.534 0.421 36 33 35 0 0
-0.1565 3.0177 -15.8587 0.462 0.752 0.470 36 36 38 0 0
-0.1576 3.0114 -15.9110 0.517 0.846 0.127 36 36 38 0 0
-0.4869 2.7198 -12.4995 0.237 0.246 0.940 124 46 27 0 0
-0.3323 2.9698 -12.5183 -0.315 0.113 0.942 128 59 42 0 0
-0.3156 2.9964 -12.5251 -0.093 0.556 0.826 143 80 67 0 0
-0.1942 3.0002 -14.7209 0.333 0.882 0.334 90 61 52 0 0
-0.1925 2.9993 -14.7626 -0.082 0.817 0.570 55 44 44 0 0
-0.1859 3.0073 -14.7934 0.110 0.958 0.265 66 43 39 0 0
-0.1798 3.0144 -14.8254 0.118 0.968 0.224 110 59 45 0 0
-0.1819 2.9609 -15.3926 0.677 0.479 0.558 96 52 39 0 0
-0.1631 2.9741 -15.5895 0.803 0.440 0.402 82 46 36 0 0
-0.1481 2.9758 -15.8483 0.536 0.654 0.534 32 32 36 0 0
-0.1316 3.0018 -15.8578 0.462 0.752 0.470 36 36 38 0 0
-0.6872 2.3439 -12.4810 0.076 0.708 0.702 128 49 34 0 0
-0.5976 2.4907 -12.4736 0.477 0.282 0.833 125 46 31 0 0
-0.4658 2.7033 -12.5009 0.244 0.268 0.932 126 49 31 0 0
-0.4504 2.7276 -12.5107 0.237 0.246 0.940 125 48 30 0 0
-0.4443 2.7351 -12.5374 0.570 0.386 0.726 122 45 26 0 0
-0.4150 2.7843 -12.5217 0.125 0.424 0.897 121 44 24 0 0
-0.2240 3.0869 -12.6215 0.776 0.071 0.627 66 13 6 0 0
-0.2058 3.1164 -12.6250 0.624 0.709 0.329 68 13 4 0 0
-0.1527 3.0847 -13.9321 0.521 0.726 0.448 63 12 7 0 0
-0.1707 2.9840 -14.7213 0.387 0.697 0.604 86 61 51 0 0
-0.1646 2.9912 -14.7530 0.406 0.715 0.569 56 45 44 0 0
-0.1563 3.0023 -14.7800 0.508 0.796 0.330 67 45 40 0 0
-0.1280 3.0500 -14.7618 -0.073 0.940 0.333 118 66 52 0 0
-0.1527 2.9667 -15.2378 0.450 0.893 0.006 114 57 46 0 0
-0.1612 2.9425 -15.3529 0.771 0.569 0.286 96 52 38 0 0
-0.1422 2.9423 -15.6961 0.519 0.854 -0.043 71 24 16 0 0
-0.1446 2.9291 -15.8005 0.630 0.699 0.338 104 54 37 0 0
-0.1332 2.9457 -15.8224 0.347 0.772 0.533 74 54 51 0 0
-0.6659 2.3269 -12.4826 0.293 0.481 0.826 128 49 34 0 0
-0.6166 2.4087 -12.4709 0.685 0.227 0.692 127 48 33 0 0
-0.6050 2.4261 -12.4881 0.685 0.227 0.692 124 45 30 0 0
-0.4493 2.6786 -12.5106 0.375 0.360 0.854 128 51 33 0 0
-0.2371 3.0235 -12.5347 0.358 0.395 0.846 158 84 56 0 0
-0.2245 3.0427 -12.5490 0.358 0.395 0.846 159 96 58 0 0
-0.1981 3.0763 -12.6516 0.185 0.895 0.405 70 15 6 0 0
-0.1897 3.0881 -12.6738 0.396 0.255 0.882 72 14 4 0 0
-0.2248 2.9387 -13.6659 0.631 0.465 0.621 34 6 4 0 0
-0.1227 3.0705 -14.0458 0.218 0.299 0.929 81 20 7 0 0
-0.0941 3.1190 -14.0271 0.592 0.333 0.734 103 44 22 0 0
-0.0798 3.1292 -14.1698 0.916 0.361 0.175 111 64 53 0 0
-0.5879 2.4017 -12.4970 0.700 0.386 0.601 126 47 32 0 0
-0.4285 2.6615 -12.5126 0.375 0.360 0.854 127 50 32 0 0
-0.4155 2.6815 -12.5267 0.375 0.360 0.854 126 49 31 0 0
-0.1986 3.0248 -12.6556 0.390 0.677 0.624 67 14 7 0 0
-0.1714 3.0708 -12.6418 0.144 0.754 0.641 68 13 4 0 0
-0.1721 3.0658 -12.6817 0.290 0.573 0.767 71 14 3 0 0
-0.1581 3.0876 -12.6933 0.334 0.899 0.283 77 18 7 0 0
-0.2263 2.8790 -13.7159 0.177 0.404 0.898 35 6 2 0 0
-0.1028 3.0738 -13.7950 0.662 0.383 0.644 109 65 42 0 0
-0.0543 3.1265 -14.0771 0.557 0.725 0.405 92 64 54 0 0
-0.0565 3.1184 -14.1253 0.763 0.634 0.126 68 48 42 0 0
-0.9975 1.6820 -12.4491 0.054 0.692 0.720 122 49 32 0 0
-0.9856 1.6997 -12.4670 0.054 0.692 0.720 124 52 35 0 0
-0.8815 1.8732 -12.4421 0.198 0.760 0.618 124 48 32 0 0
-0.8402 1.9332 -12.5228 0.469 0.766 0.439 125 50 31 0 0
-0.6252 2.2970 -12.4133 0.493 0.636 0.594 125 48 30 0 0
-0.4082 2.6435 -12.5155 0.457 0.361 0.813 123 46 28 0 0
-0.3959 2.6623 -12.5308 0.457 0.361 0.813 121 44 26 0 0
-0.1570 3.0500 -12.5790 0.556 0.251 0.793 77 17 5 0 0
-0.1468 3.0613 -12.6361 0.144 0.754 0.641 65 12 6 0 0
-0.2353 2.8048 -13.7819 0.462 0.505 0.729 30 5 1 0 0
-0.2240 2.8215 -13.8008 0.073 -0.121 0.990 44 6 2 0 0
-0.0825 3.0541 -13.8000 0.642 0.302 0.704 109 65 39 0 0
-0.0850 3.0244 -14.0634 0.503 0.579 0.641 88 30 13 0 0
-0.0892 3.0081 -14.1598 0.145 0.982 0.118 118 68 50 0 0
-0.0861 3.0097 -14.1968 0.043 0.998 0.041 88 63 51 0 0
-0.0833 3.0105 -14.2348 -0.035 0.978 0.208 60 46 40 0 0
-0.0718 3.0275 -14.2536 -0.040 0.992 0.117 104 64 51 0 0
-0.0934 2.8365 -15.8566 0.460 0.876 0.148 96 51 41 0 0
-0.8204 1.9126 -12.5275 0.673 0.539 0.506 126 51 32 0 0
-0.7179 2.0914 -12.4258 0.617 0.134 0.775 126 51 32 0 0
-0.3881 2.6252 -12.5186 0.457 0.361 0.813 123 46 28 0 0
-0.3757 2.6441 -12.5339 0.471 0.417 0.777 121 44 26 0 0
-0.2335 2.8819 -12.4978 0.390 0.128 0.912 122 47 31 0 0
-0.1546 3.0039 -12.5773 0.546 -0.082 0.834 115 50 17 0 0
-0.1631 2.9844 -12.6321 0.323 0.345 0.881 76 17 4 0 0
-0.1498 3.0050 -12.6450 0.323 0.345 0.881 62 11 5 0 0
-0.1183 3.0591 -12.6228 0.398 0.452 0.798 63 11 6 0 0
-0.2017 2.8132 -13.7174 0.720 -0.080 0.689 24 5 1 0 0
-0.1170 2.9323 -13.9223 0.070 0.883 0.464 105 61 35 0 0
-0.0483 3.0213 -14.1647 0.852 0.372 0.369 87 61 49 0 0
-0.0382 3.0358 -14.1864 0.636 0.690 0.346 60 47 43 0 0
-0.0352 3.0370 -14.2238 0.627 0.771 0.115 98 59 47 0 0
0.6343 3.8656 -16.9831 0.025 -0.269 0.963 200 200 202 0 0
-0.8374 1.8400 -12.4437 0.571 0.289 0.768 125 49 33 0 0
-0.8125 1.8778 -12.4767 0.590 0.566 0.576 125 50 31 0 0
-0.5512 2.3055 -12.5119 -0.037 0.745 0.666 126 49 31 0 0
-0.4257 2.5124 -12.5134 0.425 0.177 0.887 128 51 33 0 0
-0.3180 2.6871 -12.5438 0.049 0.394 0.918 117 42 23 0 0
-0.1156 3.0171 -12.5824 0.280 0.145 0.949 72 14 2 0 0
-0.0670 2.9498 -14.0371 -0.019 0.359 0.933 65 16 9 0 0
0.0025 2.8813 -15.8423 -0.039 0.184 0.982 38 36 41 0 0
0.0196 2.9088 -15.8500 0.177 0.275 0.945 37 35 38 0 0
-0.8191 1.8166 -12.4509 0.513 0.132 0.848 124 49 32 0 0
-0.7886 1.8647 -12.4742 0.279 0.762 0.585 125 50 31 0 0
-0.7790 1.8784 -12.4957 0.366 0.860 0.357 131 56 37 0 0
-0.1479 2.9143 -12.5707 0.497 0.343 0.797 160 86 56 0 0
-0.1156 2.9663 -12.5854 0.364 0.812 0.456 119 55 18 0 0
-0.1065 2.9791 -12.6065 0.586 0.649 0.485 70 14 2 0 0
-0.0778 2.8887 -13.9367 0.658 0.639 0.397 114 71 40 0 0
-0.0480 2.9356 -13.9589 0.443 0.729 0.523 74 18 4 0 0
-0.0051 2.8344 -15.6217 0.290 0.854 0.433 106 70 60 0 0
0.0375 2.8794 -15.8669 0.656 0.200 0.728 37 35 38 0 0
-0.5908 2.1358 -12.5095 -0.189 0.318 0.929 121 42 25 0 0
-0.5761 2.1588 -12.5216 -0.193 0.363 0.911 124 46 28 0 0
-0.1583 2.8520 -12.5167 0.590 0.423 0.688 133 62 46 0 0
-0.1477 2.8677 -12.5347 0.375 0.782 0.498 152 90 75 0 0
-0.1408 2.8765 -12.5600 0.213 0.704 0.677 156 87 66 0 0
-0.1305 2.8915 -12.5788 0.213 0.704 0.677 158 82 53 0 0
-0.1085 2.9283 -12.5750 0.188 0.263 0.946 155 86 47 0 0
-0.0988 2.9424 -12.5948 0.491 0.579 0.651 126 61 19 0 0
-0.0890 2.9564 -12.6146 0.491 0.579 0.651 69 16 3 0 0
-0.1454 2.7345 -13.8284 0.747 0.665 0.028 51 8 4 0 0
0.0173 2.8604 -15.1870 0.846 0.533 0.000 120 68 50 0 0
0.0166 2.7912 -15.8293 0.581 0.467 0.667 96 55 43 0 0
0.0445 2.8341 -15.8608 0.517 0.396 0.759 38 36 39 0 0
0.0572 2.8533 -15.8795 0.517 0.396 0.759 36 34 35 0 0
-0.6570 1.9769 -12.4755 0.124 0.216 0.969 124 47 29 0 0
-0.5664 2.1242 -12.5057 -0.193 0.363 0.911 123 44 27 0 0
-0.2392 2.6706 -12.4807 -0.122 0.848 0.515 122 46 29 0 0
-0.1456 2.8203 -12.5338 0.228 0.101 0.969 134 63 49 0 0
-0.1264 2.8520 -12.5355 0.221 0.745 0.629 151 89 75 0 0
-0.1186 2.8624 -12.5591 0.116 0.784 0.610 161 92 70 0 0
-0.1087 2.8768 -12.5785 0.022 0.832 0.555 162 87 55 0 0
-0.0716 2.9378 -12.5841 0.431 0.329 0.840 123 58 19 0 0
-0.0705 2.8125 -13.7609 -0.172 -0.040 0.984 80 16 3 0 0
0.0436 2.7791 -15.8236 0.525 0.620 0.583 65 29 21 0 0
0.0608 2.8067 -15.8314 -0.060 0.575 0.816 36 26 27 0 0
0.0927 2.8520 -15.9033 0.557 -0.379 0.739 38 36 37 0 0
-0.6713 1.9016 -12.4636 0.325 0.329 0.886 126 51 32 0 0
-0.5392 2.1179 -12.4969 -0.224 0.386 0.895 126 47 30 0 0
-0.2094 2.6662 -12.5041 0.442 0.694 0.568 115 40 21 0 0
-0.1022 2.8418 -12.5306 0.123 0.780 0.614 150 88 76 0 0
-0.0459 2.8003 -13.7571 -0.172 -0.040 0.984 80 16 1 0 0
0.0378 2.7475 -15.4985 0.307 0.947 0.092 111 61 43 0 0
0.0728 2.7710 -15.8126 0.063 0.641 0.765 58 26 21 0 0
0.7248 3.7352 -16.9145 0.515 0.467 0.719 198 198 200 0 0
0.7599 3.7928 -16.9221 0.709 0.696 0.112 200 200 202 0 0
-0.6081 1.9534 -12.4681 -0.150 0.358 0.922 125 49 31 0 0
-0.5320 2.0785 -12.4856 -0.086 0.393 0.916 124 46 28 0 0
-0.5210 2.0947 -12.5043 0.190 0.454 0.871 127 49 31 0 0
-0.1968 2.6382 -12.4829 0.657 0.465 0.593 123 45 28 0 0
-0.1488 2.7112 -12.5458 0.393 0.403 0.826 114 38 24 0 0
-0.0721 2.8384 -12.5530 -0.010 0.736 0.677 158 88 68 0 0
-0.0108 2.9279 -12.6666 0.604 0.490 0.629 66 13 7 0 0
0.0159 2.8496 -13.7592 0.735 0.488 0.471 119 72 41 0 0
0.0066 2.8122 -13.9527 0.389 0.915 0.111 115 73 36 0 0
0.0450 2.8360 -14.3109 0.642 0.517 0.566 55 39 39 0 0
0.0708 2.7969 -15.0398 0.918 0.390 0.070 121 69 54 0 0
0.0746 2.7989 -15.0786 0.918 0.356 0.173 115 61 50 0 0
0.0679 2.7641 -15.2883 0.778 0.391 0.491 112 61 49 0 0
0.0775 2.7772 -15.3138 0.778 0.391 0.491 110 58 46 0 0
0.0643 2.7350 -15.4936 0.316 0.946 0.072 113 62 44 0 0
-0.5784 1.9515 -12.4552 0.047 0.444 0.895 125 50 31 0 0
-0.4976 2.0812 -12.5024 0.190 0.454 0.871 123 46 28 0 0
-0.1977 2.5847 -12.4873 0.023 0.180 0.983 123 44 27 0 0
-0.1778 2.6179 -12.4881 0.657 0.465 0.593 122 44 27 0 0
-0.1684 2.6312 -12.5089 0.657 0.465 0.593 119 42 24 0 0
-0.1939 2.4621 -13.6102 -0.573 0.819 0.010 43 42 44 0 0
-0.0058 2.7584 -13.7692 0.063 -0.339 0.938 83 20 2 0 0
0.0713 2.8312 -14.2591 -0.151 0.905 0.398 105 64 53 0 0
0.0816 2.7878 -14.7865 0.259 0.955 -0.141 86 55 48 0 0
0.0870 2.7710 -15.0107 0.873 0.487 -0.039 106 57 45 0 0
0.0833 2.7584 -15.0674 0.603 0.736 0.307 121 66 51 0 0
0.0861 2.7582 -15.1088 0.250 0.932 0.263 112 60 50 0 0
0.1013 2.7656 -15.2660 0.278 0.791 0.545 112 62 49 0 0
-0.5537 1.9404 -12.4510 0.047 0.444 0.895 124 49 30 0 0
-0.4416 2.1203 -12.5182 0.030 0.459 0.888 124 47 29 0 0
-0.1564 2.6019 -12.4891 0.690 0.191 0.698 122 44 26 0 0
-0.1464 2.6165 -12.5085 0.713 0.417 0.563 120 43 25 0 0
-0.1321 2.6390 -12.5200 0.280 0.350 0.894 118 41 25 0 0
-0.0383 2.7949 -12.5328 0.090 0.605 0.791 153 88 74 0 0
-0.0235 2.8184 -12.5429 0.434 0.704 0.563 163 92 72 0 0
0.0270 2.8874 -12.6777 0.555 0.635 0.537 65 13 8 0 0
0.0303 2.8890 -12.7106 0.493 0.718 0.492 73 16 7 0 0
0.0511 2.7985 -13.7818 0.858 0.238 0.455 111 63 31 0 0
0.1024 2.7381 -15.0312 0.820 0.421 0.389 110 61 46 0 0
0.1085 2.7445 -15.0646 0.499 0.605 0.621 121 65 51 0 0
0.1267 2.7574 -15.2143 0.324 0.907 0.270 114 65 50 0 0
0.1135 2.7258 -15.2954 0.341 0.850 0.401 113 64 49 0 0
0.1004 2.6885 -15.4260 0.398 0.861 0.317 111 59 46 0 0
0.1058 2.6933 -15.4624 0.273 0.952 0.139 108 56 42 0 0
0.1203 2.7103 -15.5259 0.637 0.771 -0.029 99 52 38 0 0
-0.5294 1.9284 -12.4475 0.175 0.564 0.807 124 49 30 0 0
-0.0144 2.7842 -12.5284 0.039 0.421 0.906 153 87 74 0 0
0.0026 2.8120 -12.5342 0.599 0.692 0.403 158 86 68 0 0
0.0099 2.8214 -12.5587 0.473 0.615 0.631 161 88 55 0 0
0.0475 2.8701 -12.6801 0.542 0.452 0.709 64 12 5 0 0
0.0508 2.8717 -12.7130 0.483 0.815 0.320 75 19 8 0 0
0.0671 2.8887 -12.7993 0.928 0.371 0.038 79 56 53 0 0
0.0624 2.8749 -12.8488 0.829 0.557 0.050 55 51 48 0 0
0.1185 2.8435 -13.9017 0.546 0.178 0.819 80 26 6 0 0
0.1254 2.8199 -14.1967 -0.355 0.808 0.470 110 64 51 0 0
0.1312 2.7256 -15.0679 0.554 0.468 0.688 121 64 50 0 0
0.1519 2.7374 -15.2607 0.755 0.612 0.236 113 63 49 0 0
0.1254 2.6674 -15.4742 0.069 0.964 0.258 113 61 47 0 0
0.1326 2.6755 -15.5065 0.069 0.964 0.258 110 60 46 0 0
0.1379 2.6801 -15.5432 0.112 0.977 0.184 99 52 40 0 0
0.0115 2.7772 -12.5203 0.099 0.403 0.910 155 88 75 0 0
0.0316 2.8064 -12.5587 0.546 0.583 0.601 160 86 52 0 0
0.1051 2.7731 -13.8506 0.711 0.414 0.569 69 14 6 0 0
0.1365 2.8184 -13.9126 0.674 0.141 0.725 78 23 5 0 0
0.1743 2.8436 -14.2283 0.047 0.159 0.986 74 43 35 0 0
0.1846 2.8583 -14.2499 0.077 0.414 0.907 53 39 43 0 0
0.1971 2.8775 -14.2663 0.331 0.887 0.323 52 41 42 0 0
0.1513 2.7479 -14.6963 0.696 0.710 0.108 51 47 51 0 0
0.1435 2.7153 -14.8564 0.617 0.656 0.434 117 66 46 0 0
0.1434 2.7094 -14.9042 0.427 0.822 0.376 109 57 51 0 0
0.1730 2.7149 -15.2684 0.728 0.667 0.156 115 62 50 0 0
0.1677 2.6742 -15.5299 0.112 0.977 0.184 105 57 46 0 0
-0.4749 1.9062 -12.5072 0.097 0.224 0.970 122 45 27 0 0
-0.1352 2.4763 -12.5349 0.153 0.265 0.952 123 47 28 0 0
-0.1197 2.5012 -12.5443 0.153 0.265 0.952 123 48 29 0 0
0.0346 2.7650 -12.5175 0.635 0.601 0.485 159 92 77 0 0
0.0425 2.7755 -12.5409 0.635 0.601 0.485 158 87 66 0 0
0.0504 2.7860 -12.5643 0.635 0.601 0.485 161 88 53 0 0
0.1245 2.7506 -13.8584 0.711 0.414 0.569 70 15 7 0 0
0.1337 2.7632 -13.8820 0.726 0.397 0.562 99 50 24 0 0
0.1534 2.7909 -13.9261 0.789 0.217 0.574 75 20 4 0 0
0.1562 2.7910 -13.9640 0.766 0.499 0.406 57 9 4 0 0
0.1508 2.6898 -14.7065 0.579 0.677 0.455 52 45 47 0 0
0.1692 2.7205 -14.7099 0.324 0.598 0.733 52 43 46 0 0
0.1902 2.6598 -15.4849 0.623 0.701 0.347 120 68 50 0 0
0.1821 2.6374 -15.5556 0.762 0.638 0.106 112 65 50 0 0
-0.4704 1.8611 -12.5009 0.035 0.258 0.966 124 47 29 0 0
-0.4348 1.9197 -12.5139 0.404 0.666 0.627 125 48 30 0 0
-0.0975 2.4865 -12.5438 0.153 0.265 0.952 118 43 24 0 0
0.0897 2.7902 -12.6475 0.473 0.690 0.547 57 8 3 0 0
0.0983 2.8019 -12.6698 0.473 0.690 0.547 62 11 6 0 0
0.0344 2.5511 -13.8003 -0.013 -0.083 0.996 32 5 3 0 0
0.1269 2.7002 -13.8599 0.401 0.245 0.883 64 12 7 0 0
0.1434 2.7271 -13.8673 0.584 0.444 0.680 71 16 8 0 0
0.1545 2.7435 -13.8866 0.621 0.465 0.631 113 64 37 0 0
0.2196 2.7753 -14.5063 0.686 0.715 -0.139 49 45 46 0 0
0.1873 2.6993 -14.6761 0.638 0.709 0.300 53 45 47 0 0
0.1957 2.7100 -14.7034 0.535 0.693 0.483 57 43 42 0 0
0.1842 2.6631 -14.9212 0.810 0.391 0.437 116 63 47 0 0
0.2031 2.6138 -15.5645 0.762 0.638 0.106 102 54 42 0 0
0.0027 2.6086 -12.5090 -0.052 0.274 0.960 118 44 28 0 0
0.0995 2.7620 -12.5924 0.571 0.304 0.763 142 75 32 0 0
0.1069 2.7714 -12.6170 0.532 0.643 0.551 86 28 6 0 0
-0.0242 2.3967 -13.8024 -0.513 0.792 0.333 9 1 1 0 0
0.1478 2.6805 -13.8645 0.479 0.323 0.816 62 12 6 0 0
0.1642 2.7072 -13.8722 0.584 0.444 0.680 72 16 9 0 0
0.1845 2.7248 -14.0037 -0.011 0.933 0.361 54 8 6 0 0
0.1489 2.5833 -14.6347 -0.573 0.801 0.171 48 44 46 0 0
0.2464 2.7420 -14.6860 0.753 0.468 0.462 111 67 54 0 0
0.2399 2.6285 -15.4830 0.513 0.655 0.555 101 51 40 0 0
0.2259 2.5938 -15.5689 0.675 0.591 0.443 102 54 45 0 0
0.2253 2.5861 -15.6212 0.620 0.785 0.008 91 50 42 0 0
0.2388 2.6068 -15.6379 0.775 0.554 0.304 87 52 43 0 0
0.2536 2.6104 -15.8053 0.849 0.274 0.451 97 55 46 0 0
-0.1325 2.3228 -12.5390 0.181 0.732 0.657 124 46 29 0 0
0.0658 2.6591 -12.5452 0.333 0.558 0.760 138 67 49 0 0
0.1086 2.7275 -12.5782 0.583 0.493 0.646 163 91 52 0 0
0.0468 2.4644 -13.7861 -0.430 0.107 0.896 27 6 3 0 0
0.0625 2.4897 -13.7958 -0.173 0.009 0.985 31 6 2 0 0
0.2126 2.7250 -13.9479 0.117 0.798 0.592 67 13 2 0 0
0.2118 2.6882 -14.2195 0.069 0.745 0.664 108 65 51 0 0
0.1875 2.6032 -14.5529 0.107 0.988 0.114 48 43 43 0 0
0.1810 2.5840 -14.6151 -0.221 0.967 0.130 48 45 47 0 0
0.2601 2.7122 -14.6626 0.731 0.678 0.079 78 51 44 0 0
0.2658 2.7175 -14.6962 0.656 0.528 0.540 118 67 54 0 0
0.2638 2.6110 -15.4844 0.513 0.655 0.555 101 51 41 0 0
0.2481 2.5723 -15.5751 0.678 0.690 0.252 102 55 46 0 0
0.2651 2.5599 -15.8919 0.769 0.639 -0.034 40 31 32 0 0
-0.1182 2.2975 -12.5148 0.181 0.732 0.657 126 49 31 0 0
-0.1079 2.3124 -12.5342 0.181 0.732 0.657 124 47 29 0 0
0.0844 2.6377 -12.5516 0.595 0.507 0.624 136 63 46 0 0
0.1008 2.5044 -13.7624 -0.408 0.264 0.874 30 5 2 0 0
0.2916 2.7310 -14.5025 0.763 0.612 -0.210 49 46 46 0 0
0.2829 2.6944 -14.6648 0.689 0.724 0.038 93 56 46 0 0
0.2878 2.6982 -14.7002 0.596 0.657 0.462 125 68 51 0 0
0.2979 2.7121 -14.7236 0.267 0.092 0.959 117 63 49 0 0
0.3087 2.7278 -14.7449 -0.152 0.199 0.968 111 61 46 0 0
0.2857 2.5892 -15.4911 0.463 0.821 0.335 101 51 41 0 0
0.1060 2.6277 -12.5126 0.329 0.515 0.792 124 48 30 0 0
0.1099 2.6301 -12.5442 0.242 0.800 0.549 139 66 49 0 0
0.1222 2.6490 -12.5592 0.140 0.664 0.734 160 87 70 0 0
0.0849 2.4284 -13.7164 0.135 0.991 0.020 12 4 4 0 0
0.0928 2.4384 -13.7428 -0.428 0.551 0.716 29 11 8 0 0
0.1131 2.4731 -13.7422 -0.490 0.257 0.833 28 7 4 0 0
0.1851 2.5997 -13.7150 0.234 0.595 0.769 57 10 3 0 0
0.2671 2.7049 -13.9731 0.560 0.761 0.327 60 15 8 0 0
0.2928 2.6505 -14.6979 0.683 0.212 0.699 108 64 51 0 0
0.3050 2.6689 -14.7161 0.505 0.135 0.852 128 66 47 0 0
0.3207 2.6944 -14.7256 0.340 0.004 0.940 113 60 47 0 0
0.3330 2.7129 -14.7436 0.127 0.064 0.990 113 64 49 0 0
0.2625 2.5428 -15.1110 0.903 0.013 0.429 112 61 50 0 0
0.2736 2.5588 -15.1327 0.807 0.112 0.580 103 54 47 0 0
0.3169 2.6339 -15.1236 0.808 0.585 -0.069 100 54 39 0 0
0.2955 2.5287 -15.6310 0.799 0.517 0.308 89 50 40 0 0
-0.0802 2.2548 -12.5266 0.492 0.337 0.803 125 48 30 0 0
-0.0636 2.2822 -12.5338 0.443 0.495 0.748 125 48 30 0 0
0.0319 2.2720 -13.7940 0.668 0.014 0.744 5 1 0 0 0
0.1088 2.4145 -13.7145 -0.301 0.953 0.028 11 4 4 0 0
0.1168 2.4246 -13.7407 -0.628 0.565 0.535 27 11 8 0 0
0.2961 2.7137 -13.8700 0.469 0.089 0.879 95 36 14 0 0
0.2830 2.6810 -13.9446 0.560 0.761 0.327 62 8 1 0 0
0.2979 2.6988 -14.0003 0.328 0.679 0.657 67 16 8 0 0
0.3307 2.6700 -14.6160 0.731 0.608 0.309 67 44 41 0 0
0.3157 2.6328 -14.6999 0.364 0.394 0.844 114 63 47 0 0
0.3245 2.6442 -14.7264 0.228 0.126 0.966 124 64 45 0 0
0.3410 2.6714 -14.7340 0.137 -0.039 0.990 111 57 47 0 0
0.3580 2.6995 -14.7405 0.244 0.141 0.959 115 66 52 0 0
0.2767 2.5060 -15.1357 0.919 0.148 0.365 110 59 46 0 0
0.2973 2.4504 -15.7941 0.573 0.527 0.628 64 21 13 0 0
0.3084 2.4662 -15.8174 0.573 0.527 0.628 94 35 18 0 0
0.3206 2.4844 -15.8376 0.543 0.076 0.836 108 53 34 0 0
-0.3633 1.7180 -12.5127 0.375 0.390 0.841 123 48 29 0 0
-0.0602 2.2353 -12.5307 0.492 0.337 0.803 126 48 30 0 0
-0.0354 2.2737 -12.5613 0.545 0.343 0.765 124 49 30 0 0
0.1415 2.5817 -12.5286 0.044 0.760 0.648 124 48 33 0 0
0.1519 2.5969 -12.5473 0.137 0.622 0.771 136 65 47 0 0
0.2276 2.6978 -12.7532 0.160 0.714 0.681 100 42 26 0 0
0.3169 2.6938 -13.8749 0.605 0.256 0.754 90 30 10 0 0
0.3071 2.6676 -13.9421 0.561 0.709 0.428 61 10 2 0 0
0.3122 2.6716 -13.9754 0.463 0.633 0.621 56 10 4 0 0
0.3222 2.6858 -13.9973 0.463 0.633 0.621 64 12 3 0 0
0.3488 2.6428 -14.6294 0.652 0.464 0.600 78 50 44 0 0
0.3379 2.6135 -14.7038 0.350 0.323 0.880 120 66 50 0 0
0.3473 2.6263 -14.7287 0.062 0.015 0.998 121 61 45 0 0
0.2954 2.4359 -15.4509 -0.616 0.021 0.787 83 51 46 0 0
0.3217 2.4327 -15.7955 0.700 0.273 0.660 65 20 12 0 0
0.3656 2.5022 -15.8372 0.504 -0.108 0.857 47 21 18 0 0
-0.1921 1.9581 -12.5103 -0.162 0.327 0.931 124 47 29 0 0
-0.1818 1.9731 -12.5301 -0.230 0.388 0.893 124 47 29 0 0
-0.1006 2.1122 -12.5329 0.292 0.267 0.918 123 44 27 0 0
-0.0874 2.1330 -12.5469 0.354 0.261 0.898 124 45 28 0 0
-0.0720 2.1580 -12.5568 0.439 0.355 0.825 126 47 30 0 0
-0.0322 2.2319 -12.5191 0.417 0.535 0.735 125 47 29 0 0
-0.0212 2.2482 -12.5372 0.417 0.535 0.735 124 47 29 0 0
-0.0072 2.2706 -12.5494 0.469 0.569 0.676 123 48 29 0 0
0.2028 2.6117 -12.6881 0.267 0.805 0.530 75 18 3 0 0
0.2115 2.6235 -12.7104 0.267 0.805 0.530 61 8 3 0 0
0.2180 2.6310 -12.7373 0.381 0.754 0.535 75 15 2 0 0
0.3306 2.6593 -13.8961 0.577 0.490 0.654 83 21 6 0 0
0.3285 2.6487 -13.9458 0.407 0.850 0.333 61 11 4 0 0
0.3387 2.6631 -13.9674 0.531 0.517 0.672 58 12 6 0 0
0.3466 2.6729 -13.9942 0.581 0.644 0.498 65 11 3 0 0
0.3860 2.7278 -14.0839 0.673 0.043 0.738 117 69 55 0 0
0.3512 2.5828 -14.6813 0.660 0.685 0.308 95 60 50 0 0
0.3573 2.5886 -14.7144 0.414 0.169 0.895 124 67 50 0 0
0.3690 2.6058 -14.7339 0.012 0.180 0.984 118 59 45 0 0
0.3863 2.6349 -14.7394 0.012 0.180 0.984 113 58 41 0 0
0.3164 2.4480 -15.2076 0.823 0.109 0.558 104 56 46 0 0
0.3560 2.4283 -15.8231 0.748 0.086 0.658 102 42 26 0 0
-0.3165 1.6899 -12.5096 -0.292 0.729 0.619 124 49 30 0 0
-0.1920 1.9040 -12.5128 0.439 -0.001 0.899 124 48 30 0 0
-0.0873 2.0791 -12.5500 -0.084 0.532 0.843 124 45 28 0 0
-0.0744 2.0992 -12.5647 -0.009 0.647 0.763 126 47 30 0 0
-0.0621 2.1181 -12.5806 -0.009 0.647 0.763 125 48 30 0 0
-0.0159 2.2050 -12.5303 0.165 0.345 0.924 125 48 30 0 0
0.0020 2.2350 -12.5351 0.298 0.435 0.850 124 47 29 0 0
0.0143 2.2539 -12.5507 0.073 0.579 0.812 123 46 27 0 0
0.1131 2.4239 -12.5537 0.077 0.728 0.682 114 41 25 0 0
0.1906 2.5626 -12.5175 -0.046 0.728 0.684 123 49 34 0 0
0.2332 2.4677 -13.6798 0.198 0.017 0.980 25 6 3 0 0
0.3070 2.5740 -13.8237 0.461 0.339 0.820 61 10 2 0 0
0.3265 2.6074 -13.8241 0.362 0.559 0.746 63 11 3 0 0
0.3517 2.6399 -13.9004 0.467 0.485 0.740 80 18 4 0 0
0.3689 2.6556 -13.9960 0.654 0.633 0.413 73 18 10 0 0
0.3781 2.5664 -14.7216 0.692 0.075 0.718 123 66 50 0 0
0.3887 2.5815 -14.7437 0.420 0.093 0.903 116 58 44 0 0
0.4043 2.6069 -14.7536 0.420 0.093 0.903 112 57 37 0 0
0.3429 2.4360 -15.2023 0.360 0.683 0.636 102 54 44 0 0
-0.0619 2.0699 -12.5440 -0.071 0.644 0.762 124 45 28 0 0
-0.0505 2.0871 -12.5615 -0.063 0.692 0.719 124 46 29 0 0
0.0537 2.2620 -12.5961 0.371 0.244 0.896 119 43 27 0 0
0.1384 2.4155 -12.5470 -0.061 0.703 0.709 113 40 25 0 0
0.1950 2.5183 -12.5128 -0.460 0.505 0.730 109 38 21 0 0
0.2341 2.5798 -12.5532 0.028 0.772 0.635 161 88 68 0 0
0.2498 2.6059 -12.5610 0.242 0.339 0.909 160 84 56 0 0
0.2814 2.6582 -12.5762 0.377 0.193 0.906 133 67 25 0 0
0.2021 2.4364 -13.1519 0.870 0.415 -0.267 52 50 52 0 0
0.2176 2.3858 -13.6775 0.757 -0.090 0.647 16 8 6 0 0
0.3478 2.5885 -13.8277 0.223 0.735 0.641 74 22 11 0 0
0.3731 2.6209 -13.9042 0.560 0.495 0.665 77 17 3 0 0
0.4017 2.6401 -14.1100 0.661 0.738 0.137 112 68 50 0 0
0.4069 2.6440 -14.1438 0.576 0.815 0.058 113 66 50 0 0
0.3784 2.5644 -14.3508 0.821 0.567 0.065 115 54 43 0 0
0.4290 2.5928 -14.7513 0.161 0.122 0.979 118 64 43 0 0
-0.0232 2.0819 -12.5517 0.143 0.701 0.699 123 44 27 0 0
0.0754 2.2457 -12.5970 0.373 0.213 0.903 118 42 26 0 0
0.2739 2.4257 -13.6914 0.823 0.080 0.563 26 7 5 0 0
0.3486 2.5403 -13.7891 -0.120 0.652 0.748 81 34 12 0 0
0.3833 2.5922 -13.8437 0.032 0.822 0.569 123 77 48 0 0
0.3996 2.6126 -13.8960 0.424 0.706 0.567 75 16 3 0 0
0.3971 2.5595 -14.2222 0.788 0.610 0.076 109 61 46 0 0
0.4132 2.5153 -14.7041 0.721 0.600 0.347 118 69 52 0 0
0.4263 2.5355 -14.7202 -0.397 0.236 0.887 119 62 50 0 0
0.4375 2.5518 -14.7409 -0.096 0.111 0.989 111 54 43 0 0
0.4072 2.4059 -15.3651 -0.326 -0.099 0.940 91 55 45 0 0
0.4286 2.4436 -15.3608 -0.158 -0.012 0.987 72 41 40 0 0
-1.3542 -0.3020 -12.6842 -0.462 0.780 0.421 111 52 40 0 0
0.0049 2.0783 -12.5402 -0.068 0.729 0.681 124 44 27 0 0
0.0421 2.1358 -12.5869 -0.104 0.904 0.414 125 44 27 0 0
0.0798 2.2065 -12.5522 -0.096 0.681 0.726 123 45 25 0 0
0.1003 2.2421 -12.5515 -0.051 0.651 0.757 120 43 24 0 0
0.0953 2.2259 -12.6014 0.348 0.366 0.863 118 42 26 0 0
0.2619 2.5235 -12.5455 0.519 0.657 0.546 144 72 56 0 0
0.3183 2.5838 -12.7928 0.595 0.804 -0.000 97 43 31 0 0
0.3533 2.4867 -13.8309 0.061 0.306 0.950 75 29 8 0 0
0.3815 2.5318 -13.8559 0.501 0.682 0.532 84 36 20 0 0
0.3906 2.5439 -13.8801 0.583 0.619 0.526 120 73 43 0 0
0.4005 2.5578 -13.9022 0.556 0.514 0.654 108 51 20 0 0
0.4044 2.5591 -13.9383 0.648 0.668 0.366 72 14 3 0 0
0.4235 2.5501 -14.2149 0.613 0.790 -0.010 108 60 45 0 0
0.4469 2.5200 -14.6797 0.872 0.466 0.148 122 70 51 0 0
0.4151 2.2825 -15.8788 0.411 0.711 0.570 70 21 7 0 0
0.4255 2.2968 -15.9041 0.411 0.711 0.570 113 55 31 0 0
0.4366 2.3124 -15.9278 0.394 0.751 0.530 86 50 36 0 0
0.4467 2.3258 -15.9543 0.394 0.751 0.530 32 24 26 0 0
0.0548 2.1072 -12.5656 0.239 0.824 0.514 123 44 27 0 0
0.2852 2.5115 -12.5424 0.320 0.846 0.426 146 77 60 0 0
0.3297 2.5593 -12.7334 0.209 0.308 0.928 91 24 7 0 0
0.3906 2.4939 -13.8431 0.354 0.454 0.817 63 10 6 0 0
0.4220 2.5389 -13.9057 0.556 0.514 0.654 105 48 19 0 0
0.4460 2.5327 -14.2168 0.792 0.609 -0.042 108 60 44 0 0
0.4511 2.4169 -15.0239 0.942 0.250 0.222 119 65 54 0 0
0.4930 2.4675 -15.1677 0.919 0.388 -0.071 102 55 42 0 0
0.4833 2.4151 -15.3972 0.842 -0.040 0.537 121 66 48 0 0
0.4373 2.2596 -15.8864 0.575 0.392 0.718 70 23 8 0 0
0.4629 2.2982 -15.9246 0.614 0.640 0.462 94 57 44 0 0
0.1592 2.2293 -12.6022 0.602 -0.021 0.798 116 41 25 0 0
0.3090 2.5005 -12.5384 0.320 0.846 0.426 146 78 60 0 0
0.3279 2.5079 -12.7014 0.099 0.555 0.826 61 10 1 0 0
0.3421 2.5309 -12.7126 0.460 0.780 0.423 71 14 2 0 0
0.3528 2.5466 -12.7310 0.430 0.521 0.737 92 24 6 0 0
0.3693 2.5681 -12.7779 0.072 0.938 0.338 97 44 34 0 0
0.3789 2.5816 -12.7987 -0.146 0.846 0.514 92 54 51 0 0
0.3895 2.4416 -13.8086 0.357 0.253 0.899 114 67 33 0 0
0.4168 2.4851 -13.8356 0.580 0.492 0.650 65 12 6 0 0
0.4456 2.5244 -13.9045 0.495 0.614 0.615 102 44 17 0 0
0.5055 2.5862 -14.1763 0.452 0.674 0.584 119 66 45 0 0
0.4618 2.3794 -15.0084 0.686 0.680 0.258 117 67 50 0 0
0.4683 2.3855 -15.0419 0.686 0.680 0.258 118 63 52 0 0
0.4852 2.4140 -15.0487 0.353 0.930 0.106 113 57 51 0 0
0.4836 2.3708 -15.3062 0.464 -0.398 0.791 118 64 46 0 0
0.4679 2.2548 -15.8714 0.614 0.640 0.462 80 28 13 0 0
0.4772 2.2665 -15.8999 0.614 0.640 0.462 113 57 34 0 0
0.4835 2.2717 -15.9368 0.796 0.466 0.388 67 35 24 0 0
0.3418 2.4825 -12.6775 0.075 0.741 0.667 102 43 14 0 0
0.3982 2.5674 -12.7633 0.287 0.627 0.724 97 44 34 0 0
0.4381 2.4656 -13.8398 0.580 0.492 0.650 63 11 4 0 0
0.4581 2.4936 -13.8837 0.495 0.614 0.615 121 79 43 0 0
0.4681 2.5075 -13.9058 0.305 0.611 0.731 94 36 11 0 0
0.5072 2.5542 -14.0423 0.661 0.086 0.745 105 48 28 0 0
0.5043 2.3947 -15.0116 0.089 0.878 0.471 119 62 50 0 0
0.5120 2.4032 -15.0421 0.100 0.986 0.130 114 58 51 0 0
0.4952 2.3265 -15.3399 0.354 -0.453 0.818 118 67 49 0 0
0.5011 2.3229 -15.4275 0.850 -0.089 0.518 72 45 42 0 0
-0.0612 1.7350 -12.6034 0.764 0.273 0.584 124 45 28 0 0
0.3945 2.5119 -12.7355 0.401 0.255 0.880 99 27 6 0 0
0.4147 2.5407 -12.7751 0.438 0.067 0.897 96 46 35 0 0
0.4297 2.5655 -12.7842 0.438 0.067 0.897 90 53 49 0 0
0.4791 2.4736 -13.8885 0.058 0.400 0.915 119 77 38 0 0
0.5117 2.2333 -15.7279 0.548 0.835 -0.044 95 51 45 0 0
-0.0409 1.7212 -12.5675 0.361 0.209 0.909 124 46 28 0 0
-0.0245 1.7488 -12.5757 0.410 0.256 0.875 124 45 28 0 0
0.0298 1.8417 -12.5901 0.162 0.612 0.774 125 46 29 0 0
0.2229 2.1845 -12.5672 -0.244 0.615 0.750 121 46 26 0 0
0.4350 2.5221 -12.7786 0.388 0.030 0.921 95 48 37 0 0
0.4894 2.4381 -13.8729 0.361 0.596 0.717 116 68 46 0 0
0.5208 2.4904 -13.8901 0.034 0.046 0.998 85 27 6 0 0
0.5440 2.5025 -14.0651 0.753 0.450 0.479 109 50 30 0 0
0.5398 2.4153 -14.5502 0.516 0.292 0.805 107 67 52 0 0
0.5640 2.3788 -15.0324 0.525 0.832 0.179 113 58 50 0 0
0.5481 2.3357 -15.1245 0.725 0.532 0.438 104 56 48 0 0
0.5783 2.3512 -15.3532 0.685 0.728 0.026 88 53 50 0 0
0.1865 2.0600 -12.6049 0.474 0.283 0.834 124 46 26 0 0
0.2009 2.0834 -12.6164 0.437 0.247 0.865 123 46 27 0 0
0.4144 2.4717 -12.5410 -0.090 0.784 0.614 155 75 45 0 0
0.4250 2.4873 -12.5593 -0.090 0.784 0.614 155 74 32 0 0
0.4652 2.5245 -12.7608 0.382 -0.193 0.904 94 49 37 0 0
0.5148 2.4274 -13.8674 0.326 0.438 0.838 116 70 46 0 0
0.5438 2.4747 -13.8901 0.165 0.100 0.981 80 20 2 0 0
0.5607 2.4804 -14.0343 0.233 0.653 0.721 86 26 9 0 0
0.5630 2.4776 -14.0753 0.364 0.847 0.387 109 52 33 0 0
0.5696 2.3132 -15.1318 0.687 0.609 0.397 105 56 49 0 0
0.6087 2.3478 -15.3375 0.467 0.841 0.273 97 56 49 0 0
0.5458 2.1916 -15.6107 0.268 0.903 0.335 111 53 43 0 0
0.5616 2.1731 -15.8894 -0.260 0.584 0.769 103 48 28 0 0
0.5791 2.1937 -15.9501 0.162 0.972 0.167 41 21 17 0 0
-1.1552 -0.3598 -12.5973 0.328 -0.072 0.942 114 58 49 0 0
0.0522 1.7703 -12.5941 -0.100 0.856 0.508 126 47 30 0 0
0.0610 1.7818 -12.6174 -0.024 0.898 0.439 125 46 29 0 0
0.4450 2.4752 -12.5226 0.199 0.645 0.737 156 78 49 0 0
0.4560 2.4917 -12.5400 0.187 0.840 0.509 152 71 31 0 0
0.4775 2.4745 -12.8653 0.858 0.319 0.403 59 49 46 0 0
0.5377 2.4113 -13.8679 0.326 0.438 0.838 124 78 51 0 0
0.5806 2.4575 -14.0423 0.336 0.875 0.348 88 30 11 0 0
0.5869 2.4632 -14.0738 0.364 0.861 0.355 106 51 33 0 0
0.5615 2.2936 -14.8123 -0.076 0.993 0.085 119 59 47 0 0
0.6327 2.3391 -15.2866 0.256 0.942 0.218 65 44 38 0 0
0.6337 2.3326 -15.3360 0.288 0.949 0.128 105 60 50 0 0
0.5791 2.1667 -15.7481 0.316 0.931 -0.182 86 48 44 0 0
0.5920 2.1861 -15.7669 0.057 0.983 0.177 82 46 43 0 0
0.0376 1.6905 -12.5863 0.298 0.138 0.945 123 44 27 0 0
0.0895 1.7858 -12.5647 0.383 0.764 0.519 124 45 28 0 0
0.4468 2.3894 -12.7292 0.214 0.682 0.699 61 12 2 0 0
0.4894 2.4447 -12.8457 0.879 0.443 0.175 80 51 46 0 0
0.5374 2.3685 -13.7858 0.662 0.717 0.219 83 31 11 0 0
0.5516 2.3836 -13.8437 0.225 0.419 0.880 90 40 26 0 0
0.5941 2.4367 -13.9725 -0.068 0.694 0.717 62 12 1 0 0
0.5932 2.2944 -14.7925 -0.076 0.993 0.085 118 58 46 0 0
0.6448 2.3655 -14.9097 -0.519 0.793 0.320 121 69 53 0 0
0.6383 2.3338 -15.0279 0.575 0.818 0.010 115 58 50 0 0
0.6607 2.3307 -15.2771 0.672 0.604 0.429 70 44 40 0 0
0.5953 2.1577 -15.6114 0.495 0.676 0.547 108 51 40 0 0
0.6081 2.1588 -15.7373 0.245 0.967 -0.064 85 48 42 0 0
0.6202 2.1766 -15.7580 -0.052 0.729 0.682 79 44 38 0 0
0.1192 1.7856 -12.5503 0.625 0.396 0.673 125 46 29 0 0
0.4727 2.3823 -12.7211 0.032 0.804 0.594 64 12 2 0 0
0.5184 2.4371 -12.8725 0.647 0.459 0.608 59 49 48 0 0
0.3703 2.0021 -13.8644 0.474 -0.547 0.690 17 5 4 0 0
0.6025 2.3558 -14.1967 0.128 0.976 0.178 111 66 51 0 0
0.6328 2.3894 -14.3124 0.798 0.563 0.214 120 64 49 0 0
0.6673 2.3015 -15.1691 0.811 0.581 0.071 115 58 48 0 0
0.6711 2.3011 -15.2105 0.811 0.581 0.071 122 70 57 0 0
0.6750 2.3008 -15.2521 0.811 0.581 0.071 81 47 39 0 0
0.6818 2.3068 -15.2860 0.790 0.587 0.178 78 46 40 0 0
0.6183 2.1369 -15.6164 0.644 0.753 0.131 111 53 41 0 0
0.6438 2.1755 -15.6539 0.233 0.682 0.693 101 54 44 0 0
0.4795 2.3417 -12.7123 0.419 0.323 0.849 79 24 3 0 0
0.4929 2.3633 -12.7249 0.426 0.619 0.660 68 13 4 0 0
0.5080 2.3811 -12.7758 0.245 0.849 0.469 97 24 2 0 0
0.3900 1.9862 -13.8271 -0.551 0.579 0.601 5 3 3 0 0
0.6483 2.3727 -14.2364 -0.192 0.613 0.766 107 59 42 0 0
0.6385 2.3084 -14.5025 0.372 0.814 0.446 106 56 44 0 0
0.6835 2.2761 -15.1390 0.710 0.699 -0.088 118 61 53 0 0
0.6946 2.2736 -15.2650 0.798 0.602 -0.024 70 42 37 0 0
0.0920 1.6226 -12.5718 0.408 0.142 0.902 124 46 29 0 0
0.0998 1.6318 -12.5972 0.424 0.327 0.845 124 46 29 0 0
0.1819 1.7782 -12.5959 0.032 0.610 0.791 123 46 28 0 0
0.2198 1.8449 -12.6008 0.081 0.332 0.940 125 46 29 0 0
0.2328 1.8653 -12.6154 0.182 0.158 0.970 124 45 28 0 0
0.4085 2.1845 -12.5797 0.047 0.889 0.456 114 43 25 0 0
0.5190 2.3569 -12.7162 0.289 0.856 0.428 71 15 7 0 0
0.5258 2.3641 -12.7433 0.297 0.798 0.525 96 25 6 0 0
0.4523 2.0555 -13.7370 0.503 0.803 -0.319 4 1 2 0 0
0.4471 2.0359 -13.7948 0.503 0.803 -0.319 23 8 8 0 0
0.5597 2.2345 -13.8055 -0.309 0.603 0.735 129 73 36 0 0
0.6665 2.3020 -14.4916 -0.014 0.942 0.336 105 55 42 0 0
0.6824 2.2664 -14.8485 -0.042 0.812 0.582 114 69 53 0 0
0.6890 2.1319 -15.6664 0.727 0.328 0.604 96 52 43 0 0
0.0966 1.5756 -12.5669 0.614 0.306 0.728 124 47 31 0 0
0.1140 1.6056 -12.5730 0.461 0.160 0.873 125 48 31 0 0
