ply
format ascii 1.0
element vertex 685
property float x
property float y
property float z
property uchar diffuse_red
property uchar diffuse_green
property uchar diffuse_blue
end_header
-0.18023730035829813 -0.44486831944760663 -12.773892034747607 132 46 20
-0.1821025766986453 -0.48411249260346256 -12.776720147185745 130 44 19
-0.18394627318611653 -0.5221304220587948 -12.780580199235459 129 44 18
-0.18574585976237976 -0.5573910708430461 -12.78689534644224 128 42 17
-0.18699556312745744 -0.5557394769853641 -12.82731731243361 123 36 13
-0.188881580299691 -0.5969841129477906 -12.82802045792749 135 49 24
-0.19073851449758597 -0.6364881135628293 -12.830235716979239 124 41 14
-0.1920306002335805 -0.6374344406015586 -12.868369567512017 127 48 21
-0.19298650861022076 -0.61491173007885 -12.92859903778053 132 57 29
-0.19449816923857471 -0.6304812008237244 -12.95327404675913 133 59 33
-0.19692065271579756 -0.7096894815486943 -12.918011276302689 127 51 26
-0.20001486016770867 -0.746312464549189 -12.961964104443027 115 42 25
-0.20167442238303385 -0.7725902779452856 -12.976389920978788 94 28 14
-0.20353935264852402 -0.8136724187316862 -12.976673459703296 93 26 11
-0.20509873831823838 -0.8329518626879926 -12.997690239254286 91 29 16
-0.20670185099677563 -0.8553885922164897 -13.0156887485299 77 32 23
-0.20817759499348737 -0.8685245838349296 -13.042622511567364 60 37 31
-0.20945750508723765 -0.8671278165894494 -13.083615152638558 63 53 47
-0.2108175441750693 -0.8713711051531252 -13.119277626133812 73 64 60
-0.21210556211250436 -0.8700059044126558 -13.160474223487789 118 107 105
-0.21359282184937609 -0.8833144126565458 -13.187521634343508 129 121 117
-0.21508680781454628 -0.8970243672673659 -13.214220875940253 112 106 101
-0.21666933764039467 -0.9173837398506111 -13.234455188320922 113 109 102
-0.21807711410391845 -0.9243103961027872 -13.267875192385572 130 127 118
-0.2195788086988134 -0.9382993837180731 -13.294425022328598 132 132 122
-0.2211235062510814 -0.9555365071257782 -13.317809226231947 133 132 122
-0.22262397926818714 -0.9692453225904378 -13.34470804376797 122 117 108
-0.22429456172297033 -0.9962983946608936 -13.358401381950651 123 116 106
-0.22593681812468147 -1.0211841771217474 -13.374218166590317 137 129 119
-0.22700998216184862 -1.0004346758652698 -13.435581923541182 126 118 108
-0.22863507263072386 -1.0236978429162065 -13.453111853261843 116 107 100
-0.23019196614618406 -1.0414335307583658 -13.4761809446456 123 112 106
-0.23174011009872347 -1.0583968925143745 -13.500047779464301 122 110 106
-0.23336415248229833 -1.081580764323192 -13.51765504283992 120 107 103
-0.23506214166951672 -1.1109717624406814 -13.528961617116146 114 100 96
-0.23652202594814695 -1.1204545077596277 -13.56044803076312 122 109 104
-0.23804375973716446 -1.1349949518258562 -13.586849226114797 127 115 109
-0.23955230332245603 -1.1482970540844555 -13.614555119463434 125 115 109
-0.24101072314534253 -1.1571421254981544 -13.646875995830648 123 111 105
-0.2424437891138409 -1.1635714708674296 -13.681753559496375 124 109 104
-0.24400346603863005 -1.1808598998172588 -13.705524246274276 131 111 106
-0.24557222708972132 -1.1988844574605153 -13.728557306985326 130 98 90
-0.24716650187339356 -1.219131655449103 -13.749304768106999 129 81 52
-0.24872415440726817 -1.2360616022063455 -13.773507904319569 133 84 44
-0.2503265233412576 -1.256979941499167 -13.793577120438535 105 57 33
-0.2518722413888944 -1.272694913537931 -13.819091066865463 75 17 3
-0.253387886079504 -1.2855233296949917 -13.847666780638544 103 34 10
-0.2549102845212411 -1.298825768289877 -13.87579510443243 117 40 9
-0.2563419310614131 -1.3034152488794675 -13.913165968660273 105 29 2
-0.2577717951570838 -1.3075151754198462 -13.951157376379843 92 20 2
-0.2591424975885757 -1.305590983691741 -13.995648448912366 78 15 4
-0.26063524642107816 -1.3150635525334842 -14.028152023291746 72 13 4
-0.2623331749273988 -1.344426669003644 -14.039495185889074 81 26 15
-0.26399093172945365 -1.3699709082747171 -14.054877275904822 87 38 28
-0.2656113644448501 -1.3918647929266 -14.074152869170312 95 47 39
-0.2669576826168172 -1.3860460553846101 -14.123269076499227 99 57 48
-0.26839006289747086 -1.3884517856198695 -14.163673078701343 106 68 58
-0.2696886107725761 -1.3766286080727808 -14.219609521026843 96 55 45
-0.2713812077333898 -1.4052295975665254 -14.231840694252 98 53 41
-0.2728185958441932 -1.407048222169279 -14.273206995263873 97 50 37
-0.2742897588933949 -1.4120347608612116 -14.311236603690645 99 50 35
-0.27566512224440276 -1.4063088161676482 -14.361111428262799 116 64 42
-0.27710839223820727 -1.4073724853341183 -14.403698121879 117 64 45
-0.2784454479087437 -1.3962297808196125 -14.459871774416879 113 61 47
-0.2799027663679786 -1.3977533137294955 -14.50225325649236 107 56 45
-0.2813348650372214 -1.3959433141372983 -14.548460899916833 100 50 37
-0.2828475897338668 -1.4027902897783937 -14.58519411270144 114 66 48
-0.28424747350247465 -1.3961958074804253 -14.637014833066782 75 51 43
-0.2857649850256737 -1.4026908313250273 -14.674379391768891 51 43 43
-0.2870582703752963 -1.3821551885454602 -14.742167101988796 50 44 44
-0.28873666594296976 -1.4068721072796757 -14.759319781399842 51 45 47
-0.2897308151650528 -1.3482296645831715 -14.870514845524372 52 47 48
-0.2912368139811879 -1.3506809559652257 -14.913103103612933 53 49 48
-0.29279830946193636 -1.359551352856017 -14.948535259617785 52 49 48
-0.294496313909159 -1.3853917387958274 -14.964737537263108 54 50 49
-0.29569853223836556 -1.3474971924212236 -15.053678355558038 65 51 50
-0.29730304555846054 -1.3604305667408543 -15.084821915635969 93 68 59
-0.2987945939746103 -1.3581256920096179 -15.133526439402548 105 72 60
-0.3001959230171489 -1.3429615626531302 -15.197206267209637 98 73 65
-0.3016117385783813 -1.3286455864112012 -15.260158918756826 60 56 56
-0.30305455829987893 -1.3169465512077592 -15.320327839975722 55 54 57
-0.3043973872723369 -1.2901017679710014 -15.398326205856115 55 54 57
-0.3057576705114423 -1.2641793412743283 -15.475585676112981 54 53 58
-0.30739360079632216 -1.2767528090003095 -15.508184385670285 54 53 58
-0.30886304020905647 -1.2643878720568438 -15.570083904614968 54 53 57
-0.3103399304553599 -1.2519578089900287 -15.632300636170566 55 53 56
-0.31191711103987263 -1.2536495568480222 -15.678108772040808 57 52 54
-0.3134599696166 -1.2492584867062781 -15.73125568726572 62 51 49
-0.31507879253506227 -1.2559236364973483 -15.77147803795955 70 43 39
-0.316680812511661 -1.2592841345912644 -15.815743640861847 114 59 49
-0.31856228347843335 -1.3078535173578496 -15.806209375638094 117 54 40
-0.3202471118191579 -1.3244661345222761 -15.834731823830257 91 50 43
-0.32232884001981477 -1.4086585711226514 -15.782196454043433 49 40 41
-0.32426991875302874 -1.4708143079557088 -15.755750067702177 39 36 42
-0.3262282442419919 -1.5376740341070985 -15.723344705601374 32 29 35
-0.32837524292070963 -1.6406964910723598 -15.646840603221333 14 12 17
-0.33036528213593724 -1.7180772097349584 -15.600897926824143 13 10 17
-0.3323219178011545 -1.791570543487686 -15.559295215121606 16 14 20
-0.334197590468761 -1.851688339382366 -15.533662142347435 22 20 26
-0.33584206790692744 -1.8676457685781562 -15.561856262274429 42 41 47
-0.3376706518433569 -1.920772957250481 -15.544423859167189 73 72 78
-0.33953526797133904 -1.9829538604724224 -15.515608894687812 76 77 82
-0.341299606884903 -2.025733730579221 -15.510481402858545 62 63 67
-0.3430308498478687 -2.062339797720713 -15.512855554728958 55 56 59
-0.344489678899774 -2.0383122464285446 -15.590510486387327 39 39 42
-0.34611100764128894 -2.0493771035461634 -15.624743435628776 18 18 20
-0.34774212202747323 -2.0621407894701242 -15.656932894397535 21 21 23
-0.3493951705104139 -2.079735861065431 -15.68313080825837 34 34 36
-0.3507630920445688 -2.024861355276391 -15.800539724875783 55 56 58
-0.35263204090709066 -2.095977124365149 -15.759538488042281 106 107 109
-0.3543520140188964 -2.130117799595686 -15.764967690100686 123 125 125
-0.3889045473168848 -2.008560935212742 -16.98721131604637 163 163 163
-0.05131313959326808 2.985524336262035 -12.59125178184598 207 205 202
-0.055740619182381185 2.8247711917641984 -12.512203342278356 165 143 136
-0.14216137474292018 0.8988141437528911 -12.551763284243995 131 50 29
-0.14427858319652406 0.8482081874741576 -12.548263312999511 133 52 31
-0.14659930362232393 0.7846888524972737 -12.533915633797463 131 50 29
-0.14846884715546138 0.748870756466177 -12.542406070334566 132 52 29
-0.150230556717637 0.7196648313971767 -12.556343734403661 131 51 28
-0.15157263416999694 0.7168111515280513 -12.592290344427703 129 48 26
-0.15353981719857435 0.6745773766925147 -12.595288795237092 132 48 27
-0.1554149294219653 0.6379877999003138 -12.602936361927263 131 49 27
-0.15706148779311277 0.6158635824755416 -12.622718122386697 130 48 26
-0.16024539920894976 0.4948473057681051 -12.558801330443806 129 47 25
-0.16197627586106253 0.4667281449273375 -12.573246759222274 132 48 26
-0.16350101912025952 0.4519403193508156 -12.59900821862375 131 46 25
-0.16551144189044542 0.40547437793049035 -12.597758043852043 131 46 25
-0.16748858532937194 0.3609209494048047 -12.598021670435362 132 47 26
-0.16847568777301694 0.3815551747475521 -12.65414798308861 128 43 22
-0.1704642747993125 0.33608970136745064 -12.653558843753075 131 46 24
-0.17242784629028562 0.2920255662446172 -12.65406024319787 141 57 33
-0.17436296420670253 0.2496167587270426 -12.655882237117783 128 44 20
-0.17633900938078245 0.20419938248122094 -12.65498515766636 137 53 29
-0.17804175925483914 0.17709044062986035 -12.669918385968924 134 48 25
-0.17965064649802293 0.15633560694169457 -12.690374842344912 131 44 22
-0.18155391476209426 0.11533108585973117 -12.693089201190789 131 44 22
-0.1835573352726499 0.06715999024455943 -12.689405249833097 129 43 20
-0.1856690071391504 0.011128075821317474 -12.678655784456751 139 56 32
-0.1874482269947198 -0.02203285601680971 -12.687946178997247 137 54 30
-0.18918271635748943 -0.052186213791577174 -12.699841920204864 139 55 31
-0.19102908813638583 -0.09038469651232717 -12.704538797783414 136 52 28
-0.1931253791047032 -0.14663041263812815 -12.693055450043937 133 49 25
-0.1950561692319156 -0.19143099850406387 -12.69162605655648 133 49 25
-0.19658659343100948 -0.2075964605164522 -12.715756378055012 134 50 26
-0.19853300927755996 -0.25395505888451364 -12.712754269778491 135 51 27
-0.20018479695923735 -0.2790715576955467 -12.728782956644402 136 51 26
-0.2020165172527195 -0.3174981432669819 -12.732748838044795 132 46 21
-0.20404722946955295 -0.3709116103929979 -12.723025580622426 129 43 17
-0.20552911001802418 -0.38377909401468635 -12.750027770347195 133 47 20
-0.2072048876652118 -0.4111105764946812 -12.763873051755915 140 52 27
-0.2088967988452722 -0.43974813755438547 -12.776489633555277 132 44 20
-0.21094324900053987 -0.4955016982296092 -12.764175649240684 124 36 12
-0.2125430137493377 -0.517467633801628 -12.782780841682293 131 45 19
-0.2144794370388619 -0.5654545804424478 -12.777356862197248 127 45 17
-0.21653477247380903 -0.6230731875143221 -12.76286994897767 148 68 39
-0.21767828569304923 -0.609773576943307 -12.814041568764749 132 48 22
-0.21965391590666922 -0.6616469543235688 -12.8047012500003 127 43 17
-0.22069833385249352 -0.6399516083965047 -12.863907601754715 126 44 19
-0.22360295520028733 -0.6604729767449076 -12.922972250033059 132 55 32
-0.230448146438043 -0.7856774908970099 -12.961817392121034 107 34 17
-0.23199368730489542 -0.803492103122009 -12.984240932837203 94 25 12
-0.23366183301768714 -0.8316128266075449 -12.9968299262803 93 28 17
-0.23534790079114953 -0.8613743422240479 -13.007805984324008 89 30 17
-0.2370344066079235 -0.8913164082922851 -13.018559208310291 84 37 26
-0.23844465658926567 -0.8975038134969848 -13.052167518676274 93 67 57
-0.23989763048109392 -0.9071755820071647 -13.082488520589036 105 92 84
-0.2409538024861359 -0.8817547402150989 -13.146907506740067 115 105 99
-0.24257056876722677 -0.905280561813802 -13.163978208257788 116 109 105
-0.24414010277798232 -0.9246239726837073 -13.185114535079052 108 103 100
-0.24565319147050144 -0.9388453211684062 -13.211271242358565 105 99 93
-0.2472802931518302 -0.9633267939551633 -13.227399472686432 112 106 100
-0.2488284976986411 -0.9806243689931691 -13.250576960002945 123 115 108
-0.25017681624126276 -0.9793348253444405 -13.292118750843862 120 111 103
-0.2517781308175133 -1.0012956138707958 -13.31077647945855 124 117 109
-0.253308028447631 -1.0165348747597118 -13.336100772638396 135 127 118
-0.25498125351665324 -1.045315754912111 -13.347977810516767 140 130 118
-0.25629843449816486 -1.0400169166042597 -13.393834929295354 131 118 108
-0.2578413803712183 -1.056125352626168 -13.418409876022091 115 101 95
-0.2593391872940608 -1.067715543680026 -13.447550899001023 107 88 83
-0.26086431460922566 -1.0818233834745614 -13.474211713451563 114 92 86
-0.2624447229654216 -1.101316349116897 -13.495474192279767 117 91 87
-0.2640208224930018 -1.1203422585862821 -13.51721923195511 105 82 77
-0.2655328150955518 -1.1327910270387918 -13.545658372060377 116 100 93
-0.26704714274635893 -1.14530211543636 -13.574085154330977 121 105 99
-0.26856485749589554 -1.1579861299621639 -13.602386236522797 119 105 101
-0.2700092961614722 -1.1627857693568453 -13.63881750223418 126 111 104
-0.2715383412893523 -1.1762277080713686 -13.666463740030505 129 106 98
-0.27307202510321493 -1.1900000891453475 -13.693815573609257 109 81 72
-0.2746127934562802 -1.2043787400539463 -13.720585098496707 107 75 61
-0.2761751665720008 -1.2209781309889234 -13.7450931914424 109 72 51
-0.2777267020502142 -1.2362692063231222 -13.77098945776672 74 27 11
-0.2792776723128178 -1.2513605742615201 -13.797129816090155 88 29 7
-0.28077858483512497 -1.260618562565182 -13.829408296702308 125 56 19
-0.2823136753525692 -1.2735240822161336 -13.857933759140657 126 51 12
-0.28390262588284887 -1.2924984836010305 -13.880125953456787 104 31 4
-0.2853209838760599 -1.29131679183123 -13.923597341364214 88 17 1
-0.28681086779071197 -1.2981105197745588 -13.958767912789892 78 14 3
-0.2881925829053204 -1.2914731488093887 -14.008280737131004 69 10 1
-0.2897839353717937 -1.3097662736147937 -14.031433622894601 71 14 4
-0.29139906704050933 -1.330926366476147 -14.051545438244222 85 32 20
-0.2930496731327738 -1.35653521898809 -14.066896225188273 87 38 25
-0.29461832172209107 -1.3718287896328931 -14.093295114995026 95 48 38
-0.2961314134269214 -1.3797902494896483 -14.127626778177989 102 58 51
-0.29745679761710553 -1.3628302844724676 -14.188954803933157 104 63 57
-0.2988953850010607 -1.359800200899719 -14.23543803256377 96 54 44
-0.3005543525768674 -1.3857153015832333 -14.250636060719625 98 53 41
-0.30202722370769686 -1.386356283465453 -14.293338663826992 93 48 37
-0.3035261279518783 -1.3899825694320613 -14.332912288079653 98 49 34
-0.30493365018928587 -1.3802132210458522 -14.387278087471293 121 65 44
-0.3064976646369134 -1.3918256641495654 -14.418347217518019 120 64 45
-0.30796417259542463 -1.3889782035878282 -14.46541731896479 106 56 43
-0.30932709843234896 -1.3700771082401646 -14.53039006292514 103 48 38
-0.3108172715684273 -1.3689113961302377 -14.575963516370226 112 61 44
-0.31232356793502314 -1.3694372650524826 -14.619804533182714 100 60 48
-0.31384407142777293 -1.3714406477320082 -14.662136024369536 57 41 43
-0.31535852761183164 -1.371802905728818 -14.706431915797285 50 41 44
-0.31670460235428965 -1.344394262044931 -14.782016636896511 50 44 43
-0.3183154580554676 -1.3584410009322276 -14.811291467931017 52 46 46
-0.3198132682587098 -1.3533916861134125 -14.86216232672378 54 48 48
-0.3213329726795611 -1.3510306355352188 -14.910169764458365 55 49 49
-0.32289428813734955 -1.3549156041482382 -14.951250515026416 57 50 50
-0.32438228230353233 -1.3451624777085112 -15.0079739675386 62 50 48
-0.325809507732125 -1.3231942790095 -15.078852845852104 94 67 59
-0.3274690479614544 -1.342026324297139 -15.103317652902138 103 66 53
-0.32906503076866067 -1.3488045005954632 -15.141644931845157 103 65 53
-0.330479945943324 -1.3202354092955266 -15.220780093900034 103 71 60
-0.3319934852292121 -1.3087029855314762 -15.28058229450963 61 55 55
-0.33351449576839687 -1.2971131919524002 -15.34068027343541 56 54 57
-0.335055801941638 -1.2880833471003434 -15.398035144272146 55 53 58
-0.33642056107343316 -1.2404583470250863 -15.5005729888736 54 53 56
-0.33789159843139244 -1.2122127784752479 -15.580944691178985 55 53 55
-0.3394115873757534 -1.1921662099975237 -15.652056278768125 56 53 57
-0.3411137942197646 -1.2111485921207699 -15.677586030506909 55 53 54
-0.3427847212479014 -1.2226478866951016 -15.71196337456217 59 50 52
-0.34421954499026375 -1.1770254770845892 -15.813957197168284 67 48 45
-0.34611929706181643 -1.2419059339493632 -15.78538773037398 90 46 37
-0.3477795673640118 -1.2485772933486858 -15.825754910974583 122 59 45
-0.3495288884527291 -1.2775309309039127 -15.839655823740888 108 52 42
-0.3512406636362263 -1.2967481322156322 -15.865161772665605 80 46 42
-0.35318617945136166 -1.3808920798179631 -15.812788698309333 46 38 41
-0.35488782619790105 -1.39893500187676 -15.839528745607574 39 38 40
-0.35672707201181747 -1.4577531024197405 -15.81708755510762 37 35 39
-0.35890260802402063 -1.6234910661776603 -15.664959481199617 20 18 23
-0.3607679637466426 -1.7004950068556663 -15.619541011846163 12 10 14
-0.36256024259478453 -1.7574503651511346 -15.59814400525704 15 13 17
-0.3643485856024361 -1.8159754816272304 -15.574580684108641 22 20 24
-0.3660553967568969 -1.8479824693482207 -15.583237548903679 39 36 44
-0.36782197380406434 -1.9037348015147781 -15.562651816048444 57 54 62
-0.3695926761871264 -1.9644477749735145 -15.53570986909028 72 72 77
-0.37126764964580505 -1.9888128422056885 -15.553405256589034 71 72 76
-0.37289694654076133 -1.993112836811827 -15.595953624595193 56 57 61
-0.37455197494936615 -2.007450986426549 -15.626153691894947 31 31 37
-0.3762335164803421 -2.0340838793929095 -15.641081656748527 14 14 18
-0.3779013559997346 -2.0540101041365517 -15.664362897184036 24 24 24
-0.37958076370105664 -2.0802396406706043 -15.679754531926895 36 35 39
-0.38119152251576083 -2.064809958525336 -15.747520125801763 81 81 84
-0.38295455170496984 -2.1447896594954337 -15.69519069046418 125 126 128
-0.38462494552112897 -2.167845239745212 -15.714460774188076 126 127 129
-0.38623597620417427 -2.143335089533026 -15.794092701610886 126 127 129
-0.4185010451162442 -2.213440918280254 -16.65633108234831 162 162 160
-0.08079174700785338 3.047742958305645 -12.595843305841615 207 208 208
-0.08449275180296789 2.9150848844890067 -12.53773184788275 193 184 176
-0.1721271230631621 0.888848014120553 -12.541524529528186 131 50 29
-0.17421777859622484 0.8362725168981715 -12.536372105001554 126 45 24
-0.17806090155659227 0.7538976620957429 -12.54456268845981 130 50 27
-0.1798037566963675 0.7250510071575951 -12.558809269711471 129 49 26
-0.18138759302125296 0.7074784838730253 -12.582451294830374 129 48 26
-0.1831216040602675 0.6791621520315116 -12.59710073767549 130 47 25
-0.18513271906679765 0.63072425354465 -12.594789440699547 131 49 27
-0.1870198107195212 0.5909791228230139 -12.599681851377913 130 48 26
-0.18900518438127314 0.5438104664672512 -12.598203644918929 130 48 26
-0.1911126690537337 0.4873205251969912 -12.588689090233858 133 49 28
-0.1930056355375245 0.44629351581529697 -12.592163440276622 131 46 25
-0.1948973720936305 0.4051072962050766 -12.595405508687296 132 47 26
-0.19682518358643708 0.3609552826626352 -12.596011015423123 134 49 28
-0.19792341043412706 0.3792351141794592 -12.650106487660436 131 46 25
-0.1996594403222198 0.34949437539528994 -12.663050976335445 132 48 25
-0.20162904678237834 0.3017457211498522 -12.660403125127509 132 48 24
-0.20362525763368608 0.2515903070094243 -12.655539153214967 130 46 22
-0.20560961897182906 0.2019640773117164 -12.650990505083861 144 59 35
-0.2070292240655601 0.19611555844504025 -12.68443534861657 139 53 30
-0.2090132058604064 0.14604005518976226 -12.679319813991913 127 41 18
-0.21087935872020833 0.10490594830028588 -12.681893202186664 137 52 28
-0.21282094196481785 0.057467593838241626 -12.678826285182229 141 56 32
-0.21485507243448743 0.0022115982390191746 -12.668736657104304 133 48 25
-0.2166672746735348 -0.03555579644211626 -12.673930494718139 132 48 24
-0.21819892858747553 -0.050669522139029866 -12.699120030149368 132 48 24
-0.2200270850914871 -0.09006834693221766 -12.702752065938503 132 48 24
-0.22195624391080296 -0.13810323974971617 -12.6985908308876 140 56 32
-0.22381078710819027 -0.18031576960649165 -12.69949688216694 139 55 31
-0.22537552097615257 -0.1984806935372312 -12.721858331968765 133 49 25
-0.22716063493204147 -0.23527231604864607 -12.727483468740795 138 54 30
-0.22884612796888365 -0.263800667419992 -12.740480100190183 131 47 22
-0.23072029269492492 -0.30868220119292733 -12.73864537040113 133 47 22
-0.2328311737047919 -0.3744746957729763 -12.717715542549005 136 50 23
-0.23416561232036096 -0.3730934718626706 -12.757667045302522 132 46 19
-0.23597000084226316 -0.4127742537782586 -12.7602689989365 126 40 15
-0.2375405330457513 -0.43197727652532425 -12.78151189167905 126 39 15
-0.23955228862847802 -0.4906884345052793 -12.766505025918224 137 51 26
-0.24140711464664263 -0.5358515789618004 -12.76376757617217 130 44 18
-0.24319142075503694 -0.5749989186051172 -12.766454185788252 141 59 30
-0.2451869168672109 -0.6338701399905231 -12.750783268215862 127 46 18
-0.24638684488335538 -0.6196422358409865 -12.802778713863024 128 42 17
-0.24833824019330095 -0.6750798335553929 -12.790093328217056 131 45 20
-0.24961794942089552 -0.6677521010189258 -12.835835653448322 130 46 20
-0.25100235007705013 -0.6698843741387037 -12.872870745484903 129 47 22
-0.2523378635366582 -0.6669778181099835 -12.914740763433112 134 55 33
-0.2591046105867659 -0.7929033265932333 -12.952818924402818 120 43 21
-0.2619372473672663 -0.8010978932023454 -13.023854801538018 97 28 12
-0.2637143542993517 -0.8417473054976288 -13.024476171122611 93 28 15
-0.2654309169417741 -0.8765127636787859 -13.030644304750734 87 25 13
-0.2669325506092014 -0.8890375729945088 -13.058177502096926 83 29 19
-0.26854826123807035 -0.913467164624449 -13.074246841588181 101 63 52
-0.2699750841743521 -0.917762179053744 -13.109821110764468 117 95 85
-0.2715375802504661 -0.936373448387056 -13.13156604448448 119 102 97
-0.2730560735493031 -0.9501258226367124 -13.158063199194974 111 98 93
-0.27460615743852457 -0.9672113680000063 -13.181340623813952 115 105 102
-0.27620516681086765 -0.9896763652134277 -13.199362673684877 117 104 102
-0.27774729820004 -1.0057506235151257 -13.223663740100164 128 115 112
-0.27922707356836884 -1.0145901660109757 -13.255131318780325 123 109 106
-0.28077537047689044 -1.031068005063756 -13.279109614355136 126 112 108
-0.28232376958323546 -1.047452250669438 -13.303206667584117 115 103 97
-0.2838936816219061 -1.0662721069157266 -13.324905984917283 131 121 114
-0.2853395464206732 -1.070186642943039 -13.361496823291034 112 100 95
-0.28688798661459447 -1.086114737871264 -13.386159574551778 106 89 86
-0.28832907664646734 -1.0887427058993149 -13.424205802437326 115 92 88
-0.28987586373407426 -1.104039625635587 -13.449602305699832 91 60 51
-0.29136915750183195 -1.1124557301380031 -13.481981328734246 83 39 28
-0.2928756471188153 -1.122224037182269 -13.513065064677514 99 53 43
-0.2943869854386322 -1.1323184289451014 -13.543884199788092 130 99 92
-0.29592698139013573 -1.145868270681607 -13.57124822330464 129 108 104
-0.29738317260761726 -1.1480865099118978 -13.610234288631275 131 115 110
-0.298973785018253 -1.1678686151435258 -13.6313359789889 110 91 82
-0.3005120229310321 -1.1804626036678787 -13.65983256068286 99 72 58
-0.3020672240218758 -1.195158051148888 -13.686214558008027 102 70 54
-0.30366047995732004 -1.215009949567479 -13.707305631805411 81 46 34
-0.30517267762584055 -1.223262484454195 -13.74042882951954 60 10 4
-0.30667559385719234 -1.229777090198466 -13.775436858431277 85 21 4
-0.3081734847675063 -1.235096760521543 -13.811779694350175 118 47 10
-0.3097005589894485 -1.2442718258693626 -13.844187521641697 132 58 15
-0.31122459709064715 -1.2525967314353315 -13.87756047651608 114 40 5
-0.31274990577356315 -1.2606920563961719 -13.911253966679169 92 23 3
-0.31426230378902975 -1.2663200484735748 -13.947630973757196 79 13 3
-0.31589044661536714 -1.2898755827518444 -13.965138304524828 72 12 4
-0.31743779781219994 -1.3003954906039965 -13.996462883123055 67 11 1
-0.31911812884935586 -1.3324983478316126 -14.004887864674576 79 24 12
-0.3205942394295189 -1.3306412765572393 -14.04948827729606 86 35 21
-0.32215370571754576 -1.3422034531471452 -14.079870162850208 96 49 33
-0.3237097033433023 -1.3527871667113782 -14.111363565131217 99 53 41
-0.32527438377588713 -1.3644963788471403 -14.141712909356084 106 64 57
-0.3266907682035766 -1.348900218190244 -14.201604848959475 100 60 54
-0.3282237950219514 -1.3534019421633623 -14.239966874015192 97 53 43
-0.32980626923996825 -1.3665457619749972 -14.269050715580551 100 52 41
-0.33138162257527165 -1.3779573746394025 -14.300074223781447 95 46 34
-0.33285083694909645 -1.367979757066525 -14.354526788863826 112 59 43
-0.33436992715208086 -1.3666510998364938 -14.399704952985454 120 63 42
-0.33588486040178545 -1.3634082746664014 -14.447132913651405 116 59 43
-0.33750372132717765 -1.3809509798632762 -14.47181557045305 109 55 39
-0.33900710043185095 -1.3732961700911197 -14.524372574863943 113 56 41
-0.3404915478445846 -1.3599745064205164 -14.583400192951887 109 65 51
-0.342006791788815 -1.351858779335383 -14.636867637713266 67 41 38
-0.34354498534382755 -1.347520861923715 -14.686317447084885 55 44 48
-0.34511475565863114 -1.3493330121278397 -14.729061010088806 51 43 46
-0.3465752050911344 -1.3230401379224208 -14.803453740123643 53 46 48
-0.34820490388575676 -1.3369235140864104 -14.83297568003223 54 47 48
-0.34970504639576827 -1.3164336931576894 -14.901324216050288 57 49 49
-0.35141104977584436 -1.3488241907746081 -14.91012893514846 58 50 50
-0.3529126492129378 -1.32497890007566 -14.98267186814363 59 48 47
-0.35449746865123233 -1.3220119971525728 -15.031761141967136 91 62 55
-0.35605796528533945 -1.3100692661381084 -15.091261634644042 109 66 52
-0.35770485212760944 -1.322310982899502 -15.123307823145115 106 62 48
-0.35936430087131976 -1.3378254532844176 -15.151663731496066 104 62 51
-0.36100518004832904 -1.3466442860342251 -15.18777382800562 102 69 58
-0.36246990998999595 -1.2934294065602137 -15.295607221543747 61 53 54
-0.3640567880866768 -1.2778368931688906 -15.360380628515472 55 53 55
-0.3655627742570726 -1.228365367413554 -15.464763656701502 60 51 53
-0.36712870794286967 -1.1957918509957786 -15.54995210218738 75 61 58
-0.3687822530230638 -1.1940433860702182 -15.599502996728159 77 64 60
-0.37042286957349724 -1.1841162767183828 -15.658805071115108 64 54 53
-0.3720758469365666 -1.17626825392896 -15.715888354768087 63 52 51
-0.3737341192730479 -1.1674073714537814 -15.7743768704978 67 46 45
-0.3754075654835537 -1.1624342475956029 -15.828488844945484 76 40 34
-0.37707423610180735 -1.1499959647800218 -15.891645337583736 110 53 42
-0.378760809732427 -1.1442433021525353 -15.947098253081766 119 54 41
-0.380444906666526 -1.1324391614843448 -16.009969348082393 100 55 48
-0.3823516108302967 -1.2687518143538155 -15.895914286149381 69 45 43
-0.3841609715985246 -1.3525259964825684 -15.84408985589214 45 39 42
-0.3858668704408976 -1.3625455317169175 -15.880577316840643 41 38 40
-0.3876663938006557 -1.456723691683691 -15.815595267618383 40 38 40
-0.38945282832293515 -1.5558005568533835 -15.744175606764154 35 33 35
-0.3912143326409642 -1.6477672119228703 -15.680840916309357 15 13 16
-0.39298205797021335 -1.7733926967136693 -15.576029189607619 16 14 16
-0.394689511944352 -1.8393080643351931 -15.54338594774347 20 18 22
-0.3963662398470106 -1.8613460811493399 -15.564163663357728 40 37 44
-0.398040135752442 -1.8745240645859527 -15.59582517342781 50 47 56
-0.3997248917612687 -1.9313961449909378 -15.57372320050608 67 66 73
-0.4013995840287951 -1.9703926580183264 -15.573455172873592 76 77 82
-0.4030718282330211 -1.9775553059579565 -15.612513775935405 54 54 59
-0.40474474637631863 -2.0016065026919057 -15.630690851465816 16 16 21
-0.4064147202097096 -2.033425842988894 -15.639169891265833 16 17 19
-0.40808786688095666 -2.052460034536634 -15.663562434741227 33 33 35
-0.40975943385516356 -2.0756316634866963 -15.682789319537832 64 64 67
-0.411420258047027 -2.1136865261071964 -15.6832892254889 116 117 120
-0.4130461951568144 -2.1886149894965143 -15.637155506425632 126 127 129
-0.41471442674693354 -2.2053428121516925 -15.664261498121954 129 130 132
-0.41648728462489687 -2.127802611957738 -15.811029576447773 129 130 132
-0.442870719535624 -2.0649538224631936 -16.644902037076626 153 153 153
-0.449987921818119 -2.1019324488219473 -16.803101903171843 164 164 162
-0.11346620125238802 3.0053949478142457 -12.562962291562714 204 202 199
-0.19027563109369436 1.1538100213699662 -12.526443984195028 125 48 28
-0.20777067093826634 0.7503967112687766 -12.539627838358335 130 50 27
-0.21482528958206387 0.6227794374209283 -12.586071741967725 130 48 26
-0.21667575985249768 0.5831733962762602 -12.591060529415415 127 45 23
-0.21862956459332514 0.5345161647039616 -12.588303167681902 128 46 24
-0.2206511606794982 0.47964445284697277 -12.580139557437711 130 45 24
-0.2227088729877557 0.4211469121260478 -12.568726116067474 132 47 26
-0.2242605875459828 0.40607481118587874 -12.59419253534367 138 53 32
-0.22610469518107396 0.3654802566497972 -12.59784457370959 132 47 26
-0.22729859721095183 0.3820121760194546 -12.650441634005151 131 46 25
-0.22932413552814715 0.3251115849862618 -12.64000718096441 130 45 23
-0.23109635488867633 0.290374452517586 -12.648532605758508 133 49 25
-0.23311224578768633 0.23337347553713084 -12.637712093175757 135 51 27
-0.23504292815549474 0.18355909627106914 -12.632954066638954 140 55 31
-0.23653189515787026 0.1739028096368873 -12.663029924201126 133 47 24
-0.2384787538666078 0.12196844842834853 -12.656234373363237 134 49 25
-0.24022916651318366 0.08789111567473373 -12.66492753066521 134 51 27
-0.24190754061363756 0.060391567525194034 -12.679335091739667 133 49 25
-0.2438017180575621 0.012242528376493311 -12.675515860032831 132 46 23
-0.24551991510604984 -0.01948177100617432 -12.68607395613645 132 47 23
-0.24727535989060426 -0.05500167729516203 -12.693214487150602 132 48 24
-0.24906039352391265 -0.09367222414407106 -12.697481207446993 132 48 24
-0.25092915030837637 -0.1409217171116106 -12.694010503674882 137 53 29
-0.2527042820392714 -0.17933133671828738 -12.698308013816817 136 52 28
-0.2541933335783106 -0.18931201005737286 -12.728005621629652 132 48 24
-0.25587536038637587 -0.2186594937387163 -12.740346588642069 131 47 23
-0.2575628435549251 -0.24872315729634398 -12.751998998635226 128 43 19
-0.2594970054332662 -0.3044742123719155 -12.740372272491044 132 46 21
-0.2613000647557373 -0.34721393773675135 -12.740365917382313 131 45 19
-0.26302794377674943 -0.3824549612521384 -12.747067104960284 130 44 17
-0.2647807748753238 -0.4206416644909199 -12.751006020568674 132 47 22
-0.26632046402288684 -0.43623480242439516 -12.775526705772048 132 47 22
-0.26827171023236185 -0.4964798125221206 -12.759102339553305 137 51 26
-0.27009632146459917 -0.5436313440964167 -12.75451896434372 130 45 19
-0.2719083288046643 -0.5899412602721199 -12.750572558671035 134 50 22
-0.2736741396327356 -0.6316127216904146 -12.750783775895787 127 45 17
-0.27508716092904595 -0.6336920680022224 -12.787637688243445 128 42 17
-0.27665821154067183 -0.6534922513253898 -12.808094383882306 127 40 16
-0.2782267556160377 -0.6729769088014113 -12.828851581414863 134 49 22
-0.28945809137492 -0.8401211341190171 -12.94506583074875 126 54 30
-0.2911479906072594 -0.8752144014763994 -12.950884229578216 113 41 19
-0.29248276147516267 -0.8647233555364338 -13.00031088735485 103 34 17
-0.29427636676076296 -0.9135595110569188 -12.992888735211464 91 27 12
-0.2958438102035884 -0.9330977430451624 -13.013552467536448 91 26 14
-0.29740146725298505 -0.9512829084383485 -13.03553160096847 93 32 20
-0.2989508074403468 -0.9682595270361327 -13.058697436516157 86 31 20
-0.30039412935479826 -0.9704544921304779 -13.096258300167403 86 36 27
-0.30191346108013917 -0.9827873895332209 -13.124038098393747 95 59 48
-0.30344597739039586 -0.9967498828703274 -13.150272543275154 129 106 98
-0.30500926928261307 -1.0149550281185933 -13.172384929386176 127 104 100
-0.30658168934881747 -1.0344178394879808 -13.19327554316764 121 102 98
-0.308107624222166 -1.0469135660112396 -13.221047916903192 122 102 99
-0.30965560560381755 -1.0624812996254311 -13.245829001004335 120 98 95
-0.31120254104039335 -1.0777181322171305 -13.270969243008366 120 101 98
-0.3127770618762976 -1.0970774206048013 -13.292039738198646 129 111 107
-0.31425195357362345 -1.1005727602686513 -13.328952781001908 132 109 104
-0.3158165811177594 -1.1179619949345083 -13.352059611158241 122 94 87
-0.3173432237624296 -1.128993166174789 -13.381570018814827 122 91 85
-0.3188191997343922 -1.131213475318508 -13.420009197396244 120 83 71
-0.3203168140363334 -1.1364409447042911 -13.455521819970674 125 75 57
-0.32184177144498777 -1.1458248248310134 -13.486918118917096 108 59 39
-0.3233046613083624 -1.1438282075990003 -13.52994108529202 122 89 75
-0.32483572827954954 -1.153203661852836 -13.561517166257467 123 100 93
-0.3263439559450001 -1.1579372582606169 -13.597904385057907 115 94 87
-0.3278875893463641 -1.1686331631957314 -13.62828064077914 93 68 57
-0.3294820066458011 -1.1885861298206004 -13.649207862664223 76 41 27
-0.330999694164102 -1.1935512777533148 -13.685586465327187 65 21 8
-0.3326072134718487 -1.2156851555174324 -13.704319183437585 67 16 5
-0.3341328448702129 -1.2212197675145298 -13.74025054314599 84 20 8
-0.335670649422725 -1.228578688495138 -13.774379968024242 97 25 6
-0.33719135918346066 -1.2316627448379753 -13.813049684929997 93 21 4
-0.33871752630127827 -1.235072841554759 -13.85148862037204 95 25 4
-0.3402584574671087 -1.2409038071432477 -13.88749772972694 100 31 9
-0.34175873565309 -1.2366678164631404 -13.934187839050669 89 22 5
-0.3432418489651732 -1.227088378958622 -13.986670051254933 78 14 4
-0.34485117410283794 -1.2462425686018763 -14.008949032675758 74 15 5
-0.34644708052044604 -1.2619557409953108 -14.034892184023295 70 13 2
-0.3480077315585286 -1.2683830050818852 -14.070750035052367 85 30 20
-0.3495631324750291 -1.272562214691935 -14.109099515567987 87 37 25
-0.3511453510124304 -1.2829308306702263 -14.140932760644777 94 47 34
-0.35271372039816573 -1.2887578356088802 -14.177709524808055 100 55 46
-0.3542744254037171 -1.2913747025868192 -14.218039587803496 106 67 59
-0.3558653331924963 -1.301684765762368 -14.25018316499325 97 58 51
-0.3575328679701427 -1.334731083551219 -14.257781319397546 98 53 43
-0.35904807081644297 -1.3201706200706136 -14.317000085705853 107 56 42
-0.3606726685434528 -1.338989128325073 -14.340097623045875 106 51 35
-0.362262086601404 -1.345529081294539 -14.37662321638425 121 63 46
-0.36392065442524035 -1.3755164914937792 -14.38756100988352 121 63 47
-0.365490451653818 -1.3731827868615607 -14.433952381016383 112 55 41
-0.3670330955063723 -1.3581415462900805 -14.494498324880471 111 56 38
-0.36857467091542234 -1.3392069514790963 -14.559582601468414 119 68 52
-0.37011636224888944 -1.3162881386939898 -14.629344755692484 77 47 36
-0.3716903617597527 -1.3032194686009442 -14.688448241714134 62 45 44
-0.37331624215964193 -1.3109101882030743 -14.724637601423673 57 43 41
-0.3749172788969567 -1.3044363655431583 -14.776755257789928 71 50 42
-0.37652559196384 -1.298282899232392 -14.82869938408803 74 52 44
-0.37821853149622964 -1.3366131259003575 -14.83080442739479 72 53 49
-0.3798215184946566 -1.32228895070548 -14.892187078593999 61 51 50
-0.38143978754648566 -1.312358117343944 -14.948840020322347 58 51 51
-0.38306912274594196 -1.304897124432924 -15.002902845972201 73 50 48
-0.3847086043195689 -1.2998504647594835 -15.054415104498704 117 67 60
-0.3863594088050799 -1.2989553150561273 -15.10137129647904 118 62 52
-0.3880304178356616 -1.3121881626354535 -15.132313064203203 113 63 52
-0.3896981902497044 -1.3195259407839872 -15.170081469520465 106 59 50
-0.391347795506635 -1.2994949823060988 -15.239456218425522 101 64 55
-0.39300672844831336 -1.2780638572743834 -15.310733158794545 56 47 48
-0.39466603973115644 -1.2380070137387476 -15.403874040274147 55 48 51
-0.3963459893717294 -1.2104390671818592 -15.482935705522557 71 56 58
-0.3980351434416214 -1.1728599559470432 -15.573999356222718 96 72 69
-0.39974506997056225 -1.1676854020942944 -15.627620620236545 98 74 69
-0.4014618232434154 -1.1617105403574977 -15.682370719207514 72 52 50
-0.40318632514083036 -1.1455838913118637 -15.749247311815056 71 51 47
-0.40491935742806934 -1.1355139359664488 -15.809254844613257 73 39 31
-0.40665993834699254 -1.1275403439320764 -15.867012643520393 81 31 19
-0.4084076710937603 -1.1208639408074896 -15.923447339646941 125 60 44
-0.41016108690283026 -1.117294696028586 -15.97639446526944 116 57 43
-0.411925927683134 -1.1068438016647164 -16.03773348833331 78 49 46
-0.41371829300030993 -1.0729982671667333 -16.12728668072468 53 40 41
-0.41527172807303114 -1.3081825674597107 -15.894544901051454 43 39 42
-0.41697693128396307 -1.3509368402699327 -15.89180027414013 44 38 39
-0.4186845770922454 -1.3873979699570667 -15.896507270569014 44 41 42
-0.4202908001893418 -1.4977858290323516 -15.811656188676427 42 40 41
-0.42178171151478855 -1.6720404054281817 -15.648664137566296 26 24 25
-0.42339812218668976 -1.7422520946077222 -15.611234761977926 16 14 16
-0.42501827693186145 -1.8030443268175649 -15.584961282755941 16 14 17
-0.42671531372108157 -1.8166472011009906 -15.616192686240424 24 22 27
-0.42836218693536476 -1.8568370455005079 -15.614834831690608 39 35 45
-0.4299399231174974 -1.9276894419219461 -15.57557825058381 66 64 75
-0.43160918677366733 -1.9518395968049056 -15.593662285272963 80 79 87
-0.43327344382031496 -1.9778817727130669 -15.609387200593773 39 38 44
-0.4349261210024111 -2.0081480355881967 -15.619834010067525 12 12 16
-0.43657763047715403 -2.038037199195969 -15.63069079551793 26 27 29
-0.43825322601833294 -2.0584549797294827 -15.653330076292452 46 47 51
-0.43993266530856157 -2.077698608681981 -15.677453868365745 106 107 110
-0.44145537033121407 -2.1489445569426167 -15.636205217656304 127 128 130
-0.4429247857092047 -2.2328677777787966 -15.578600525513064 129 130 132
-0.4446150836442941 -2.244749134315146 -15.611664377778387 131 132 134
-0.4466995662767308 -2.142585116724674 -15.789498409655806 131 132 134
-0.47239180297064465 -2.0342221367765267 -16.631095043578352 153 153 153
-0.4742564238910568 -2.032703616578278 -16.684728484151194 156 156 156
-0.48451606739095465 -2.192162146875514 -16.782939280281852 171 171 173
-0.48708463190679685 -2.3715964539583068 -16.643837496041286 177 178 180
-0.22040282721712823 1.1460975207808834 -12.518183153466094 127 50 30
-0.2220523226496684 1.125266184800549 -12.539552623687229 127 49 29
-0.24441895285695428 0.6210972202347653 -12.582623673942031 128 46 24
-0.246296195161298 0.5753760535160604 -12.582448719435776 130 48 26
-0.24823873478860353 0.5226013607209605 -12.57618871521289 128 46 24
-0.2502169143407985 0.4656048467039122 -12.56619357055806 126 43 21
-0.25220731329213386 0.406680487438849 -12.554383297934262 131 47 26
-0.25360938374423414 0.40830429237653654 -12.594056617424975 131 47 26
-0.25541730425266695 0.3677054243639537 -12.597709114159183 129 45 24
-0.25722282524395634 0.32698778203853696 -12.601164643755512 134 48 28
-0.25849682987639494 0.34287396435118733 -12.653249192916252 136 50 29
-0.26034856537396506 0.29694791155083333 -12.65215738209167 134 48 26
-0.26224467081772 0.24567203492215306 -12.646311060918245 131 46 23
-0.26407207567332736 0.20137478491026073 -12.646374533794575 135 51 27
-0.2655883386561966 0.19134399011297276 -12.676163655633543 134 49 25
-0.26735353254673855 0.153462616475033 -12.681686010249615 131 47 23
-0.2691149095284101 0.11566357539692707 -12.687196892258829 132 48 24
-0.27101876328524355 0.061081647537074346 -12.6778811383841 130 46 22
-0.27276329090108514 0.02433937803773567 -12.684112846823218 138 53 29
-0.27458062407314776 -0.021328370594691393 -12.682379332662713 135 49 26
-0.27630068925649254 -0.055954193062339286 -12.690305374947705 132 47 24
-0.2779581344107429 -0.08333741721382282 -12.704599157773933 132 45 23
-0.27980251732084094 -0.13366439242019368 -12.69841179541881 133 47 24
-0.2815274315605674 -0.16993572069365293 -12.704637818419709 134 49 25
-0.2832550885835581 -0.20691157625782353 -12.710153978581868 140 55 31
-0.28491490824564886 -0.23569716923819328 -12.722951453004569 133 47 26
-0.286645484520642 -0.27372677543377666 -12.72737392996562 131 45 21
-0.28839227387759225 -0.3142815802575374 -12.729424453959727 141 55 29
-0.2901636603568042 -0.35856025810117664 -12.727995673355075 130 44 18
-0.29184336305678593 -0.39125228083040575 -12.736983393547947 136 50 24
-0.29353639633975526 -0.4260462524253459 -12.743992268266737 144 59 33
-0.29514487170796433 -0.4496678624316619 -12.761149104937108 142 57 31
-0.29695586254758033 -0.5013759374084961 -12.75252313299216 127 43 18
-0.2986674970449461 -0.5399981804734617 -12.755774602527268 130 46 20
-0.30025757856839047 -0.5618296932534586 -12.774426536117229 133 49 21
-0.3019292086539639 -0.5954505892364814 -12.782162662780696 127 44 16
-0.3035394118283128 -0.6204507164151183 -12.797832265336467 133 49 22
-0.305093155335744 -0.6371865045123117 -12.821172891870708 132 47 23
-0.30684461074462543 -0.6836032018420273 -12.816826813719565 122 38 12
-0.3082535216691298 -0.6783687895962736 -12.860702457623098 125 42 15
-0.31956004537847427 -0.8642709615970698 -12.959207651569091 126 53 30
-0.3210499097322944 -0.869723829768235 -12.993377742718835 110 36 18
-0.32262322853937886 -0.8894692462097673 -13.013898188915253 97 28 15
-0.32445750442432164 -0.9564995959667888 -12.988851750782871 89 26 14
-0.3260164759215839 -0.9744114740231344 -13.01102491855482 86 25 12
-0.32758052045859454 -0.9931658071266911 -13.032397683601054 88 25 11
-0.3291460951609423 -1.012131665004202 -13.053576407691025 89 26 13
-0.33067854030398625 -1.024522731615983 -13.081176258123087 86 29 16
-0.3322162794435886 -1.0376201622985155 -13.108133103919354 82 32 24
-0.3337587097116326 -1.0513445700519082 -13.13451899826379 89 49 43
-0.3352961343798312 -1.063708353112907 -13.162283692303562 119 83 74
-0.33685542306235217 -1.0803631179790862 -13.18586423625825 115 77 67
-0.3384156384343667 -1.097025029835521 -13.20946185525512 104 64 53
-0.3399387906020079 -1.1051841416809225 -13.24151968839545 111 71 58
-0.3414821610875339 -1.1173599675076256 -13.269654107381992 107 67 53
-0.3430336558944414 -1.1310077824655318 -13.296370038719417 107 62 45
-0.34456745828290625 -1.1400090952140411 -13.32777837791356 111 61 41
-0.34610386920670566 -1.1490206543900046 -13.359245765890375 113 67 47
-0.34764382202446165 -1.1582779799527652 -13.3905353435838 116 67 46
-0.34915882937927634 -1.160340470027192 -13.429157013041529 114 62 39
-0.35069709944592264 -1.1675643521459316 -13.46266378852612 112 69 46
-0.352168610194145 -1.1554198875718225 -13.515919025045442 106 75 56
-0.35370073883240905 -1.158555496581977 -13.553809021938221 101 74 62
-0.3552366103785802 -1.161634723966233 -13.591862842327917 91 59 49
-0.35677768973244817 -1.1650939660175244 -13.629634464489856 88 47 33
-0.3583750235313945 -1.1851070576218738 -13.650505650348506 87 33 15
-0.35993193048994343 -1.1917916631459784 -13.685115824218903 94 31 13
-0.36149150106914785 -1.1982895663758537 -13.720005682557971 97 31 11
-0.363068838861034 -1.2099106600480205 -13.749674734491634 90 23 3
-0.3646360015733221 -1.2170011897294053 -13.784110212881956 86 18 6
-0.3662127864178567 -1.226569338882129 -13.81604867499271 81 17 5
-0.36779269782747614 -1.2363395048721344 -13.84784679062304 75 14 2
-0.3693640132330446 -1.241412503849408 -13.88463936149483 76 14 1
-0.37093033717157303 -1.2426700466024965 -13.925542643737167 86 22 6
-0.372490160053783 -1.238801542239436 -13.971974182317588 83 19 3
-0.37406155108401173 -1.2377921966503465 -14.0155367169003 85 23 7
-0.3756833629463591 -1.2602968901385578 -14.034296550310954 82 22 10
-0.3772768812331022 -1.2673314882431521 -14.069506064113872 94 39 29
-0.3788726535816167 -1.2737505598401286 -14.105461360708016 95 45 35
-0.38045735923460866 -1.2709939935592311 -14.151327650790444 97 50 40
-0.38206191741580214 -1.2779564270416026 -14.186915623799884 107 62 53
-0.38366243777864284 -1.2794402198195494 -14.228490715645007 109 69 59
-0.38529235790941896 -1.3009565705963597 -14.248569278121511 103 63 53
-0.3869132415475415 -1.3143890213370302 -14.277398870875981 108 63 48
-0.3885239354720024 -1.3157547648941277 -14.31938008092224 115 63 44
-0.3901541270565664 -1.3338108958762733 -14.34331621615 125 66 48
-0.3917612395884315 -1.3206797666641652 -14.401331601834144 128 65 50
-0.39340034931751255 -1.344239507694052 -14.419384640088294 119 59 48
-0.3950204197570145 -1.3327424552746443 -14.475931723927483 120 60 46
-0.39664864290237933 -1.3219206832793358 -14.531947597128223 124 70 52
-0.3982841035342305 -1.3093402353448775 -14.59011584371029 92 50 38
-0.3999287929308774 -1.3026679579554177 -14.6419592215288 72 45 39
-0.4015798401805998 -1.2870235660433504 -14.703957723514392 72 45 40
-0.40323902389435184 -1.2844798209636998 -14.751598673921709 87 53 42
-0.40490404696034166 -1.2822734244927698 -14.799021957771021 116 74 57
-0.4065776969737878 -1.271090470762391 -14.856666591968116 121 75 55
-0.4082406464911716 -1.303442455679379 -14.865580215233713 117 78 60
-0.4099215617119407 -1.2987449526537045 -14.91620460100298 79 58 50
-0.4116108202323582 -1.2913660189112335 -14.970037989333754 65 50 48
-0.4133045370998971 -1.2874524300915065 -15.020135842430243 103 67 63
-0.4150064273018471 -1.2816178139243588 -15.072591994853566 122 63 58
-0.416682288822622 -1.307328900634011 -15.089243772449283 123 62 57
-0.4183946609030671 -1.3010359701274572 -15.142492988351282 114 59 51
-0.42010715124504794 -1.3001290636980753 -15.189752283786266 100 53 40
-0.4218331065732057 -1.2937912081449259 -15.243418338723954 95 57 47
-0.42364297223724634 -1.23767531033657 -15.354739423315117 52 44 46
-0.42541610102205807 -1.2153956443218714 -15.42741822304146 51 48 50
-0.4272076546531822 -1.1891202940382506 -15.505040693965071 75 62 63
-0.429034277976015 -1.1509951184918092 -15.596795799820695 70 52 50
-0.43082151568942684 -1.139637697598138 -15.657702291733376 61 39 36
-0.4326145047121409 -1.1296175989685153 -15.717276052716809 60 32 30
-0.4344244654524748 -1.115854255825469 -15.781473345733588 63 33 26
-0.4362102197675782 -1.1159105994970524 -15.829639497822825 61 17 6
-0.4380167211243373 -1.1101437901121667 -15.884845491419435 99 42 26
-0.4398130539711212 -1.1109125783965164 -15.932504595296862 119 52 36
-0.44164316602457254 -1.1017185586545963 -15.992161767258679 103 54 42
-0.44349045894587963 -1.0895237526335668 -16.055621974835173 60 41 39
-0.44536600053656894 -1.0711228684451948 -16.12675071133964 47 39 41
-0.4481462206895801 -1.335087220819183 -15.908120320686104 45 39 41
-0.450001676070123 -1.320503196060053 -15.974459497864244 46 41 42
-0.4514008630358012 -1.4354221288522586 -15.884375988637986 46 42 42
-0.45268554099943725 -1.5745038659411588 -15.764313536365632 41 38 39
-0.45420501482548326 -1.6448340895351192 -15.727093244345301 23 20 22
-0.45548554931533863 -1.771754313582699 -15.620451195464298 18 15 17
-0.457242494294094 -1.7765911532947074 -15.662519944229718 18 14 20
-0.4588159346228011 -1.8255497057055177 -15.650537752669504 35 30 40
-0.4603147019308119 -1.889851937275803 -15.61946567069332 67 64 76
-0.4618616275598325 -1.9410311108592202 -15.60429646168954 52 51 60
-0.46347872374673327 -1.9755024280269922 -15.609613484288943 15 14 19
-0.46509263412821855 -2.009939289474646 -15.614882805519809 23 23 26
-0.4667934875902926 -2.0261032386524933 -15.642832805550391 42 44 46
-0.46834661763547897 -2.071673876638518 -15.634071869137328 96 98 101
-0.46986187365115484 -2.1232710828796844 -15.617582189940718 127 128 130
-0.4712828349804504 -2.190962687649506 -15.58063734988746 130 132 133
