ply
format ascii 1.0
element vertex 859
property float x
property float y
property float z
property float nx
property float ny
property float nz
property uchar diffuse_red
property uchar diffuse_green
property uchar diffuse_blue
property uchar class
property uchar detection
end_header
-2.1031 4.7128 -13.5550 0.666 0.644 0.375 104 53 36 0 0
-2.0253 4.7542 -13.8393 0.769 0.580 0.270 91 48 41 0 0
-2.0791 4.7503 -14.0527 0.459 0.874 -0.158 121 89 79 0 0
-1.6702 4.9604 -15.4230 0.708 0.636 -0.306 37 26 27 0 0
-1.6669 5.0166 -16.3383 0.349 0.255 0.902 35 16 13 0 0
-1.5405 5.0615 -16.4292 0.687 0.366 0.627 55 32 30 0 0
-2.4866 4.5059 -12.6082 -0.198 0.395 0.897 104 45 31 0 0
-2.0118 4.6609 -12.7167 0.600 0.631 0.492 86 26 15 0 0
-2.0740 4.6469 -12.8088 0.138 0.834 0.534 91 35 20 0 0
-2.0964 4.6455 -12.9037 0.914 0.403 0.031 106 60 47 0 0
-2.0863 4.6503 -12.9324 0.887 0.430 0.168 104 61 49 0 0
-2.0074 4.7259 -13.7919 0.915 0.238 0.326 82 38 27 0 0
-1.9878 4.7333 -13.8132 0.897 0.162 0.410 82 38 29 0 0
-2.0739 4.7257 -14.1394 0.281 0.955 -0.092 124 82 72 0 0
-2.0786 4.7269 -14.1850 0.270 0.962 0.032 120 73 64 0 0
-2.3157 4.7094 -15.1429 -0.208 0.455 0.866 80 28 15 0 0
-1.6484 4.9055 -14.9283 -0.413 0.691 0.593 102 52 37 0 0
-1.6793 4.9451 -15.7609 0.804 0.593 0.032 25 15 14 0 0
-1.6089 5.0469 -17.1080 0.572 0.775 -0.269 159 157 158 0 0
-1.9850 4.6385 -12.7016 0.684 0.601 0.414 87 26 15 0 0
-2.0866 4.6361 -13.2080 0.948 0.293 -0.122 69 30 21 0 0
-2.0980 4.6353 -13.2570 0.922 0.382 -0.054 77 39 31 0 0
-2.0871 4.6517 -13.4802 0.748 0.344 0.567 76 44 35 0 0
-1.9828 4.7041 -13.8182 0.944 0.156 0.290 77 31 21 0 0
-2.0494 4.6940 -14.0032 0.766 0.466 0.443 101 54 46 0 0
-2.3892 4.6434 -14.9671 0.480 0.752 0.452 84 40 29 0 0
-1.6597 4.9180 -15.7513 0.804 0.593 0.032 42 32 31 0 0
-3.0126 4.2801 -12.6179 -0.016 0.393 0.919 104 55 45 0 0
-2.0782 4.6083 -13.2093 0.948 0.293 -0.122 95 58 44 0 0
-2.0860 4.6106 -13.2937 0.882 0.471 -0.031 92 56 43 0 0
-2.0220 4.6703 -13.9866 0.821 0.468 0.327 94 45 37 0 0
-2.5142 4.5642 -14.8437 -0.385 -0.451 0.805 101 69 61 0 0
-2.3775 4.6069 -14.8368 -0.290 0.657 0.696 94 58 52 0 0
-2.3604 4.6187 -14.9489 0.247 0.809 0.534 85 38 29 0 0
-1.4926 4.9101 -15.2649 0.397 0.896 -0.197 24 14 13 0 0
-2.0682 4.5809 -13.2092 0.945 0.306 -0.116 80 44 28 0 0
-2.5420 4.5224 -14.8389 0.949 0.023 -0.314 111 65 55 0 0
-2.1033 4.6751 -15.0890 0.140 0.868 0.476 86 30 15 0 0
-2.0931 4.6802 -15.1223 0.166 0.609 0.776 88 30 16 0 0
-2.0570 4.6920 -15.1286 0.122 0.411 0.903 89 31 17 0 0
-1.4088 4.9001 -15.1852 0.474 0.855 -0.211 22 12 11 0 0
-3.1252 4.1804 -12.5771 -0.199 0.472 0.859 100 54 45 0 0
-3.0541 4.2038 -12.5935 -0.105 0.529 0.842 104 52 41 0 0
-2.0254 4.5518 -12.9883 0.948 0.205 -0.242 94 46 32 0 0
-2.0485 4.5519 -13.1234 0.943 0.305 -0.131 55 24 14 0 0
-2.0538 4.5526 -13.1667 0.945 0.306 -0.116 42 13 5 0 0
-2.0556 4.5563 -13.2452 0.881 0.468 -0.065 41 13 4 0 0
-2.0542 4.5588 -13.2826 0.808 0.589 -0.009 43 14 4 0 0
-2.3322 4.5477 -14.6846 -0.132 0.984 0.118 97 39 27 0 0
-2.3402 4.5480 -14.7351 -0.548 0.310 0.777 85 35 25 0 0
-2.2239 4.6093 -15.1809 -0.087 0.889 0.449 84 28 13 0 0
-1.2508 4.8999 -14.8510 0.811 0.038 0.584 72 35 31 0 0
-1.5600 4.8572 -15.8599 0.880 0.401 0.253 25 21 20 0 0
-1.4775 4.9143 -16.4214 0.478 0.378 0.793 22 12 11 0 0
-1.4635 4.9204 -16.4528 0.629 0.229 0.743 24 14 13 0 0
-3.4175 4.0593 -12.6344 -0.383 0.385 0.840 125 109 101 0 0
-1.9290 4.5338 -12.6489 -0.029 0.806 0.591 88 25 7 0 0
-2.0355 4.5295 -13.1974 0.845 0.528 -0.085 33 13 9 0 0
-2.0368 4.5313 -13.2371 0.818 0.576 -0.008 33 13 8 0 0
-2.1528 4.5958 -15.1187 0.010 0.926 0.377 83 27 13 0 0
-1.2419 4.8713 -14.8528 0.754 0.308 0.580 66 26 21 0 0
-1.2245 4.8782 -14.8771 0.754 0.399 0.522 82 43 38 0 0
-1.5843 4.8064 -15.6706 0.974 0.220 0.059 45 38 40 0 0
-3.4480 4.0179 -12.6293 -0.383 0.385 0.840 124 107 102 0 0
-3.1308 4.1195 -12.6347 -0.035 0.507 0.861 104 51 41 0 0
-2.4697 4.3232 -12.4952 0.249 0.173 0.953 114 52 40 0 0
-2.0193 4.5203 -13.5029 0.885 0.388 0.258 33 8 3 0 0
-2.3387 4.4799 -14.6695 -0.050 0.996 0.071 125 57 39 0 0
-1.2268 4.8353 -14.6763 0.738 0.673 -0.053 110 63 50 0 0
-1.2447 4.8352 -14.7810 0.466 0.871 0.156 97 52 42 0 0
-1.2225 4.8455 -14.8432 0.717 0.646 0.261 76 36 30 0 0
-1.3221 4.8333 -15.2136 0.616 0.678 -0.402 23 8 9 0 0
-1.5650 4.7794 -15.6613 0.937 0.348 0.025 51 44 45 0 0
-3.4026 3.9994 -12.6009 -0.373 0.403 0.836 102 72 66 0 0
-3.2226 4.0593 -12.6426 0.094 0.022 0.995 104 53 44 0 0
-3.1817 4.0726 -12.6468 0.094 0.022 0.995 105 52 42 0 0
-2.4617 4.2955 -12.4966 0.193 0.007 0.981 114 52 39 0 0
-2.4196 4.3091 -12.4979 0.229 -0.115 0.967 114 51 38 0 0
-2.0672 4.4626 -13.2830 1.000 -0.029 0.007 26 12 7 0 0
-2.0114 4.4900 -13.4656 0.899 0.384 0.210 26 9 5 0 0
-2.0079 4.4930 -13.5017 0.908 0.323 0.267 26 7 3 0 0
-1.9641 4.5110 -13.5790 0.776 0.519 0.358 82 38 13 0 0
-1.2098 4.8091 -14.6692 0.534 0.845 0.024 104 56 42 0 0
-1.5489 4.7539 -15.7012 0.646 0.650 0.399 58 52 52 0 0
-1.5369 4.7594 -15.7334 0.644 0.641 0.418 101 95 94 0 0
-1.2840 4.8787 -16.4721 0.140 0.446 0.884 67 39 35 0 0
-1.2571 4.8881 -16.4880 0.183 0.463 0.867 59 31 26 0 0
-1.2268 4.8985 -16.4999 0.183 0.463 0.867 57 34 31 0 0
-3.2139 4.0308 -12.6436 0.199 0.091 0.976 107 53 43 0 0
-2.2438 4.3838 -13.4538 0.965 0.103 0.243 21 9 6 0 0
-1.1749 4.7856 -14.6005 0.463 0.887 0.005 87 29 15 0 0
-1.1721 4.7885 -14.6400 0.458 0.886 0.066 93 39 25 0 0
-1.4429 4.7899 -16.3858 0.828 0.076 0.555 39 22 22 0 0
-1.4184 4.7988 -16.4049 0.514 0.041 0.857 36 18 16 0 0
-2.0184 4.3799 -12.5390 0.779 0.433 0.454 118 49 33 0 0
-2.2229 4.3608 -13.4832 0.896 -0.193 0.400 19 7 5 0 0
-1.1467 4.7604 -14.5390 0.644 0.764 -0.044 87 29 16 0 0
-1.1325 4.7684 -14.6087 0.475 0.880 -0.000 90 31 17 0 0
-1.1176 4.7895 -14.9363 0.550 0.764 0.337 89 58 52 0 0
-1.2303 4.7636 -15.1477 0.462 0.880 -0.110 68 47 40 0 0
-1.4894 4.7077 -15.7048 0.604 0.758 0.247 106 99 96 0 0
-1.4813 4.7121 -15.7414 0.633 0.704 0.322 126 121 118 0 0
-1.4456 4.7541 -16.3545 0.862 0.262 0.434 37 21 20 0 0
-1.1719 4.8524 -16.5574 -0.011 0.488 0.873 51 39 38 0 0
-2.9769 4.0380 -12.5042 0.217 -0.183 0.959 109 52 41 0 0
-2.0753 4.3789 -13.5137 0.783 0.278 0.556 18 7 3 0 0
-1.4357 4.7239 -16.3561 0.862 0.262 0.434 21 8 8 0 0
-2.2456 4.2910 -13.4831 0.925 -0.239 0.297 10 2 1 0 0
-1.0533 4.7491 -14.9759 0.828 0.540 0.148 78 49 45 0 0
-1.1940 4.7742 -16.4664 0.044 -0.663 0.747 75 44 36 0 0
-1.1234 4.8115 -16.7696 0.562 0.778 -0.279 92 79 75 0 0
-1.1584 4.8046 -16.8617 0.583 0.766 -0.272 121 114 113 0 0
-2.2326 4.2179 -12.4903 -0.033 0.366 0.930 117 54 37 0 0
-2.2201 4.2674 -13.4690 0.918 0.359 0.168 8 1 1 0 0
-1.6914 4.4666 -14.0486 0.784 0.614 0.089 82 22 5 0 0
-1.6980 4.4666 -14.0961 0.501 0.812 0.298 71 13 2 0 0
-1.0413 4.7014 -14.5442 0.487 0.856 0.173 84 26 12 0 0
-1.2293 4.6535 -14.8321 0.330 0.749 0.575 87 30 17 0 0
-1.0410 4.7214 -14.9739 0.869 0.464 0.173 74 41 36 0 0
-1.4041 4.6690 -16.3933 0.821 0.242 0.517 23 10 8 0 0
-0.9113 4.8289 -16.3788 0.765 0.580 -0.280 60 50 52 0 0
-1.0729 4.7899 -16.6727 0.605 0.789 -0.102 74 55 48 0 0
-1.1122 4.7839 -16.8189 0.574 0.755 -0.317 113 102 100 0 0
-1.1416 4.7783 -16.9046 0.566 0.779 -0.269 132 128 127 0 0
-3.8538 3.6657 -12.6668 -0.336 0.286 0.897 206 206 208 0 0
-1.8197 4.3738 -13.6183 0.625 0.681 0.382 62 17 3 0 0
-1.1138 4.6506 -14.6331 0.555 -0.255 0.792 83 27 13 0 0
-1.2026 4.6298 -14.8146 0.285 0.804 0.523 86 28 15 0 0
-1.0375 4.7667 -16.6432 0.595 0.800 -0.078 74 53 47 0 0
-2.1252 4.1909 -12.4516 0.223 0.302 0.927 117 51 35 0 0
-2.1066 4.2452 -13.5407 0.854 -0.025 0.520 6 1 1 0 0
-1.2228 4.5892 -14.7614 -0.024 0.912 0.409 83 27 14 0 0
-1.0853 4.6391 -14.8717 0.232 0.844 0.483 90 37 26 0 0
-1.0652 4.6467 -14.8931 0.325 0.841 0.432 95 45 39 0 0
-1.2529 4.6554 -16.4810 0.542 0.830 0.129 51 19 14 0 0
-1.0870 4.7053 -16.3785 0.314 0.871 0.377 76 41 35 0 0
-0.9931 4.7353 -16.3612 -0.570 -0.080 0.818 52 24 17 0 0
-2.1227 4.1619 -12.4576 0.200 0.380 0.903 118 52 36 0 0
-2.1036 4.2135 -13.5077 0.989 0.099 0.107 7 1 1 0 0
-2.0884 4.2196 -13.5331 0.813 0.330 0.480 7 1 1 0 0
-2.0611 4.2309 -13.5870 0.813 0.330 0.480 11 3 3 0 0
-2.0465 4.2369 -13.6131 0.750 0.249 0.612 28 14 14 0 0
-2.0266 4.2443 -13.6343 0.671 -0.126 0.731 27 10 7 0 0
-2.0178 4.2486 -13.6659 0.566 -0.259 0.783 28 9 6 0 0
-1.1796 4.5721 -14.7692 0.397 0.706 0.587 83 27 14 0 0
-1.1471 4.5831 -14.7772 0.231 0.791 0.566 83 26 14 0 0
-1.0516 4.6175 -14.8462 0.455 0.809 0.372 101 46 36 0 0
-1.0352 4.6241 -14.8716 0.325 0.841 0.432 90 39 28 0 0
-1.2361 4.6026 -15.9064 0.774 0.507 0.380 50 44 42 0 0
-1.6267 4.3024 -12.6218 0.547 0.812 0.203 78 21 8 0 0
-2.0202 4.2136 -13.5979 0.471 0.756 0.455 21 10 10 0 0
-2.0153 4.2167 -13.6331 0.562 0.526 0.638 27 13 10 0 0
-2.0239 4.2159 -13.6812 0.645 -0.324 0.692 26 10 6 0 0
-1.6688 4.3511 -14.1079 0.872 0.241 0.425 107 46 31 0 0
-1.6008 4.3776 -14.2051 0.808 0.583 -0.079 111 42 18 0 0
-1.7639 4.3578 -15.0122 0.254 0.850 0.462 81 24 15 0 0
-1.0131 4.5992 -14.8589 0.363 0.775 0.518 93 40 27 0 0
-1.2142 4.5745 -15.8474 0.405 0.526 0.748 25 16 17 0 0
-1.0306 4.6477 -16.1472 0.381 0.221 0.898 46 21 17 0 0
-1.0028 4.6575 -16.1614 0.381 0.221 0.898 45 17 12 0 0
-0.8167 4.7255 -16.3178 0.912 0.001 0.410 57 47 48 0 0
-0.9675 4.7021 -16.9436 0.404 0.323 0.856 160 160 162 0 0
-3.5963 3.6180 -12.5713 -0.043 0.149 0.988 101 54 46 0 0
-3.5245 3.6441 -12.6269 -0.030 0.324 0.946 105 52 42 0 0
-1.9890 4.1902 -13.5384 0.087 0.916 0.393 9 3 3 0 0
-1.9827 4.1953 -13.6120 0.236 0.870 0.434 21 9 8 0 0
-1.5802 4.3491 -14.1120 0.770 0.621 0.150 73 14 5 0 0
-1.0822 4.5395 -14.7296 0.179 0.828 0.532 81 24 13 0 0
-1.0021 4.5695 -14.8150 0.357 0.773 0.525 83 26 14 0 0
-1.0165 4.6193 -16.1436 0.557 0.086 0.826 46 23 20 0 0
-0.9915 4.6283 -16.1612 0.411 0.106 0.905 43 18 14 0 0
-0.9635 4.6381 -16.1751 0.411 0.106 0.905 47 19 14 0 0
-0.9355 4.6480 -16.1889 0.411 0.106 0.905 56 23 18 0 0
-0.9075 4.6578 -16.2028 0.411 0.106 0.905 74 39 33 0 0
-0.8894 4.6668 -16.2761 -0.073 0.562 0.824 53 25 17 0 0
-0.8094 4.6952 -16.3225 0.811 0.158 0.564 57 47 47 0 0
-1.5597 4.3241 -14.1017 0.545 0.805 0.232 84 23 10 0 0
-1.7265 4.2872 -14.5640 0.176 0.851 0.494 69 16 4 0 0
-0.9789 4.5468 -14.8443 0.664 0.295 0.687 84 28 15 0 0
-0.9619 4.5535 -14.8690 0.719 0.228 0.657 97 41 28 0 0
-1.1658 4.5254 -15.8633 0.715 0.188 0.673 35 17 15 0 0
-1.1459 4.5330 -15.8866 0.715 0.188 0.673 38 18 17 0 0
-0.9357 4.6155 -16.2025 0.622 0.570 0.538 54 24 20 0 0
-3.6572 3.5348 -12.5973 -0.017 -0.206 0.978 104 53 45 0 0
-1.5099 4.3078 -14.0620 0.463 0.872 0.161 93 32 14 0 0
-1.5009 4.3136 -14.1354 0.374 0.908 0.191 74 16 7 0 0
-1.6570 4.2759 -14.5035 0.398 0.837 0.375 86 21 9 0 0
-1.6239 4.2889 -14.5544 0.320 0.792 0.521 73 18 9 0 0
-2.1505 4.0025 -12.4857 0.013 0.531 0.847 121 54 36 0 0
-1.4344 4.2434 -12.5199 0.625 0.754 0.204 90 29 12 0 0
-2.2436 4.0167 -13.6850 -0.509 0.245 0.825 13 7 8 0 0
-1.5631 4.2381 -13.5189 0.437 0.899 0.003 42 8 3 0 0
-1.5696 4.2468 -13.8054 0.421 0.712 0.562 109 60 48 0 0
-1.4729 4.2925 -14.1588 0.454 0.890 0.047 85 24 8 0 0
-1.6274 4.2531 -14.4839 0.398 0.837 0.375 102 25 14 0 0
-1.6140 4.2586 -14.5124 0.352 0.785 0.509 71 14 7 0 0
-1.5917 4.2668 -14.5319 0.290 0.819 0.494 66 16 8 0 0
-1.5542 4.2811 -14.5783 0.167 0.700 0.694 91 32 14 0 0
-1.5272 4.2907 -14.5929 0.086 0.672 0.735 79 30 15 0 0
-0.9306 4.5221 -15.4341 0.459 0.862 -0.216 58 48 51 0 0
-1.0638 4.5300 -16.8225 0.525 0.711 0.467 82 51 45 0 0
-1.0534 4.5349 -16.8591 0.292 0.462 0.838 83 56 51 0 0
-2.1251 3.9802 -12.4721 0.013 0.531 0.847 120 53 34 0 0
-2.0482 4.0486 -13.6319 0.973 0.202 0.109 17 11 11 0 0
-1.4380 4.2718 -14.1339 0.518 0.848 0.111 78 17 2 0 0
-1.5767 4.2366 -14.4426 0.545 0.829 0.126 109 28 14 0 0
-1.5618 4.2442 -14.5119 0.290 0.819 0.494 58 10 4 0 0
-1.2605 4.3653 -15.0566 0.079 -0.763 0.642 75 21 9 0 0
-1.0238 4.5101 -16.8366 0.527 0.666 0.527 83 56 52 0 0
-3.5936 3.4575 -12.5332 -0.122 0.776 0.618 107 54 42 0 0
-2.0576 3.9721 -12.4593 0.094 0.662 0.744 120 52 33 0 0
-2.0294 4.0231 -13.6237 0.860 -0.495 0.124 17 11 11 0 0
-1.5417 4.2171 -14.4596 0.455 0.881 0.130 100 24 15 0 0
-1.5474 4.2169 -14.5079 0.105 0.774 0.624 68 12 7 0 0
-1.4738 4.2435 -14.5591 0.304 0.757 0.578 80 27 9 0 0
-1.4525 4.2514 -14.5795 0.178 0.567 0.804 81 29 12 0 0
-1.0501 4.3946 -14.7948 -0.310 0.540 0.782 74 21 9 0 0
-0.9302 4.4427 -15.0118 0.425 0.064 0.903 82 24 12 0 0
-0.9131 4.4493 -15.0367 0.641 0.045 0.766 83 25 13 0 0
-0.8626 4.4675 -15.0682 0.804 -0.083 0.589 91 42 31 0 0
-0.8391 4.4760 -15.0860 0.864 0.494 0.092 91 50 43 0 0
-0.8291 4.5267 -16.4149 0.643 -0.042 0.765 73 53 51 0 0
-0.8408 4.5355 -16.7715 -0.534 -0.215 0.818 103 97 94 0 0
-1.4722 4.1502 -12.7664 0.898 0.299 0.322 94 39 26 0 0
-2.0009 4.0020 -13.6465 0.846 -0.380 0.374 18 13 13 0 0
-1.4301 4.2266 -14.5670 0.178 0.567 0.804 86 30 15 0 0
-0.8068 4.4573 -15.1501 0.814 0.561 0.153 92 53 45 0 0
-0.7682 4.5306 -16.8930 0.856 0.325 0.402 157 157 160 0 0
-0.8262 4.4171 -15.0953 0.874 0.069 0.480 84 28 16 0 0
-0.8102 4.4234 -15.1215 0.821 0.153 0.550 88 38 26 0 0
-0.7929 4.4300 -15.1463 0.805 0.255 0.536 89 46 38 0 0
-0.7359 4.4562 -15.3496 0.647 0.596 0.475 41 19 19 0 0
-0.7334 4.4584 -15.3918 0.779 0.330 0.532 38 19 19 0 0
-0.7486 4.4615 -15.6376 0.428 0.900 -0.081 52 38 38 0 0
-0.7765 4.4784 -16.4261 0.536 0.669 0.515 81 54 49 0 0
-1.9016 3.9342 -12.4596 0.207 0.497 0.843 123 50 33 0 0
-1.2814 4.1475 -12.5348 0.488 0.834 0.258 84 22 11 0 0
-2.1964 3.8737 -13.6886 0.374 0.759 -0.533 46 40 42 0 0
-1.2010 4.2530 -14.9503 0.529 -0.459 0.714 69 18 10 0 0
-1.1715 4.2635 -14.9619 0.436 -0.499 0.749 70 18 9 0 0
-1.1455 4.2728 -14.9773 -0.002 -0.308 0.952 70 18 9 0 0
-0.8470 4.3764 -15.0422 0.768 0.556 0.317 71 20 8 0 0
-0.7826 4.4017 -15.1466 0.633 0.439 0.638 88 35 25 0 0
-0.7343 4.4221 -15.2701 0.668 0.724 0.173 76 45 39 0 0
-0.7278 4.4270 -15.3526 0.761 0.520 0.388 53 24 24 0 0
-0.7118 4.4333 -15.3792 0.834 0.289 0.470 47 24 21 0 0
-0.7585 4.4526 -16.4661 0.588 0.299 0.752 83 56 49 0 0
-0.7175 4.4792 -16.8577 0.900 0.437 0.012 153 153 153 0 0
-1.3603 4.0970 -12.7276 0.898 0.323 0.298 94 36 25 0 0
-1.9777 3.9166 -13.6936 -0.249 0.709 0.660 19 13 13 0 0
-1.3514 4.1403 -14.0155 0.737 0.675 -0.041 94 37 20 0 0
-1.3615 4.1437 -14.2329 0.774 0.633 -0.004 95 33 14 0 0
-1.3660 4.1436 -14.2793 0.008 0.716 0.698 112 44 15 0 0
-1.3420 4.1523 -14.2965 0.059 0.833 0.550 114 41 11 0 0
-1.3486 4.1516 -14.3453 -0.037 0.872 0.489 112 35 13 0 0
-1.1687 4.2326 -14.9704 0.316 -0.533 0.785 67 17 10 0 0
-1.1441 4.2415 -14.9874 -0.002 -0.308 0.952 67 18 11 0 0
-1.1111 4.2530 -14.9952 -0.108 -0.082 0.991 68 18 11 0 0
-0.8038 4.3595 -15.0497 0.507 0.332 0.795 69 18 7 0 0
-0.7712 4.3736 -15.1458 0.497 0.545 0.675 82 25 14 0 0
-0.7327 4.3868 -15.1464 0.580 0.784 0.220 86 32 23 0 0
-0.7245 4.3907 -15.1816 0.655 0.745 0.124 89 44 38 0 0
-0.7201 4.3934 -15.2212 0.655 0.745 0.124 90 53 44 0 0
-0.7134 4.3969 -15.2583 0.616 0.758 0.214 90 55 47 0 0
-0.7046 4.4010 -15.2931 0.646 0.730 0.225 88 53 47 0 0
-0.6965 4.4048 -15.3288 0.646 0.730 0.225 75 41 37 0 0
-0.6897 4.4083 -15.3660 0.635 0.723 0.272 57 28 23 0 0
-0.8700 4.3937 -16.8652 0.308 0.951 0.022 93 86 81 0 0
-0.6956 4.4510 -16.7945 0.254 0.560 0.789 141 138 139 0 0
-2.0222 3.8316 -12.4331 0.336 -0.109 0.935 121 53 34 0 0
-1.3499 4.0706 -12.7268 0.480 0.690 0.542 90 27 16 0 0
-1.5105 4.0449 -13.6958 -0.317 0.424 0.849 56 11 7 0 0
-1.4301 4.0712 -13.6572 0.002 0.829 0.560 73 17 1 0 0
-1.2158 4.1491 -13.8070 0.112 0.672 0.732 79 18 6 0 0
-1.3226 4.1195 -14.0378 0.642 0.766 0.016 104 49 32 0 0
-1.3371 4.1175 -14.1352 0.719 0.650 0.245 88 27 13 0 0
-1.3538 4.1148 -14.2356 0.151 0.844 0.515 85 26 10 0 0
-1.3380 4.1210 -14.2612 -0.128 0.615 0.778 114 47 20 0 0
-1.3023 4.1334 -14.2662 -0.086 0.706 0.703 112 40 8 0 0
-0.6869 4.3654 -14.9734 0.107 0.771 0.628 67 18 10 0 0
-0.7566 4.3465 -15.1413 0.445 0.598 0.667 74 21 10 0 0
-0.8363 4.3690 -16.7876 0.817 0.399 -0.416 81 69 64 0 0
-0.6925 4.4218 -16.9048 0.928 0.371 -0.006 157 157 155 0 0
-1.3288 4.0476 -12.7162 0.480 0.690 0.542 88 22 8 0 0
-1.3260 4.0495 -12.7512 0.512 0.822 0.249 94 38 26 0 0
-1.5762 3.9737 -13.0981 0.442 0.695 -0.567 64 46 46 0 0
-1.7606 3.9166 -13.3094 0.430 0.708 -0.559 60 51 52 0 0
-1.2960 4.0968 -14.0211 0.642 0.766 0.016 98 43 28 0 0
-1.3163 4.0929 -14.1244 0.708 0.645 0.286 101 38 23 0 0
-1.3021 4.1009 -14.2348 0.168 0.886 0.432 107 41 17 0 0
-1.2831 4.1081 -14.2569 0.168 0.886 0.432 116 46 14 0 0
-1.3096 4.1084 -14.5809 0.624 0.018 0.781 54 16 8 0 0
-1.2874 4.1166 -14.6003 0.692 0.117 0.713 76 30 16 0 0
-1.2669 4.1243 -14.6215 0.692 0.117 0.713 72 28 14 0 0
-1.2386 4.1344 -14.6343 0.615 -0.031 0.788 37 7 4 0 0
-1.2270 4.1393 -14.6649 0.935 0.025 0.353 26 4 1 0 0
-0.6405 4.3694 -15.6531 0.972 0.209 0.105 60 34 27 0 0
-0.6851 4.3892 -16.8600 0.913 0.297 0.279 148 147 145 0 0
-1.7085 3.8789 -12.4347 0.336 0.666 0.666 124 51 34 0 0
-1.6963 3.8838 -12.4609 0.210 0.552 0.807 123 50 33 0 0
-1.4704 3.9770 -13.0084 0.439 0.701 -0.562 68 47 42 0 0
-1.8002 3.8743 -13.3952 0.394 0.747 -0.535 57 54 55 0 0
-1.8051 3.8794 -13.6386 -0.341 0.453 0.824 18 12 12 0 0
-1.5461 3.9684 -13.6297 0.045 0.704 0.709 33 7 6 0 0
-1.2810 4.0752 -14.1819 0.062 0.843 0.534 75 17 7 0 0
-1.2577 4.0837 -14.1995 0.029 0.869 0.495 90 25 8 0 0
-1.2341 4.0923 -14.2169 0.119 0.903 0.412 116 48 19 0 0
-1.2238 4.0967 -14.2480 0.005 0.902 0.431 109 39 9 0 0
-1.2093 4.1025 -14.2748 0.066 0.916 0.395 118 39 12 0 0
-1.2362 4.1035 -14.6429 0.796 -0.064 0.601 60 20 11 0 0
-1.9963 3.7494 -12.4355 0.290 0.323 0.901 124 52 37 0 0
-1.1910 4.0313 -12.5694 0.737 0.392 0.551 87 23 11 0 0
-1.3611 3.9818 -12.9154 0.443 0.697 -0.564 81 52 45 0 0
-1.5151 3.9335 -13.0979 0.428 0.714 -0.554 66 52 51 0 0
-1.6852 3.8801 -13.2965 0.374 0.772 -0.513 61 52 55 0 0
-1.2360 4.0719 -14.6539 0.863 0.465 0.199 83 33 16 0 0
-1.2220 4.0775 -14.6821 0.684 -0.059 0.727 48 12 4 0 0
-1.2045 4.0842 -14.7065 0.747 0.030 0.664 25 2 0 0 0
-1.0232 4.1568 -15.0775 0.365 -0.876 0.316 61 17 10 0 0
-0.9086 4.1954 -15.0382 0.434 -0.537 0.724 62 17 11 0 0
-0.7378 4.2564 -15.1115 0.682 0.514 0.520 60 16 10 0 0
-1.9977 3.7187 -12.4451 0.764 -0.344 0.546 124 52 37 0 0
-1.4036 3.9245 -12.4385 0.708 0.455 0.539 118 41 24 0 0
-1.2793 3.9781 -12.8480 0.445 0.698 -0.561 98 61 51 0 0
-1.2221 4.0446 -14.6503 0.863 0.465 0.199 80 28 13 0 0
-1.2169 4.0473 -14.6879 0.778 -0.074 0.624 78 31 15 0 0
-1.1972 4.0548 -14.7100 0.640 -0.135 0.757 38 8 1 0 0
-1.1791 4.0616 -14.7338 0.674 0.027 0.738 25 5 1 0 0
-0.5579 4.3088 -15.9665 0.666 0.735 0.124 86 56 51 0 0
-1.1694 4.0266 -14.4769 0.600 0.772 0.209 67 19 9 0 0
-1.1593 4.0319 -14.5516 0.491 0.859 0.145 51 14 9 0 0
-1.2000 4.0199 -14.6379 0.537 0.829 0.155 61 18 10 0 0
-1.2127 4.0169 -14.6946 0.731 0.124 0.671 82 34 18 0 0
-1.1806 4.0283 -14.7035 0.516 0.772 0.372 70 25 10 0 0
-1.1703 4.0327 -14.7357 0.533 0.792 0.299 32 3 1 0 0
-0.5553 4.2952 -16.7029 0.132 -0.302 0.944 132 126 126 0 0
-2.2205 3.5797 -12.4303 0.824 0.336 0.457 120 52 34 0 0
-1.2887 3.9424 -14.0244 -0.018 0.372 0.928 83 21 6 0 0
-1.1282 3.9994 -14.0667 0.553 0.824 0.124 96 40 21 0 0
-1.1285 4.0103 -14.5299 0.485 0.858 0.169 47 8 4 0 0
-1.1985 3.9969 -14.9964 0.636 0.761 -0.129 46 11 5 0 0
-0.6161 4.2067 -15.2770 0.735 0.526 0.428 54 16 9 0 0
-0.6591 4.2116 -16.1166 0.944 -0.284 0.166 83 53 46 0 0
-0.6371 4.2300 -16.5737 0.412 -0.545 0.730 83 70 65 0 0
-0.5996 4.2432 -16.5757 0.480 -0.414 0.774 90 80 74 0 0
-0.4691 4.2942 -16.8061 -0.108 0.979 0.176 162 161 163 0 0
-1.5645 3.7980 -13.2986 0.494 0.645 -0.583 58 51 51 0 0
-1.1176 3.9708 -14.0249 0.518 0.795 0.316 108 51 34 0 0
-1.1592 3.9795 -15.0536 0.678 0.521 0.518 50 12 3 0 0
-1.1271 3.9919 -15.1070 0.663 0.699 0.269 54 15 6 0 0
-0.5857 4.2189 -16.7704 0.773 0.229 0.592 134 128 128 0 0
-0.3576 4.3023 -16.9272 0.455 0.362 0.813 180 180 180 0 0
-1.8298 3.6539 -12.3697 0.525 0.731 0.436 124 52 33 0 0
-1.7694 3.7012 -13.5824 0.520 0.601 -0.607 52 49 47 0 0
-1.1267 3.9485 -14.5932 0.236 0.908 0.347 46 8 2 0 0
-1.1012 3.9615 -14.7821 0.774 0.632 -0.032 48 10 5 0 0
-1.0773 3.9703 -14.7997 0.934 0.352 0.053 25 2 1 0 0
-1.1317 3.9572 -15.0795 0.737 0.589 0.332 49 11 4 0 0
-1.2224 3.9314 -15.3596 0.459 0.869 0.187 54 13 7 0 0
-0.5978 4.1805 -16.7505 0.144 0.282 0.949 123 117 116 0 0
-1.8062 3.6324 -12.3944 0.261 0.726 0.636 124 53 33 0 0
-1.7607 3.6491 -12.4284 0.304 0.408 0.861 125 50 31 0 0
-1.3242 3.8163 -13.0894 0.447 0.732 -0.514 60 51 49 0 0
-1.0704 3.9397 -14.7601 0.945 0.311 0.097 89 34 19 0 0
-1.0573 3.9449 -14.7895 0.949 0.235 0.210 46 8 3 0 0
-1.0538 3.9470 -14.8293 0.922 0.245 0.299 23 3 3 0 0
-1.0442 3.9511 -14.8625 0.922 0.245 0.299 24 5 4 0 0
-1.7699 3.6151 -12.4079 0.317 0.397 0.861 127 53 34 0 0
-1.7428 3.6249 -12.4212 0.298 0.331 0.895 125 50 31 0 0
-1.0620 3.9089 -14.6757 0.958 0.285 0.041 55 15 8 0 0
-1.0593 3.9107 -14.7160 0.975 0.176 0.133 82 33 21 0 0
-1.0560 3.9126 -14.7559 0.958 0.163 0.235 99 43 28 0 0
-1.0480 3.9161 -14.7908 0.958 0.163 0.235 82 31 16 0 0
-1.0423 3.9188 -14.8282 0.949 0.235 0.210 38 5 2 0 0
-1.0372 3.9214 -14.8665 0.924 0.349 0.153 24 2 2 0 0
-0.6254 4.0803 -15.5663 0.723 0.256 0.642 43 13 9 0 0
-0.6071 4.0873 -15.5907 0.672 0.409 0.617 43 14 10 0 0
-0.5902 4.0938 -15.6168 0.464 0.195 0.864 43 15 11 0 0
-0.6443 4.0953 -16.6892 -0.410 0.061 0.910 99 94 91 0 0
-1.9689 3.5148 -12.4412 0.268 -0.079 0.960 124 53 35 0 0
-1.7857 3.5795 -12.4301 0.328 0.246 0.912 130 57 38 0 0
-1.7588 3.5893 -12.4436 0.168 0.500 0.849 131 57 38 0 0
-1.3115 3.7473 -12.4153 0.444 0.445 0.778 121 43 23 0 0
-1.0614 3.8780 -14.7298 0.820 0.301 0.487 62 18 14 0 0
-1.0445 3.8845 -14.7549 0.768 0.291 0.571 83 38 29 0 0
-1.0328 3.8892 -14.7857 0.842 0.472 0.261 94 43 25 0 0
-1.0242 3.8929 -14.8200 0.842 0.472 0.261 75 25 13 0 0
-1.0216 3.8945 -14.8610 0.878 0.456 0.149 36 3 1 0 0
-0.8221 3.9992 -16.7282 0.301 -0.402 0.865 78 68 66 0 0
-0.6245 4.0683 -16.6784 -0.217 0.047 0.975 103 98 96 0 0
-1.9645 3.4858 -12.4457 0.230 -0.222 0.948 123 52 35 0 0
-1.7414 3.5650 -12.4367 0.396 0.536 0.745 126 53 34 0 0
-1.4460 3.6904 -13.6305 0.473 0.869 -0.145 11 7 6 0 0
-1.4555 3.6878 -13.6802 0.469 0.874 -0.128 8 2 2 0 0
-1.0016 3.8532 -13.9165 0.339 0.237 0.910 77 20 8 0 0
-1.1866 3.7965 -14.4444 0.002 0.989 0.150 111 45 22 0 0
-1.0394 3.8535 -14.7174 0.620 0.687 0.379 48 8 2 0 0
-1.0334 3.8562 -14.7543 0.605 0.590 0.535 62 20 14 0 0
-1.0160 3.8629 -14.7789 0.721 0.679 0.140 89 42 30 0 0
-1.0155 3.8638 -14.8220 0.700 0.700 0.138 95 42 27 0 0
-1.0115 3.8659 -14.8615 0.702 0.712 0.018 68 22 10 0 0
-1.0203 3.8636 -14.9152 0.696 0.710 -0.107 36 4 0 0 0
-0.7105 4.0034 -16.6523 0.776 -0.474 0.417 86 79 77 0 0
-0.5890 4.0466 -16.6478 0.096 0.048 0.994 106 100 100 0 0
-1.3252 3.6831 -12.4447 0.131 0.332 0.934 120 42 20 0 0
-1.0499 3.8044 -13.8945 0.379 0.493 0.783 137 89 58 0 0
-0.9936 3.8249 -13.9187 0.485 0.101 0.869 85 26 11 0 0
-1.1261 3.7845 -14.3491 0.298 0.946 -0.126 88 25 10 0 0
-1.1199 3.7873 -14.3850 0.002 0.989 0.150 120 54 30 0 0
-1.1397 3.7812 -14.4486 0.054 0.980 0.190 109 42 20 0 0
-1.0835 3.8010 -14.4316 -0.284 0.618 0.733 125 51 25 0 0
-0.9936 3.8343 -14.5065 0.638 0.700 0.320 88 17 10 0 0
-1.0200 3.8281 -14.7077 0.334 0.843 0.421 55 8 3 0 0
-1.0147 3.8306 -14.7454 0.540 0.737 0.405 53 8 3 0 0
-0.9963 3.8375 -14.7689 0.729 0.670 0.139 71 25 19 0 0
-0.9949 3.8387 -14.8111 0.659 0.750 0.064 88 42 28 0 0
-0.9926 3.8402 -14.8524 0.659 0.750 0.064 93 40 23 0 0
-0.9947 3.8401 -14.8987 0.664 0.740 -0.103 72 23 11 0 0
-0.7540 3.9405 -15.8038 0.858 0.493 0.146 42 16 12 0 0
-0.7492 3.9428 -15.8450 0.729 0.412 0.548 41 17 13 0 0
-0.7338 3.9488 -15.8738 0.838 0.362 0.407 42 19 15 0 0
-0.4531 4.0587 -16.4901 0.102 -0.143 0.984 108 104 103 0 0
-0.2917 4.1217 -16.8293 0.438 -0.105 0.893 172 170 173 0 0
-0.2825 4.1280 -17.0197 0.800 0.600 -0.012 182 182 184 0 0
-4.2764 2.5985 -12.5262 -0.375 0.152 0.914 102 59 51 0 0
-1.0289 3.7805 -13.8833 0.473 0.695 0.542 129 83 53 0 0
-1.0156 3.7856 -13.9107 0.404 0.581 0.706 116 68 33 0 0
-0.9820 3.7977 -13.9173 0.545 0.234 0.806 83 27 7 0 0
-0.9855 3.7978 -14.0034 0.399 0.901 0.171 72 18 4 0 0
-0.9740 3.8131 -14.7561 0.495 0.853 0.165 56 11 4 0 0
-0.9655 3.8167 -14.7904 0.580 0.815 0.005 78 31 22 0 0
-0.9658 3.8172 -14.8346 0.580 0.815 0.005 92 42 29 0 0
-0.9666 3.8176 -14.8794 0.664 0.740 -0.103 96 43 28 0 0
-0.9728 3.8161 -14.9303 0.664 0.740 -0.103 71 25 14 0 0
-0.9791 3.8146 -14.9815 0.664 0.740 -0.103 33 3 1 0 0
-0.9865 3.8229 -15.7164 -0.234 0.897 0.374 41 13 8 0 0
-0.9282 3.8434 -15.6951 -0.388 0.678 0.624 41 13 9 0 0
-0.8523 3.8707 -15.6994 -0.335 0.562 0.756 40 12 8 0 0
-0.7943 3.8911 -15.6779 0.334 -0.425 0.842 39 11 7 0 0
-0.7244 3.9176 -15.7818 0.738 0.664 0.115 41 16 12 0 0
-0.7320 3.9157 -15.8377 0.745 0.483 0.461 41 17 14 0 0
-0.7108 3.9236 -15.8594 0.980 0.151 0.126 41 21 17 0 0
-0.9946 3.7617 -13.8995 0.670 0.462 0.582 123 78 42 0 0
-0.9601 3.7753 -13.9876 0.124 0.879 0.461 74 20 7 0 0
-0.9406 3.7944 -14.8624 0.641 0.766 -0.056 90 41 30 0 0
-0.9414 3.7947 -14.9073 0.620 0.772 -0.138 97 42 28 0 0
-0.9509 3.7920 -14.9620 0.664 0.740 -0.103 70 23 11 0 0
-0.8697 3.8305 -15.6396 0.700 -0.189 0.688 39 11 8 0 0
-0.8606 3.8349 -15.7221 0.321 -0.638 0.700 37 11 7 0 0
-0.8255 3.8476 -15.7274 0.551 -0.716 0.429 37 11 6 0 0
-0.9110 3.8316 -16.7967 0.014 0.025 1.000 79 75 72 0 0
-1.9674 3.3618 -12.4445 0.368 0.410 0.834 124 53 33 0 0
-1.4054 3.5807 -13.7520 -0.494 0.096 0.864 9 2 2 0 0
-0.9554 3.7447 -13.9107 0.405 0.494 0.770 106 52 24 0 0
-0.9362 3.7524 -13.9734 0.202 0.640 0.741 78 22 12 0 0
-0.8576 3.7887 -14.6084 0.880 0.423 0.215 64 12 6 0 0
-0.9268 3.7658 -14.7712 0.646 0.760 0.073 57 10 2 0 0
-0.9240 3.7674 -14.8118 0.646 0.760 0.073 58 14 5 0 0
-0.9184 3.7704 -14.8936 0.677 0.732 -0.079 90 42 30 0 0
-0.9248 3.7688 -14.9449 0.662 0.744 -0.090 97 44 29 0 0
-1.0058 3.7500 -15.7645 0.670 0.661 0.339 38 11 8 0 0
-0.9548 3.7682 -15.7519 0.631 0.027 0.776 36 11 7 0 0
-0.9323 3.7765 -15.7723 0.439 0.053 0.897 35 10 6 0 0
-0.8751 3.7969 -15.7520 0.401 -0.736 0.546 35 10 6 0 0
-0.8510 3.8058 -15.7704 0.664 -0.701 0.260 35 11 6 0 0
-1.6629 3.4409 -12.4469 0.218 0.521 0.825 130 55 36 0 0
-0.9045 3.7420 -14.8020 0.718 0.678 0.157 57 11 2 0 0
-0.9031 3.7430 -14.8444 0.740 0.672 0.026 58 15 7 0 0
-0.8916 3.7475 -14.8757 0.677 0.732 -0.079 78 33 25 0 0
-0.8962 3.7465 -14.9249 0.677 0.732 -0.079 95 45 33 0 0
-0.9008 3.7454 -14.9743 0.677 0.732 -0.079 102 47 31 0 0
-0.9493 3.7316 -15.2979 0.877 0.455 -0.153 25 6 3 0 0
-4.6340 2.3362 -12.6335 -0.487 0.250 0.837 110 87 83 0 0
-1.6428 3.4176 -12.4375 0.218 0.521 0.825 126 51 31 0 0
-1.6159 3.4275 -12.4509 0.218 0.521 0.825 126 51 31 0 0
-1.3278 3.5319 -12.4530 0.641 0.552 0.533 127 50 28 0 0
-0.8053 3.7219 -12.5281 0.291 0.467 0.835 82 17 5 0 0
-1.0817 3.6336 -13.6520 0.133 0.545 0.828 41 11 8 0 0
-0.8909 3.7142 -14.7549 0.729 0.631 0.267 74 14 6 0 0
-0.8836 3.7172 -14.7906 0.718 0.678 0.157 65 13 5 0 0
-0.8784 3.7195 -14.8288 0.674 0.738 0.035 61 11 5 0 0
-0.8747 3.7212 -14.8687 0.756 0.653 -0.041 61 15 9 0 0
-0.8770 3.7209 -14.9154 0.756 0.653 -0.041 80 36 30 0 0
-0.8742 3.7224 -14.9565 0.662 0.744 -0.090 92 45 35 0 0
-0.9321 3.7054 -15.3361 0.855 0.506 -0.116 24 4 3 0 0
-4.2841 2.4280 -12.4942 -0.429 0.139 0.893 103 59 52 0 0
-1.5707 3.4132 -12.4193 0.087 0.190 0.978 126 51 30 0 0
-1.5353 3.4261 -12.4250 0.087 0.190 0.978 125 50 29 0 0
-1.3579 3.4904 -12.4146 0.614 0.393 0.684 127 49 27 0 0
-1.3345 3.4991 -12.4306 0.755 0.395 0.524 128 50 28 0 0
-1.3204 3.5044 -12.4549 0.755 0.395 0.524 127 49 27 0 0
-0.7775 3.7040 -12.6982 0.865 -0.033 0.501 96 52 39 0 0
-1.0598 3.6102 -13.6401 0.216 0.479 0.851 41 12 8 0 0
-0.8825 3.6790 -14.1156 0.336 0.915 0.225 110 52 31 0 0
-0.8575 3.6943 -14.7735 0.573 0.774 0.269 75 16 7 0 0
-0.8462 3.6995 -14.8929 0.711 0.698 -0.084 61 15 8 0 0
-0.8489 3.6990 -14.9402 0.666 0.744 -0.050 83 36 28 0 0
-0.9126 3.6790 -15.2808 0.736 0.663 -0.138 16 1 0 0 0
-4.6383 2.2663 -12.6135 -0.374 0.285 0.882 108 84 79 0 0
-4.5578 2.2955 -12.5920 -0.344 0.306 0.888 103 67 63 0 0
-4.4471 2.3358 -12.5859 0.008 -0.042 0.999 102 57 51 0 0
-1.3450 3.4649 -12.4115 0.787 0.305 0.536 132 54 32 0 0
-1.3307 3.4703 -12.4357 0.787 0.305 0.536 129 51 29 0 0
-1.3084 3.4786 -12.4527 0.755 0.395 0.524 130 52 30 0 0
-0.7828 3.6723 -12.7125 0.807 0.296 0.510 95 46 34 0 0
-1.1610 3.5420 -13.6304 -0.413 -0.276 0.868 12 2 2 0 0
-0.8499 3.6575 -13.8846 0.207 0.728 0.653 127 82 50 0 0
-0.8639 3.6542 -14.1067 0.264 0.888 0.378 98 42 24 0 0
-0.8437 3.6617 -14.1273 -0.060 0.778 0.625 115 55 35 0 0
-0.8232 3.6761 -14.9676 0.652 0.752 -0.095 81 36 27 0 0
-0.9247 3.6537 -16.7354 -0.586 0.418 0.694 78 76 78 0 0
-0.8754 3.6724 -16.8242 -0.461 0.314 0.830 94 92 93 0 0
-0.6699 3.7464 -16.7161 -0.423 0.020 0.906 106 105 103 0 0
-4.5972 2.2470 -12.5906 -0.344 0.306 0.888 101 74 68 0 0
-4.3803 2.3263 -12.5818 0.165 -0.089 0.982 104 57 49 0 0
-1.2520 3.4778 -13.6907 -0.420 -0.253 0.871 10 6 5 0 0
-0.8271 3.6344 -13.8714 0.362 0.719 0.594 124 81 49 0 0
-0.8032 3.6433 -13.8877 0.188 0.591 0.784 105 52 23 0 0
-0.7675 3.6564 -13.8915 0.407 0.489 0.772 89 33 17 0 0
-0.7934 3.6483 -14.0848 -0.008 0.690 0.724 110 50 30 0 0
-0.8586 3.6283 -14.6235 0.376 0.834 0.403 89 14 8 0 0
-0.8862 3.6235 -15.3664 0.624 0.775 -0.098 16 1 0 0 0
-0.8905 3.6223 -15.4170 0.655 0.755 0.017 14 0 0 0 0
-0.8870 3.6242 -15.5049 0.630 0.772 0.085 38 20 18 0 0
-0.9086 3.6175 -15.6689 0.725 0.680 -0.105 38 23 20 0 0
-1.1054 3.5530 -16.7229 -0.348 0.725 0.594 42 41 39 0 0
-0.8597 3.6435 -16.8190 -0.273 0.097 0.957 96 94 95 0 0
-0.6713 3.7114 -16.6823 -0.050 0.373 0.927 105 104 102 0 0
-0.6768 3.7098 -16.7392 -0.314 -0.037 0.949 108 107 103 0 0
-0.5323 3.7620 -16.6559 -0.487 0.202 0.850 117 116 114 0 0
-4.5588 2.2269 -12.5697 -0.333 0.289 0.897 101 69 62 0 0
-2.2668 3.0658 -12.3038 0.520 0.613 0.594 122 53 38 0 0
-2.2769 3.0624 -12.3493 0.314 0.369 0.875 122 52 37 0 0
-2.2412 3.0755 -12.3563 0.064 0.406 0.911 127 56 41 0 0
-0.7600 3.6208 -12.7088 0.943 0.281 0.180 89 35 25 0 0
-0.7489 3.6319 -13.8827 0.382 0.508 0.772 85 27 7 0 0
-0.7186 3.6431 -13.8921 0.411 0.379 0.829 75 25 15 0 0
-0.7664 3.6266 -14.0671 -0.115 0.816 0.566 104 44 25 0 0
-0.8683 3.5975 -15.4499 0.671 0.742 0.013 16 1 1 0 0
-0.9393 3.5740 -15.8584 0.248 0.662 0.707 36 27 25 0 0
-1.0368 3.5436 -16.7527 0.594 0.800 0.080 57 55 55 0 0
-1.0626 3.5349 -16.8850 -0.425 0.267 0.865 74 72 73 0 0
-1.0083 3.5547 -16.8680 -0.405 0.249 0.880 81 79 81 0 0
-0.6339 3.6913 -16.7495 -0.407 0.334 0.850 114 113 110 0 0
-2.2565 3.0386 -12.3403 0.396 0.698 0.597 121 52 37 0 0
-1.2034 3.4269 -12.5322 0.298 0.281 0.912 121 40 21 0 0
-0.6414 3.6334 -12.4918 0.920 -0.014 0.392 71 18 8 0 0
-1.1225 3.4618 -13.5817 -0.465 0.346 0.815 13 9 10 0 0
-0.7615 3.5960 -13.8652 0.331 0.708 0.624 123 82 51 0 0
-0.7040 3.6172 -13.8874 0.411 0.379 0.829 78 26 11 0 0
-0.7262 3.6098 -14.0353 -0.029 0.874 0.486 100 40 24 0 0
-0.7687 3.5969 -14.5913 0.539 0.806 0.244 93 18 12 0 0
-0.8786 3.5629 -15.8943 0.421 0.449 0.788 34 24 23 0 0
-1.0198 3.5146 -16.6464 0.776 0.630 0.025 46 42 41 0 0
-0.9630 3.5363 -16.8261 0.313 0.792 0.524 81 79 81 0 0
-1.0043 3.5217 -16.9280 0.575 0.467 0.672 87 85 88 0 0
-1.0273 3.5136 -17.0074 0.325 -0.257 0.910 93 91 94 0 0
-0.8961 3.5613 -16.8936 0.187 0.127 0.974 99 97 100 0 0
-2.3616 2.9687 -12.3624 0.064 0.227 0.972 122 53 37 0 0
-1.3693 3.3352 -12.4678 0.340 0.312 0.887 127 49 27 0 0
-1.1509 3.4159 -12.4927 0.352 0.243 0.904 124 43 23 0 0
-0.9857 3.4806 -13.4951 -0.410 0.683 0.604 11 7 8 0 0
-0.9312 3.5016 -13.7232 0.086 0.730 0.678 47 10 6 0 0
-0.6957 3.5891 -13.8893 0.586 -0.117 0.802 86 27 11 0 0
-0.6853 3.5933 -14.0027 -0.115 0.816 0.566 88 27 15 0 0
-0.7808 3.5604 -14.6162 0.622 0.518 0.587 108 27 19 0 0
-0.7347 3.5774 -14.6088 0.669 0.728 0.147 88 18 9 0 0
-0.6950 3.5924 -14.6955 0.453 0.850 0.270 116 47 25 0 0
-0.6928 3.5942 -14.9577 0.249 0.968 0.035 65 14 8 0 0
-1.0888 3.4552 -16.8455 -0.022 0.970 0.244 59 56 57 0 0
-0.8828 3.5314 -16.8914 0.092 0.117 0.989 99 97 100 0 0
-4.5230 2.1378 -12.5276 -0.323 0.212 0.922 100 65 59 0 0
-2.2187 2.9900 -12.3248 0.384 0.201 0.901 123 54 38 0 0
-0.8124 3.5120 -12.9017 0.633 0.467 -0.618 93 57 47 0 0
-0.9869 3.4491 -13.5064 -0.544 0.480 0.688 13 9 9 0 0
-0.7268 3.5465 -13.9327 0.539 0.729 0.423 92 31 14 0 0
-0.6134 3.5885 -13.9787 -0.062 0.857 0.512 104 42 28 0 0
-0.6857 3.5636 -14.6533 0.582 0.711 0.395 79 17 5 0 0
-0.6742 3.5679 -14.6841 0.508 0.780 0.366 97 31 12 0 0
-0.6757 3.5675 -14.7295 0.720 0.506 0.475 112 41 20 0 0
-0.9618 3.4661 -16.4063 0.859 0.441 -0.259 33 29 28 0 0
-0.9033 3.4890 -16.8812 0.302 0.198 0.933 93 91 93 0 0
-2.2072 2.9631 -12.3232 0.151 -0.053 0.987 124 53 38 0 0
-2.0205 3.0325 -12.3874 0.065 -0.073 0.995 126 54 39 0 0
-1.8996 3.0774 -12.3948 0.422 0.266 0.867 127 53 38 0 0
-1.8742 3.0868 -12.4100 0.422 0.266 0.867 128 52 36 0 0
-1.3391 3.2855 -12.4578 0.065 0.462 0.885 124 46 24 0 0
-1.2794 3.3077 -12.4783 0.072 0.411 0.909 132 51 30 0 0
-0.5731 3.5722 -13.9464 -0.062 0.857 0.512 90 31 18 0 0
-0.6863 3.5313 -14.7093 0.779 -0.026 0.626 86 18 7 0 0
-0.6832 3.5325 -14.7497 0.511 -0.391 0.765 108 39 19 0 0
-0.7566 3.5062 -15.3255 0.939 -0.314 0.141 89 49 39 0 0
-0.8145 3.4849 -15.4382 0.921 0.300 0.249 91 49 40 0 0
-0.8059 3.4881 -15.4742 0.889 0.412 0.198 92 51 42 0 0
-0.7774 3.4989 -15.6264 0.721 0.681 -0.131 56 32 27 0 0
-1.9146 3.0408 -12.3790 0.528 0.123 0.840 125 53 38 0 0
-1.8620 3.0604 -12.4079 0.422 0.266 0.867 127 51 35 0 0
-1.3614 3.2468 -12.4494 0.446 -0.211 0.870 129 49 27 0 0
-0.7486 3.4751 -12.7821 0.496 0.821 0.283 83 23 12 0 0
-0.5893 3.5349 -13.8917 0.082 0.873 0.480 75 26 14 0 0
-0.5366 3.5545 -13.9184 -0.036 0.880 0.474 78 22 8 0 0
-0.7714 3.4678 -15.5392 0.969 -0.148 0.197 94 48 41 0 0
-0.7658 3.4699 -15.5792 0.957 0.282 0.073 95 50 41 0 0
-0.8212 3.4494 -15.8318 0.430 0.787 0.442 14 7 7 0 0
-1.0476 3.3656 -16.9895 0.282 -0.004 0.959 78 76 77 0 0
-0.7318 3.4501 -14.4354 -0.243 0.834 0.495 126 59 45 0 0
-0.7679 3.4358 -15.5944 0.988 -0.021 0.151 89 47 41 0 0
-0.8004 3.4236 -15.7731 0.486 0.853 0.190 84 54 48 0 0
-1.8634 2.9979 -12.3885 0.433 0.244 0.868 126 51 36 0 0
-1.8039 3.0202 -12.3742 0.438 0.445 0.781 125 49 33 0 0
-1.5947 3.0985 -12.4139 0.304 0.338 0.891 126 49 28 0 0
-1.5695 3.1079 -12.4289 0.432 0.190 0.882 128 50 28 0 0
-1.5518 3.1145 -12.4506 0.342 0.100 0.934 132 51 30 0 0
-0.5705 3.4796 -13.8106 0.541 0.567 0.621 121 75 46 0 0
-0.5444 3.4894 -13.8242 0.827 0.334 0.452 102 47 28 0 0
-0.5292 3.4951 -13.8492 0.655 0.392 0.646 92 42 29 0 0
-0.5240 3.4969 -13.8850 0.721 0.252 0.645 84 33 22 0 0
-0.6963 3.4314 -14.4081 -0.152 0.843 0.516 130 64 46 0 0
-0.7387 3.4130 -15.8074 0.224 0.899 0.375 33 21 17 0 0
-2.1234 2.8692 -12.3594 0.401 0.053 0.914 125 53 38 0 0
-2.0708 2.8890 -12.3519 0.173 0.116 0.978 126 54 39 0 0
-2.0416 2.9000 -12.3641 0.371 0.229 0.900 124 55 39 0 0
-1.9587 2.9312 -12.3304 -0.040 0.731 0.682 124 55 39 0 0
-0.8024 3.3652 -12.4832 0.360 0.407 0.839 126 45 25 0 0
-0.7216 3.3928 -13.4493 0.201 0.979 0.023 39 16 14 0 0
-0.7207 3.3930 -13.4886 0.166 0.986 0.019 53 15 11 0 0
-0.6889 3.4049 -13.4963 0.178 0.982 0.067 58 18 13 0 0
-0.6820 3.4074 -13.5296 0.190 0.979 0.077 60 18 13 0 0
-0.5702 3.4487 -13.7798 0.692 0.659 0.296 117 76 49 0 0
-0.5572 3.4535 -13.8071 0.730 0.498 0.469 120 72 43 0 0
-0.5169 3.4685 -13.8469 0.660 0.209 0.721 103 49 33 0 0
-0.5161 3.4687 -13.8874 0.731 0.171 0.661 93 41 29 0 0
-1.5376 3.0584 -12.4177 0.502 0.475 0.723 127 46 25 0 0
-1.4914 3.0757 -12.4512 0.279 0.308 0.909 127 45 24 0 0
-1.2922 3.1509 -12.4214 0.803 0.345 0.486 129 47 25 0 0
-0.7622 3.3504 -12.4915 0.526 0.371 0.765 132 51 36 0 0
-0.6444 3.3922 -13.1432 0.338 0.941 0.024 17 9 6 0 0
-0.5901 3.4125 -13.1674 0.993 0.105 0.051 21 10 12 0 0
-0.5122 3.4391 -13.8526 0.718 0.261 0.645 110 53 35 0 0
-0.7289 3.3506 -15.5408 0.636 0.765 -0.098 80 36 28 0 0
-2.1122 2.8108 -12.3664 0.361 -0.173 0.916 125 54 38 0 0
-1.3117 3.1129 -12.4476 0.417 0.119 0.901 129 47 25 0 0
-0.5576 3.3958 -12.8723 0.687 0.708 0.162 96 54 45 0 0
-0.5678 3.3884 -13.5536 0.219 0.880 0.422 97 39 20 0 0
-0.5519 3.3943 -13.5775 0.243 0.877 0.415 105 45 26 0 0
-0.5020 3.4117 -13.8525 0.699 0.449 0.558 113 58 39 0 0
-0.6629 3.3418 -15.6158 0.602 0.794 0.077 86 44 37 0 0
-0.6375 3.3499 -15.9158 0.270 0.825 0.496 39 34 35 0 0
-2.1222 2.7755 -12.3832 0.409 -0.374 0.832 124 56 37 0 0
-1.7367 2.9218 -12.3492 0.429 0.168 0.888 125 49 33 0 0
-1.7137 2.9305 -12.3662 0.435 0.213 0.875 125 49 33 0 0
-1.6900 2.9393 -12.3828 0.494 0.062 0.867 126 49 33 0 0
-1.4933 3.0138 -12.3954 0.329 0.658 0.677 129 48 27 0 0
-1.3555 3.0657 -12.4585 0.711 0.309 0.631 131 51 28 0 0
-0.5178 3.3717 -14.3009 0.394 0.897 0.200 126 62 45 0 0
-0.6543 3.3105 -15.8069 0.457 0.694 0.557 84 47 36 0 0
-0.6339 3.3181 -15.8297 0.470 0.648 0.600 22 10 8 0 0
-0.6118 3.3263 -15.8506 0.261 0.543 0.798 30 26 27 0 0
-0.7623 3.2605 -12.4811 0.657 -0.001 0.754 125 43 23 0 0
-0.5243 3.3348 -14.6660 0.496 0.847 0.191 116 57 43 0 0
-0.5646 3.3106 -15.8546 0.183 0.544 0.819 36 34 39 0 0
-0.7362 3.2383 -16.8022 0.956 -0.082 -0.281 78 74 74 0 0
-1.4878 2.9543 -12.4076 0.108 0.469 0.876 130 48 27 0 0
-1.3318 3.0134 -12.4545 0.188 0.117 0.975 130 50 27 0 0
-0.4202 3.3604 -12.5375 0.283 -0.012 0.959 69 12 2 0 0
-0.4174 3.3612 -12.5724 0.846 -0.016 0.533 74 14 6 0 0
-0.4027 3.3666 -12.5957 0.846 -0.016 0.533 83 17 4 0 0
-0.4389 3.3515 -12.7452 0.670 0.738 0.081 99 49 36 0 0
-0.4603 3.3408 -13.0367 0.845 0.534 -0.038 104 67 49 0 0
-0.4619 3.3392 -13.1559 0.904 0.426 0.035 106 71 50 0 0
-0.4430 3.3360 -14.3698 0.642 0.730 0.235 95 55 44 0 0
-0.5495 3.2828 -15.8498 0.334 0.577 0.745 36 29 31 0 0
-0.5132 3.2966 -15.8534 0.451 0.313 0.836 40 37 39 0 0
-0.4914 3.3048 -15.8744 0.297 0.434 0.851 42 37 38 0 0
-0.4696 3.3129 -15.8956 0.664 0.360 0.655 41 37 36 0 0
-0.9066 3.1382 -16.8285 0.465 0.791 -0.397 49 44 41 0 0
-4.2696 1.8588 -12.4606 -0.500 0.421 0.757 105 57 47 0 0
-0.4504 3.3135 -13.1148 0.873 0.487 0.017 86 53 43 0 0
-0.4496 3.3135 -13.1533 0.912 0.410 0.021 85 52 41 0 0
-0.4607 3.3072 -13.3631 0.865 0.418 0.277 85 52 35 0 0
-0.4305 3.3175 -13.4925 0.794 0.589 0.153 96 57 42 0 0
-0.4212 3.3127 -14.3571 0.642 0.730 0.235 88 40 21 0 0
-0.5294 3.2570 -15.8388 0.334 0.577 0.745 58 44 41 0 0
-0.5011 3.2677 -15.8521 0.297 0.434 0.851 48 44 46 0 0
-0.7627 3.1626 -16.3652 -0.140 0.990 0.017 42 38 37 0 0
-1.8588 2.7506 -12.3770 0.487 -0.003 0.873 123 51 34 0 0
-1.0363 3.0661 -12.3894 0.312 0.445 0.840 131 49 28 0 0
-1.0113 3.0755 -12.4037 0.312 0.445 0.840 130 48 27 0 0
-0.3720 3.3189 -12.5842 0.476 -0.185 0.859 80 17 4 0 0
-0.4160 3.2978 -12.9727 0.981 0.109 0.161 87 49 35 0 0
-0.4026 3.3001 -13.2338 0.953 0.210 0.218 90 48 31 0 0
-0.3957 3.3024 -13.2664 0.953 0.210 0.218 92 50 33 0 0
-4.5716 1.6742 -12.4706 0.642 0.544 -0.539 211 212 214 0 0
-1.3642 2.9095 -12.3974 0.488 0.205 0.849 131 51 28 0 0
-1.2927 2.9369 -12.4078 0.214 0.042 0.976 130 50 27 0 0
-0.8680 3.0996 -12.4664 0.293 0.394 0.871 133 51 29 0 0
-0.8014 3.1251 -12.4789 0.541 0.498 0.677 124 43 22 0 0
-0.4018 3.2776 -12.5849 0.722 -0.224 0.654 74 17 6 0 0
-0.4092 3.2733 -12.7060 0.885 0.166 0.435 91 21 8 0 0
-0.4543 3.2550 -12.7888 0.922 -0.046 0.384 93 30 14 0 0
-0.4142 3.2691 -12.9030 0.949 0.221 0.225 102 57 43 0 0
-0.4097 3.2704 -12.9372 0.958 0.218 0.187 106 63 47 0 0
-0.4090 3.2702 -12.9753 0.960 0.247 0.133 113 70 54 0 0
-0.3976 3.2714 -13.2387 0.843 0.513 0.161 115 64 44 0 0
-0.3932 3.2727 -13.2739 0.824 0.553 0.121 115 65 44 0 0
-0.4214 3.2363 -12.8812 0.898 0.184 0.400 103 60 50 0 0
-0.4066 3.2417 -12.9051 0.848 0.370 0.380 101 60 49 0 0
-0.3881 3.2481 -12.9641 0.840 0.497 0.218 107 62 50 0 0
-0.3801 3.2446 -13.4709 0.818 0.534 0.215 107 61 43 0 0
-0.3739 3.2465 -13.5049 0.879 0.419 0.229 104 59 39 0 0
-0.3661 3.2491 -13.5372 0.813 0.567 0.132 104 58 37 0 0
-0.4346 3.2135 -14.2348 0.981 -0.100 0.168 97 35 12 0 0
-0.5272 3.1655 -15.1769 0.811 0.498 0.307 124 65 51 0 0
-0.5167 3.1691 -15.2104 0.811 0.498 0.307 119 58 45 0 0
-0.5041 3.1736 -15.2413 0.800 0.557 0.223 110 51 39 0 0
-0.4971 3.1758 -15.2789 0.807 0.581 0.108 112 55 41 0 0
-0.4973 3.1751 -15.3251 0.886 0.460 0.053 130 64 49 0 0
-2.2046 2.5226 -12.3990 0.559 -0.243 0.793 125 54 38 0 0
-2.1785 2.5324 -12.4143 0.559 -0.243 0.793 126 54 39 0 0
-0.8378 3.0509 -12.4559 0.657 0.176 0.733 135 53 29 0 0
-0.5282 3.1707 -12.4622 0.534 -0.200 0.822 131 48 32 0 0
-0.4172 3.2076 -12.8866 0.697 0.390 0.601 97 55 42 0 0
-0.4034 3.2126 -12.9114 0.708 0.479 0.519 101 63 54 0 0
-0.3899 3.2174 -12.9368 0.701 0.536 0.471 103 64 55 0 0
-0.3774 3.2219 -12.9630 0.715 0.618 0.328 104 62 49 0 0
-0.3528 3.2210 -13.6970 0.655 0.634 0.411 87 50 37 0 0
-0.4991 3.1431 -15.2024 0.668 0.581 0.466 121 62 48 0 0
-0.4766 3.1515 -15.2218 0.767 0.547 0.336 109 52 41 0 0
-0.4601 3.1575 -15.2483 0.545 0.629 0.554 106 54 41 0 0
-0.4455 3.1627 -15.2769 0.508 0.722 0.470 125 67 53 0 0
-2.3529 2.4335 -12.3821 0.523 0.496 0.693 122 54 35 0 0
-2.3327 2.4410 -12.4027 0.523 0.496 0.693 122 54 35 0 0
-1.8282 2.6372 -12.3842 0.120 0.426 0.897 125 53 38 0 0
-0.8414 3.0190 -12.4682 0.587 0.365 0.722 141 59 35 0 0
-0.5123 3.1470 -12.4561 0.782 -0.191 0.593 127 44 26 0 0
-0.4017 3.1834 -12.8807 0.701 0.536 0.471 97 53 42 0 0
-0.3883 3.1883 -12.9060 0.701 0.536 0.471 98 60 49 0 0
-0.3745 3.1932 -12.9310 0.777 0.451 0.438 103 63 49 0 0
-0.3628 3.1974 -12.9580 0.812 0.523 0.260 93 54 37 0 0
-0.3445 3.1956 -13.5354 0.879 0.463 0.117 83 49 40 0 0
-2.2114 2.4566 -12.3837 0.856 0.099 0.507 123 55 36 0 0
-2.1928 2.4635 -12.4055 0.777 0.230 0.587 125 53 38 0 0
-2.1760 2.4696 -12.4289 0.682 0.166 0.713 125 53 38 0 0
-1.7256 2.6452 -12.4155 0.586 0.573 0.573 127 52 33 0 0
-1.3374 2.7966 -12.4079 0.701 0.193 0.687 130 48 26 0 0
-0.8287 2.9937 -12.4653 0.617 0.226 0.753 136 54 30 0 0
-0.7533 3.0224 -12.5070 0.247 0.321 0.914 126 44 23 0 0
-0.3793 3.1621 -12.8679 0.860 0.292 0.418 100 55 45 0 0
-0.3469 3.1622 -13.6300 0.783 0.504 0.366 87 49 39 0 0
-0.2774 3.1864 -13.8026 0.832 0.214 0.512 102 57 31 0 0
-0.2782 3.1805 -14.1390 0.541 0.839 -0.054 103 40 13 0 0
-0.2746 3.1705 -14.8310 0.610 0.791 -0.052 117 59 47 0 0
-2.1469 2.4494 -12.4124 0.465 0.497 0.733 125 53 38 0 0
-0.7665 2.9872 -12.4909 0.418 0.549 0.723 137 55 33 0 0
-0.3466 3.1436 -12.9223 0.907 0.332 0.258 96 58 40 0 0
-0.3350 3.1364 -13.5872 0.758 0.624 0.189 113 67 46 0 0
-0.3235 3.1404 -13.6158 0.832 0.456 0.315 114 67 45 0 0
-0.2439 3.1513 -14.7632 0.610 0.791 -0.052 123 67 51 0 0
-2.1328 2.4232 -12.4088 0.613 0.619 0.491 126 54 39 0 0
-0.5494 3.0421 -12.4814 0.725 0.043 0.687 128 46 25 0 0
-0.3369 3.1171 -12.9223 0.907 0.332 0.258 102 63 48 0 0
-0.3348 3.1172 -12.9591 0.878 0.451 0.163 104 65 49 0 0
-0.3147 3.1135 -13.5762 0.753 0.645 0.128 114 66 44 0 0
-0.3064 3.1162 -13.6082 0.839 0.487 0.241 115 66 42 0 0
-0.2667 3.1295 -13.7301 0.596 0.565 0.570 91 51 36 0 0
-0.2193 3.1459 -13.8446 0.573 0.469 0.672 122 77 46 0 0
-0.1797 3.1599 -13.9265 0.575 0.456 0.679 60 13 4 0 0
-4.3838 1.5037 -12.5772 -0.192 0.691 0.697 106 71 65 0 0
-1.7526 2.5426 -12.3148 -0.010 0.716 0.698 127 54 37 0 0
-1.6541 2.5793 -12.4158 0.242 0.511 0.824 127 50 30 0 0
-0.5999 2.9918 -12.5012 0.404 0.483 0.777 128 46 25 0 0
-0.5495 3.0118 -12.4906 0.719 0.137 0.681 126 44 23 0 0
-0.1889 3.1262 -13.8641 0.606 0.608 0.513 109 61 30 0 0
-0.1844 3.1272 -13.9010 0.718 0.556 0.419 74 17 2 0 0
-0.2191 3.1000 -14.5823 0.189 0.903 0.386 112 58 44 0 0
-0.2015 3.1065 -14.6060 0.189 0.903 0.386 122 73 51 0 0
-0.2384 3.0849 -14.9604 0.103 0.798 0.594 126 70 51 0 0
-0.2057 3.0959 -15.0576 0.364 0.923 0.128 124 62 48 0 0
-2.1121 2.3685 -12.3702 0.896 0.422 0.141 124 52 37 0 0
-0.5544 2.9794 -12.5044 0.768 0.441 0.465 127 45 24 0 0
-0.5447 2.9826 -12.5329 0.896 -0.065 0.439 125 43 23 0 0
-0.5101 2.9962 -12.5372 0.594 -0.107 0.797 125 42 24 0 0
-0.1771 3.0987 -13.9040 0.837 0.033 0.546 91 33 13 0 0
-0.1373 3.1046 -14.3702 0.319 0.442 0.838 114 56 44 0 0
-0.2040 3.0665 -14.9325 0.028 0.845 0.533 126 70 51 0 0
-0.1829 3.0744 -14.9528 -0.057 0.852 0.520 118 63 43 0 0
-4.1282 1.5358 -12.5541 0.111 0.526 0.843 107 54 43 0 0
-0.5373 2.9553 -12.5349 0.850 0.132 0.511 127 46 25 0 0
-0.5029 2.9688 -12.5395 0.761 -0.050 0.647 123 44 22 0 0
-0.2329 3.0501 -13.6849 0.713 0.654 0.254 83 33 10 0 0
-0.2295 3.0507 -13.7225 0.876 0.410 0.252 105 64 29 0 0
-0.1858 3.0644 -13.8828 0.669 0.065 0.740 129 95 68 0 0
-0.1070 3.0918 -14.0482 0.969 0.243 0.041 100 35 15 0 0
-0.2246 3.0270 -14.8792 -0.098 0.864 0.493 125 65 48 0 0
-0.1961 3.0380 -14.8907 -0.209 0.701 0.682 124 62 49 0 0
-0.1676 3.0490 -14.9023 0.013 0.883 0.468 123 63 48 0 0
-0.3102 2.9777 -15.5782 0.589 0.778 0.219 113 64 48 0 0
-0.2768 2.9886 -15.6792 0.459 0.865 0.203 92 48 34 0 0
-2.1398 2.2937 -12.3729 -0.270 0.327 0.906 124 52 37 0 0
-0.5313 2.9283 -12.5005 0.356 0.401 0.844 134 52 31 0 0
-0.3897 2.9584 -13.6161 0.885 -0.006 0.465 20 6 4 0 0
-0.3682 2.9665 -13.6343 0.780 -0.203 0.591 22 5 4 0 0
-0.1722 3.0385 -13.8790 0.468 0.292 0.834 130 93 71 0 0
-0.0794 3.0738 -13.9445 0.321 0.347 0.881 70 12 3 0 0
-0.0527 3.0840 -13.9570 0.693 0.323 0.644 79 17 2 0 0
-0.1655 3.0182 -14.8673 -0.220 0.681 0.698 124 63 48 0 0
-0.2271 2.9748 -15.6793 0.193 0.963 0.187 90 45 34 0 0
-2.1355 2.2634 -12.3775 0.045 -0.320 0.947 125 53 38 0 0
-1.7849 2.4019 -12.4142 0.203 0.483 0.852 125 54 36 0 0
-0.2071 3.0214 -12.7243 0.809 0.426 0.406 76 15 6 0 0
-0.0818 3.0199 -14.8265 -0.198 0.833 0.516 124 60 48 0 0
-0.2315 2.9472 -15.3692 0.205 0.888 0.411 115 58 47 0 0
-0.2273 2.9421 -15.6456 0.494 0.784 0.375 104 59 43 0 0
-0.1462 2.9686 -15.8795 0.179 0.183 0.967 44 40 37 0 0
-0.1408 2.9697 -15.9209 0.603 0.522 0.603 41 40 40 0 0
-1.8338 2.3504 -12.4277 0.238 0.552 0.799 124 53 35 0 0
-1.8081 2.3603 -12.4430 -0.112 0.497 0.861 125 53 35 0 0
-0.5117 2.8756 -12.5000 0.262 -0.042 0.964 128 44 23 0 0
-0.4892 2.8842 -12.5161 0.438 0.132 0.889 128 45 24 0 0
-0.0765 3.0474 -12.5649 0.480 0.523 0.704 71 12 4 0 0
-0.1949 2.9962 -12.7217 0.696 0.584 0.418 74 14 5 0 0
-0.4632 2.8733 -13.3481 0.622 -0.775 0.112 21 11 9 0 0
-0.2978 2.9311 -13.6631 0.646 0.384 0.660 18 4 3 0 0
-0.0539 3.0213 -13.9387 0.514 0.409 0.755 78 19 9 0 0
-0.0328 3.0293 -13.9573 0.514 0.409 0.755 78 16 3 0 0
-0.1243 2.9428 -15.9141 0.603 0.522 0.603 41 39 41 0 0
-0.1510 2.9288 -16.0448 0.896 0.443 0.042 41 41 41 0 0
-1.9178 2.2860 -12.3960 0.064 -0.016 0.998 124 52 37 0 0
-0.5288 2.8389 -12.4878 0.444 -0.033 0.896 138 56 32 0 0
-0.0838 3.0143 -12.5816 0.741 0.428 0.517 69 11 5 0 0
-0.4790 2.8372 -13.2942 0.690 -0.723 -0.016 13 4 2 0 0
-0.5105 2.8227 -13.3667 0.697 -0.717 0.014 12 4 2 0 0
-0.5243 2.8157 -13.4213 0.650 -0.752 0.107 10 5 2 0 0
-0.3210 2.8909 -12.5223 0.308 0.033 0.951 131 48 29 0 0
-0.5586 2.7716 -13.3859 0.716 -0.698 0.009 17 12 11 0 0
-0.5689 2.7660 -13.4370 0.640 -0.758 0.130 18 13 12 0 0
-0.0374 2.9651 -13.9428 0.813 0.343 0.470 82 18 5 0 0
-0.0959 2.8869 -15.9063 0.631 0.739 0.235 39 39 42 0 0
-1.2410 2.4950 -12.3789 0.469 0.297 0.832 131 51 28 0 0
-0.9403 2.6130 -12.4797 0.038 0.464 0.885 133 51 29 0 0
-0.6290 2.7095 -13.4685 0.648 -0.748 0.141 18 9 10 0 0
-0.6221 2.7113 -13.5021 0.664 -0.737 0.127 17 9 11 0 0
-0.4132 2.7886 -13.7355 0.496 -0.168 0.852 6 5 3 0 0
-0.3868 2.7988 -13.7488 0.496 -0.168 0.852 22 12 11 0 0
-0.3498 2.8136 -13.7509 0.316 -0.168 0.934 22 6 5 0 0
-0.3422 2.8157 -13.7843 0.508 0.193 0.840 33 10 8 0 0
0.0428 2.9633 -14.0336 0.215 0.844 0.491 109 51 29 0 0
0.0378 2.9447 -14.6021 0.415 0.714 0.564 63 48 44 0 0
-0.1193 2.8618 -15.2862 0.005 0.874 0.486 129 72 54 0 0
-0.0274 2.8952 -15.4072 0.446 0.828 0.340 111 61 48 0 0
-0.1059 2.8553 -15.6927 0.388 0.769 0.508 84 42 37 0 0
-0.0943 2.8590 -15.7260 0.642 0.685 0.344 84 37 28 0 0
-0.0765 2.8655 -15.7517 0.557 0.714 0.425 101 48 34 0 0
-0.0613 2.8707 -15.7806 0.557 0.714 0.425 109 58 43 0 0
-2.0993 2.1176 -12.3884 0.042 0.551 0.834 123 52 34 0 0
-0.2625 2.8543 -12.5214 0.403 0.428 0.809 136 59 38 0 0
-0.6729 2.6561 -13.6057 0.634 -0.761 0.140 31 23 27 0 0
-0.5343 2.7089 -13.7086 -0.066 -0.422 0.904 6 2 2 0 0
-0.3488 2.7821 -13.7607 0.631 0.360 0.687 25 9 9 0 0
