ply
format ascii 1.0
element vertex 832
property float x
property float y
property float z
property float nx
property float ny
property float nz
property uchar diffuse_red
property uchar diffuse_green
property uchar diffuse_blue
property uchar class
property uchar detection
end_header
3.6320 -3.2925 -16.0504 0.402 -0.238 0.884 120 121 117 0 0
1.9046 -4.2675 -15.4894 -0.752 -0.645 0.134 22 12 11 0 0
4.0309 -2.9924 -15.9647 -0.494 -0.038 0.869 206 206 208 0 0
1.9036 -4.1428 -15.1632 -0.289 -0.433 0.854 70 35 28 0 0
2.3026 -3.8203 -15.1525 0.112 -0.074 0.991 109 62 47 0 0
1.8455 -4.1099 -15.1829 -0.588 -0.257 0.767 73 43 38 0 0
2.3255 -3.7572 -15.0762 0.194 -0.206 0.959 111 64 53 0 0
1.8410 -4.0792 -15.1996 -0.807 -0.330 0.490 74 45 40 0 0
3.7877 -2.9571 -16.0421 0.013 -0.289 0.957 52 54 58 0 0
1.7414 -4.0322 -15.1949 -0.546 -0.756 -0.360 50 31 30 0 0
1.9682 -4.0271 -16.0835 -0.561 -0.663 0.496 20 7 7 0 0
1.9365 -4.0479 -16.0896 -0.447 -0.368 0.816 21 7 7 0 0
1.8959 -4.0795 -16.1285 -0.507 -0.198 0.839 25 10 9 0 0
1.8487 -4.1206 -16.2030 -0.658 -0.137 0.741 42 23 19 0 0
1.7443 -4.2760 -16.7838 -0.105 -0.895 0.434 179 178 176 0 0
1.9703 -3.9922 -16.1096 -0.692 -0.322 0.646 19 7 7 0 0
1.9127 -4.0381 -16.1720 -0.500 -0.232 0.834 24 9 9 0 0
1.8342 -4.0933 -16.2098 -0.751 -0.177 0.636 44 25 21 0 0
1.7798 -4.1511 -16.3634 -0.496 -0.290 0.818 34 24 25 0 0
1.8423 -4.0491 -16.1998 -0.591 -0.682 0.431 44 25 21 0 0
1.8129 -4.0690 -16.2085 -0.777 -0.288 0.560 45 26 22 0 0
3.5676 -2.8853 -15.9686 -0.459 0.079 0.885 21 22 24 0 0
1.8286 -4.0147 -16.1642 -0.591 -0.682 0.431 41 22 21 0 0
2.9946 -2.8896 -13.8426 -0.748 0.621 0.234 214 214 216 0 0
3.5108 -2.8121 -15.5057 0.646 -0.521 0.558 68 69 74 0 0
3.3318 -2.9551 -15.7031 0.171 -0.661 0.730 24 24 27 0 0
1.9155 -3.9149 -16.1167 -0.614 -0.757 0.223 26 12 12 0 0
1.9116 -3.9232 -16.1555 -0.614 -0.757 0.223 27 12 10 0 0
1.8955 -3.9436 -16.2237 -0.729 -0.160 0.666 40 22 20 0 0
3.3960 -2.8693 -15.6637 -0.548 -0.784 0.293 40 39 44 0 0
3.3535 -2.8961 -15.6623 0.288 -0.568 0.771 33 32 36 0 0
3.3101 -2.9232 -15.6599 -0.186 0.144 0.972 27 27 29 0 0
1.7339 -4.0225 -16.3181 -0.605 -0.585 0.540 18 8 9 0 0
-2.5106 -6.7298 -16.6097 -0.966 0.066 0.251 214 214 214 0 0
3.2388 -2.8734 -15.5449 -0.049 -0.997 0.056 33 32 36 0 0
3.3773 -2.8186 -15.7733 -0.967 0.028 0.253 22 22 24 0 0
3.3718 -2.8275 -15.8105 -0.570 -0.260 0.779 17 19 18 0 0
-2.5181 -6.7049 -16.6274 -0.543 0.302 0.784 215 215 215 0 0
-2.5263 -6.7148 -16.6592 -0.905 0.220 0.365 217 217 217 0 0
3.0990 -2.7122 -14.0923 -0.375 -0.543 0.751 127 98 88 0 0
3.0435 -2.8316 -14.6690 -0.133 -0.801 0.584 79 68 69 0 0
3.0028 -2.8576 -14.6688 -0.224 -0.624 0.748 76 70 68 0 0
2.9796 -2.8749 -14.6858 -0.543 -0.597 0.591 81 75 74 0 0
3.1798 -2.8725 -15.5477 -0.320 -0.947 -0.001 29 27 31 0 0
3.2068 -2.8778 -15.7031 -0.621 -0.783 -0.030 14 14 14 0 0
-2.5327 -6.6826 -16.6325 -0.458 0.219 0.862 217 217 217 0 0
-2.5299 -6.6883 -16.6839 -0.905 0.220 0.365 217 217 217 0 0
3.0349 -2.8009 -14.6805 -0.570 -0.539 0.620 106 90 86 0 0
3.0185 -2.8149 -14.7044 -0.842 -0.038 0.538 107 93 90 0 0
2.9975 -2.8311 -14.7238 -0.906 -0.303 0.294 114 97 95 0 0
2.9810 -2.8451 -14.7476 -0.649 0.060 0.759 102 89 86 0 0
2.9912 -2.8459 -14.7981 -0.940 -0.235 0.248 93 81 79 0 0
3.1639 -2.8689 -15.7228 -0.720 -0.588 0.369 13 13 13 0 0
3.0222 -2.9443 -15.6165 -0.938 -0.194 0.288 11 11 11 0 0
1.4522 -3.8299 -14.7836 -0.426 -0.885 -0.186 108 53 38 0 0
1.4344 -3.8500 -14.8440 -0.636 -0.740 0.219 115 62 44 0 0
1.4266 -3.8595 -14.8755 -0.585 -0.791 0.179 103 47 30 0 0
1.7171 -3.7807 -15.6181 -0.736 -0.214 0.642 40 29 31 0 0
-2.5147 -6.6410 -16.6488 -0.371 0.288 0.883 216 216 216 0 0
-2.5416 -6.6581 -16.6478 -0.435 0.320 0.841 217 217 217 0 0
3.6877 -2.2597 -14.0939 0.420 -0.308 0.854 210 208 211 0 0
3.6269 -2.2964 -14.0774 0.387 -0.361 0.848 206 201 203 0 0
3.0585 -2.7540 -14.7241 -0.983 -0.140 0.121 101 80 73 0 0
3.0120 -2.8297 -15.0433 -0.365 -0.905 0.218 98 79 76 0 0
3.0057 -2.8387 -15.0780 -0.741 -0.572 0.353 89 71 70 0 0
1.7227 -3.7441 -15.6476 0.014 -0.403 0.915 44 33 36 0 0
1.7511 -3.8110 -16.2411 -0.616 -0.284 0.735 24 14 13 0 0
3.5771 -2.2864 -14.0504 0.387 -0.361 0.848 158 144 141 0 0
3.5233 -2.3195 -14.0399 0.387 -0.361 0.848 126 103 98 0 0
3.4207 -2.3832 -14.0231 0.194 -0.240 0.951 105 71 65 0 0
2.9095 -2.7880 -14.5564 -0.770 -0.563 0.300 98 72 68 0 0
2.8943 -2.8013 -14.5812 -0.683 -0.516 0.518 99 73 70 0 0
2.8821 -2.8131 -14.6091 -0.683 -0.516 0.518 99 73 70 0 0
2.8888 -2.8154 -14.6558 -0.774 -0.609 0.175 99 74 71 0 0
2.9728 -2.8196 -15.0653 -0.344 -0.897 0.277 102 78 75 0 0
2.9772 -2.8233 -15.1111 -0.405 -0.878 0.255 103 79 76 0 0
2.8609 -2.9223 -15.2809 -0.919 0.147 0.365 76 52 46 0 0
2.8557 -2.9308 -15.3171 -0.820 -0.126 0.558 64 40 34 0 0
2.7770 -3.0114 -15.5279 0.411 -0.752 0.515 25 12 11 0 0
1.5867 -3.8236 -15.8531 -0.693 -0.497 0.522 67 59 58 0 0
1.5456 -3.8492 -15.8474 -0.328 -0.262 0.907 42 32 33 0 0
1.7120 -3.7950 -16.2187 -0.672 -0.650 0.353 29 18 16 0 0
3.5273 -2.2766 -14.0233 0.330 -0.299 0.895 107 79 74 0 0
3.4760 -2.3085 -14.0150 0.319 -0.291 0.902 101 70 64 0 0
2.9476 -2.6505 -14.0240 -0.030 -0.795 0.605 119 62 46 0 0
2.8266 -2.9098 -15.3083 -0.691 0.040 0.721 92 52 40 0 0
2.7954 -2.9312 -15.3173 -0.342 -0.252 0.905 88 51 40 0 0
2.7356 -2.9844 -15.4217 -0.071 -0.544 0.836 43 18 13 0 0
2.6478 -3.0457 -15.4542 -0.967 -0.094 0.236 76 36 27 0 0
2.5885 -3.0809 -15.4328 -0.758 0.625 0.188 110 56 42 0 0
1.6688 -3.7020 -15.6315 -0.771 -0.379 0.511 30 21 21 0 0
1.2965 -4.0753 -16.5761 0.380 0.397 0.835 165 165 164 0 0
2.9460 -2.6113 -14.0028 -0.594 -0.627 0.505 148 81 52 0 0
2.9185 -2.6309 -14.0152 -0.381 -0.522 0.763 148 86 57 0 0
2.8780 -2.6570 -14.0152 -0.103 -0.169 0.980 136 79 49 0 0
2.9120 -2.8023 -15.2104 -0.572 -0.773 0.274 99 70 68 0 0
2.8119 -2.8699 -15.2311 -0.917 -0.158 0.367 90 58 51 0 0
2.8249 -2.8692 -15.2863 -0.768 -0.143 0.625 77 37 26 0 0
2.8115 -2.8818 -15.3140 -0.628 -0.069 0.775 78 31 17 0 0
2.6699 -2.9875 -15.4157 -0.437 -0.270 0.858 72 31 19 0 0
2.6408 -3.0078 -15.4267 -0.826 -0.188 0.532 82 41 32 0 0
1.4278 -3.6987 -14.7618 -0.941 -0.210 0.267 107 51 35 0 0
1.3660 -3.7685 -14.9752 -0.440 -0.553 0.708 101 49 35 0 0
1.3308 -3.8028 -15.0573 -0.785 -0.509 0.354 81 46 39 0 0
1.5791 -3.7410 -15.7628 -0.663 -0.566 0.489 121 115 112 0 0
1.5675 -3.7526 -15.7919 -0.663 -0.566 0.489 125 120 117 0 0
1.5058 -3.8002 -15.8477 -0.328 -0.262 0.907 38 28 29 0 0
3.8396 -1.9994 -14.0324 0.001 0.066 0.998 213 214 215 0 0
2.8269 -2.8268 -15.2682 -0.377 -0.841 0.387 96 64 57 0 0
2.8162 -2.8380 -15.2987 -0.211 -0.659 0.722 87 50 40 0 0
2.7984 -2.8527 -15.3219 -0.336 -0.337 0.880 82 39 27 0 0
2.7716 -2.8720 -15.3355 -0.367 -0.098 0.925 83 41 32 0 0
2.6477 -2.9748 -15.4981 -0.453 0.424 0.784 106 50 34 0 0
1.3578 -3.7057 -14.7454 -0.701 -0.641 0.312 106 50 33 0 0
1.5581 -3.7170 -15.7617 -0.794 -0.379 0.476 83 75 73 0 0
1.5471 -3.7283 -15.7915 -0.663 -0.566 0.489 106 97 96 0 0
1.5345 -3.7404 -15.8195 -0.672 -0.593 0.444 92 82 81 0 0
1.4896 -3.7740 -15.8521 -0.501 -0.240 0.831 38 28 29 0 0
2.7760 -2.6672 -14.1491 -0.624 -0.553 0.551 81 31 13 0 0
1.3063 -3.7259 -14.9107 -0.744 -0.609 0.274 113 63 50 0 0
1.3005 -3.7343 -14.9447 -0.397 -0.825 0.402 100 47 32 0 0
1.3086 -3.7360 -14.9946 -0.666 -0.627 0.404 98 48 36 0 0
1.5541 -3.6730 -15.6951 -0.293 -0.769 0.569 25 17 16 0 0
1.5480 -3.6819 -15.7305 -0.305 -0.663 0.683 28 20 18 0 0
1.4703 -3.7551 -15.8961 -0.887 0.116 0.448 46 34 34 0 0
1.4523 -3.7698 -15.9176 -0.827 -0.016 0.561 46 30 30 0 0
1.3882 -3.8547 -16.2324 0.161 -0.737 0.656 65 37 34 0 0
2.7046 -2.7782 -14.8953 -0.656 -0.741 0.142 77 39 20 0 0
2.7548 -2.8034 -15.3193 -0.075 -0.948 0.311 103 66 47 0 0
2.7423 -2.8155 -15.3480 0.166 -0.666 0.728 99 59 44 0 0
2.6144 -2.9145 -15.4644 -0.677 -0.617 0.401 106 47 31 0 0
1.2825 -3.7045 -14.9056 -0.706 -0.548 0.449 122 74 61 0 0
1.2841 -3.7148 -14.9887 -0.525 -0.713 0.464 99 49 35 0 0
1.5120 -3.6653 -15.7117 -0.443 -0.732 0.517 32 24 22 0 0
1.5083 -3.6730 -15.7501 -0.408 -0.579 0.706 24 16 14 0 0
1.5055 -3.6860 -15.8325 -0.946 -0.156 0.286 21 11 11 0 0
1.4949 -3.6971 -15.8630 -0.924 -0.125 0.361 25 15 16 0 0
1.4831 -3.7087 -15.8920 -0.918 -0.079 0.388 43 32 35 0 0
1.4671 -3.7224 -15.9161 -0.881 0.187 0.435 47 35 36 0 0
1.4430 -3.7401 -15.9305 -0.827 -0.016 0.561 45 32 31 0 0
1.3137 -3.8683 -16.2536 -0.361 -0.009 0.932 61 39 33 0 0
1.2645 -3.6803 -14.9070 -0.481 -0.659 0.578 124 74 62 0 0
1.5117 -3.6370 -15.7777 -0.839 -0.334 0.429 27 18 18 0 0
1.4337 -3.7103 -15.9434 -0.827 -0.016 0.561 46 33 33 0 0
1.3281 -3.8090 -16.1642 -0.831 -0.393 0.393 47 23 20 0 0
1.2943 -3.8493 -16.2988 -0.281 -0.489 0.826 44 27 26 0 0
1.3013 -3.9005 -16.7108 0.219 0.561 0.798 158 156 157 0 0
2.6943 -2.6002 -14.0886 -0.436 -0.491 0.754 107 48 27 0 0
2.6338 -2.6580 -14.2246 -0.176 -0.936 0.305 109 56 38 0 0
2.7006 -2.7427 -15.1805 -0.785 -0.086 0.613 73 39 26 0 0
2.7034 -2.7468 -15.2250 -0.519 -0.390 0.761 69 35 21 0 0
1.3223 -3.5854 -14.7516 0.019 0.497 0.868 105 48 31 0 0
1.3108 -3.5966 -14.7789 -0.667 0.548 0.505 103 46 29 0 0
1.2384 -3.6601 -14.8992 -0.364 -0.714 0.598 112 60 48 0 0
1.2160 -3.6767 -14.9143 -0.020 -0.479 0.878 110 56 43 0 0
1.4842 -3.6105 -15.7261 -0.927 -0.191 0.321 45 37 38 0 0
3.9013 -1.7693 -14.0630 0.447 -0.201 0.872 199 194 194 0 0
3.8006 -1.8284 -14.0116 0.323 -0.124 0.938 144 132 128 0 0
2.6292 -2.6100 -14.1223 -0.677 -0.085 0.731 109 50 33 0 0
2.5580 -2.6680 -14.2085 0.002 -0.980 0.197 110 60 47 0 0
2.5844 -2.6700 -14.3528 -0.305 -0.884 0.355 96 56 44 0 0
1.2099 -3.6465 -14.9294 -0.319 -0.036 0.947 110 55 41 0 0
1.3492 -3.7238 -16.1955 -0.801 -0.477 0.362 40 21 19 0 0
1.3089 -3.7495 -16.1900 -0.323 -0.524 0.788 48 23 20 0 0
1.2833 -3.7679 -16.2026 -0.489 -0.776 0.399 58 30 28 0 0
1.2638 -3.7892 -16.2668 -0.553 -0.194 0.810 55 33 29 0 0
3.8455 -1.7627 -14.0313 0.386 -0.061 0.921 171 158 153 0 0
2.2406 -2.9687 -15.1919 -0.095 0.581 0.808 101 37 19 0 0
1.2462 -3.7575 -16.2258 -0.276 -0.750 0.602 67 42 40 0 0
1.2316 -3.7705 -16.2518 -0.384 -0.674 0.631 50 28 24 0 0
2.5210 -2.6129 -14.1718 -0.325 -0.494 0.806 114 47 21 0 0
2.4774 -2.6461 -14.2069 -0.303 -0.766 0.567 101 58 47 0 0
1.2042 -3.7553 -16.2872 -0.302 -0.256 0.918 31 18 18 0 0
1.2040 -3.7612 -16.3314 -0.729 -0.483 0.484 34 28 28 0 0
1.1546 -3.7972 -16.3585 -0.693 -0.649 0.314 64 43 40 0 0
2.8127 -2.3420 -13.8527 -0.155 -0.525 0.837 113 41 27 0 0
2.5677 -2.5229 -14.0033 -0.542 -0.584 0.605 135 69 49 0 0
2.4375 -2.6478 -14.3048 -0.733 -0.482 0.480 103 58 45 0 0
2.3959 -2.8122 -15.3618 -0.907 -0.179 0.381 109 41 21 0 0
1.2146 -3.7097 -16.2809 -0.694 -0.426 0.581 41 25 24 0 0
1.1651 -3.7573 -16.3971 -0.758 -0.630 0.168 65 43 41 0 0
2.4411 -2.6110 -14.3283 -0.866 -0.275 0.417 103 59 43 0 0
2.4197 -2.6274 -14.3465 -0.463 -0.795 0.391 106 60 45 0 0
2.3912 -2.7735 -15.3368 -0.366 -0.821 0.438 130 65 31 0 0
2.3617 -2.7943 -15.3470 -0.241 -0.184 0.953 115 47 20 0 0
1.5114 -3.2890 -14.8281 -0.577 -0.476 0.663 102 43 26 0 0
1.1047 -3.5981 -15.1435 -0.868 -0.432 0.246 87 44 34 0 0
1.0900 -3.6162 -15.2093 -0.892 -0.404 0.204 54 25 18 0 0
1.2021 -3.5862 -15.5520 -0.404 -0.878 -0.255 50 38 38 0 0
1.1446 -3.7327 -16.3968 -0.802 -0.462 0.378 68 45 43 0 0
2.6697 -2.3736 -13.9469 0.163 0.106 0.981 124 44 22 0 0
2.5556 -2.6353 -15.4091 -0.538 -0.075 0.840 83 35 17 0 0
2.4416 -2.7005 -15.3290 -0.785 0.044 0.617 85 37 16 0 0
2.4169 -2.7188 -15.3445 -0.587 -0.155 0.794 117 63 37 0 0
2.3721 -2.7477 -15.3382 -0.243 -0.618 0.748 136 74 38 0 0
1.4918 -3.2652 -14.8280 -0.577 -0.476 0.663 101 41 25 0 0
1.1696 -3.5740 -15.5793 -0.067 -0.995 0.076 53 42 42 0 0
3.3183 -1.8926 -13.8400 -0.186 -0.583 0.791 145 87 56 0 0
2.6101 -2.3611 -13.8312 -0.170 -0.578 0.798 118 38 19 0 0
2.3451 -2.6123 -14.4302 -0.474 -0.628 0.617 108 58 31 0 0
2.4122 -2.6853 -15.3615 -0.090 -0.194 0.977 107 56 33 0 0
1.3970 -3.3480 -15.2789 0.036 -0.458 0.888 95 37 21 0 0
1.2153 -3.5217 -15.7006 0.146 -0.983 0.107 52 43 41 0 0
1.1992 -3.6469 -16.6075 -0.499 -0.859 -0.112 83 57 52 0 0
3.2894 -1.8725 -13.8320 -0.078 -0.617 0.783 152 81 49 0 0
3.2686 -1.8887 -13.8516 -0.164 -0.358 0.919 133 69 39 0 0
3.2402 -1.9092 -13.8642 -0.099 -0.327 0.940 128 59 31 0 0
3.1996 -1.9363 -13.8655 0.060 -0.272 0.961 134 62 31 0 0
2.3290 -2.6672 -15.0850 -0.365 -0.662 0.654 60 13 5 0 0
2.5735 -2.5479 -15.4303 0.105 -0.962 0.254 64 15 5 0 0
2.3648 -2.6797 -15.3747 -0.071 -0.192 0.979 132 80 53 0 0
1.0625 -3.5551 -15.4559 -0.447 -0.868 0.215 42 25 22 0 0
1.1320 -3.5300 -15.6243 -0.651 -0.700 0.292 49 40 38 0 0
1.1319 -3.6287 -16.4127 -0.421 -0.896 -0.141 70 47 44 0 0
2.2285 -2.6296 -14.5513 -0.570 -0.723 0.390 77 28 14 0 0
2.2046 -2.6575 -14.6473 -0.773 -0.435 0.461 93 50 35 0 0
2.3038 -2.6449 -15.0798 -0.154 -0.648 0.746 59 12 4 0 0
2.5137 -2.5434 -15.3883 0.105 -0.962 0.254 60 12 5 0 0
1.2805 -3.2991 -14.8599 -0.215 -0.782 0.586 96 35 23 0 0
1.2648 -3.3124 -14.8830 -0.336 -0.692 0.639 94 35 24 0 0
1.1200 -3.5178 -15.7626 0.021 -0.999 0.030 38 24 22 0 0
3.2372 -1.8292 -13.8211 -0.220 -0.566 0.794 126 61 42 0 0
3.2569 -1.8230 -13.8780 -0.367 -0.080 0.927 120 62 41 0 0
0.9910 -3.6033 -16.0641 -0.712 -0.540 0.449 54 39 39 0 0
3.2158 -1.8050 -13.8200 -0.252 -0.577 0.777 121 58 41 0 0
3.0227 -1.8953 -13.8144 -0.581 -0.774 0.252 146 78 49 0 0
2.3088 -2.5446 -15.2342 -0.287 -0.907 0.308 57 10 5 0 0
2.2759 -2.5878 -15.4096 -0.377 -0.454 0.807 74 25 10 0 0
1.7379 -2.9173 -15.1520 0.466 0.304 0.831 89 31 14 0 0
1.1107 -3.3417 -15.1854 0.057 -0.018 0.998 84 26 12 0 0
0.9856 -3.5049 -15.8444 -0.569 -0.798 0.196 56 37 35 0 0
2.9880 -1.8788 -13.8007 -0.899 -0.438 -0.011 147 80 50 0 0
2.5290 -2.1904 -13.8285 -0.339 -0.552 0.762 115 37 22 0 0
1.5613 -2.9969 -15.1428 0.208 0.001 0.978 89 30 14 0 0
1.0656 -3.3363 -15.1972 -0.181 0.333 0.925 83 25 11 0 0
1.0562 -3.3463 -15.2280 -0.264 0.374 0.889 83 25 11 0 0
2.0526 -2.5119 -14.1540 -0.354 -0.360 0.863 77 15 2 0 0
2.1406 -2.5590 -15.0549 -0.478 -0.877 -0.048 61 11 7 0 0
1.8586 -2.7765 -15.2897 0.331 0.331 0.884 46 10 5 0 0
0.9961 -3.3489 -15.2220 -0.821 -0.458 0.341 81 24 12 0 0
1.0196 -3.3414 -15.2918 -0.358 -0.858 0.368 82 24 11 0 0
0.9024 -3.4740 -15.7474 -0.835 -0.521 0.177 65 35 33 0 0
0.9026 -3.4790 -15.7909 -0.664 -0.746 0.051 64 35 32 0 0
3.1395 -1.7075 -13.8629 -0.048 -0.838 0.544 111 54 38 0 0
2.2967 -2.2725 -13.8335 -0.562 -0.760 0.326 126 44 23 0 0
1.9050 -2.7155 -15.3641 0.110 0.569 0.815 36 9 5 0 0
1.0923 -3.2680 -15.4015 -0.070 -0.119 0.990 79 23 12 0 0
0.8784 -3.4571 -15.7856 -0.664 -0.746 0.051 68 33 31 0 0
2.3210 -2.2237 -13.8767 0.202 -0.921 0.333 124 43 22 0 0
0.9897 -3.2885 -15.3028 0.324 -0.861 0.392 75 22 12 0 0
0.9076 -3.3424 -15.2890 0.066 -0.849 0.524 77 24 11 0 0
2.8829 -1.7987 -13.8160 -0.284 -0.743 0.606 124 65 46 0 0
2.0439 -2.4297 -14.3642 -0.419 -0.381 0.824 100 34 16 0 0
2.1360 -2.4970 -15.4966 -0.551 -0.225 0.803 48 15 9 0 0
2.0347 -2.5625 -15.4695 -0.212 -0.452 0.867 32 7 4 0 0
0.8868 -3.4700 -16.6049 -0.833 -0.544 0.102 136 134 130 0 0
2.8562 -1.7778 -13.8097 -0.272 -0.876 0.399 131 72 50 0 0
2.0363 -2.3941 -14.3369 -0.650 -0.566 0.507 82 19 4 0 0
2.1172 -2.4707 -15.4986 -0.561 -0.304 0.770 40 11 6 0 0
1.9960 -2.5523 -15.4918 -0.478 -0.199 0.855 40 13 9 0 0
1.9622 -2.5758 -15.4967 0.070 0.351 0.934 29 7 3 0 0
1.4604 -2.8856 -15.2249 -0.471 0.297 0.831 83 25 9 0 0
0.9101 -3.3108 -15.6812 -0.959 -0.200 0.199 90 42 30 0 0
0.8911 -3.4268 -16.5913 -0.413 -0.587 0.696 127 123 120 0 0
0.8691 -3.4437 -16.6085 -0.833 -0.544 0.102 140 139 135 0 0
2.8222 -1.7612 -13.7964 -0.272 -0.876 0.399 140 80 56 0 0
1.9621 -2.5394 -15.5197 -0.353 0.424 0.834 32 10 7 0 0
0.8742 -3.4001 -16.5958 -0.862 -0.456 0.219 130 127 125 0 0
0.8562 -3.4148 -16.6181 -0.856 -0.515 -0.034 143 142 140 0 0
2.3320 -2.0628 -13.8483 -0.446 -0.612 0.653 127 45 23 0 0
1.9336 -2.5187 -15.5106 -0.399 -0.369 0.839 26 7 5 0 0
2.7335 -1.7443 -13.7891 -0.015 0.064 0.998 113 60 45 0 0
1.9146 -2.4881 -15.4695 -0.378 -0.907 0.184 23 5 3 0 0
0.8854 -3.3071 -16.5261 -0.292 -0.082 0.953 112 107 103 0 0
0.8726 -3.3191 -16.5552 -0.502 -0.156 0.850 119 115 111 0 0
2.3894 -1.9372 -13.7491 -0.452 -0.344 0.823 125 52 26 0 0
2.0302 -2.3865 -15.6227 -0.562 -0.664 0.492 22 4 2 0 0
0.8865 -3.2706 -16.5539 -0.742 -0.028 0.670 117 113 110 0 0
0.8854 -3.2761 -16.5984 -0.592 -0.139 0.794 126 121 118 0 0
2.6861 -1.6994 -13.7820 -0.066 -0.312 0.948 121 66 52 0 0
1.9153 -2.2180 -13.6870 0.052 0.216 0.975 124 42 19 0 0
2.0061 -2.3632 -15.6188 -0.562 -0.664 0.492 23 5 3 0 0
1.1723 -2.9472 -15.7315 -0.958 0.287 0.012 56 15 9 0 0
0.8639 -3.2468 -16.5511 -0.298 -0.278 0.913 122 118 117 0 0
0.8599 -3.2539 -16.5918 -0.378 -0.381 0.843 133 127 127 0 0
0.8335 -3.2831 -16.6956 -0.978 -0.168 0.122 156 155 156 0 0
2.7658 -1.6081 -13.7989 -0.102 -0.775 0.624 150 68 34 0 0
2.7100 -1.6491 -13.8238 -0.589 -0.699 0.405 130 73 57 0 0
1.9245 -2.3816 -15.6364 -0.597 -0.595 0.538 19 4 1 0 0
1.7904 -2.4714 -15.6135 -0.936 0.121 0.329 15 3 2 0 0
1.7103 -2.5258 -15.6082 -0.215 0.683 0.698 12 3 2 0 0
1.1836 -2.9004 -15.7257 -0.969 0.248 -0.018 53 14 9 0 0
2.2804 -1.9017 -13.7779 -0.421 -0.650 0.632 163 101 72 0 0
2.2625 -1.9163 -13.7991 -0.531 -0.640 0.555 133 71 50 0 0
2.2619 -1.8728 -13.7402 -0.118 -0.565 0.817 126 59 25 0 0
2.2384 -1.8906 -13.7560 -0.118 -0.565 0.817 128 64 33 0 0
1.7713 -2.2413 -14.0272 -0.118 -0.616 0.779 104 37 18 0 0
1.6684 -2.4853 -15.6939 -0.493 0.768 0.410 9 2 2 0 0
2.2458 -1.8464 -13.7437 -0.208 -0.308 0.928 135 67 28 0 0
1.0287 -2.9716 -16.5028 -0.694 0.374 0.615 102 100 101 0 0
0.9883 -2.9989 -16.4969 -0.758 0.065 0.649 106 104 104 0 0
0.5351 -3.3366 -16.7319 -0.047 -0.728 0.684 192 193 195 0 0
1.6253 -2.3292 -14.6356 -0.519 -0.842 0.150 55 9 0 0 0
1.6152 -2.3392 -14.6655 -0.371 -0.861 0.348 64 16 3 0 0
1.7991 -2.3229 -15.7619 -0.514 -0.857 0.026 11 2 2 0 0
1.0870 -2.9020 -16.6038 -0.116 0.174 0.978 107 105 106 0 0
0.9788 -2.9676 -16.5111 -0.758 0.065 0.649 110 108 109 0 0
0.5015 -3.3191 -16.7141 -0.016 -0.700 0.714 193 193 195 0 0
0.4625 -3.3502 -16.7545 -0.146 -0.417 0.897 197 197 199 0 0
2.9818 -1.2555 -13.7065 0.025 -0.044 0.999 113 64 59 0 0
1.6225 -2.2544 -14.2498 -0.527 -0.794 0.303 73 11 0 0 0
1.7070 -2.3477 -15.7668 -0.052 -0.725 0.687 5 1 2 0 0
1.7119 -2.3493 -15.8165 -0.453 -0.783 0.426 5 1 2 0 0
1.2208 -2.6893 -15.8052 -0.275 -0.783 0.558 28 17 15 0 0
1.0002 -2.9234 -16.6111 -0.403 0.124 0.907 117 115 116 0 0
0.7937 -3.0863 -16.8059 -0.085 0.283 0.955 172 171 172 0 0
0.7364 -3.1279 -16.8232 -0.733 -0.363 0.576 180 180 182 0 0
0.7196 -3.1420 -16.8477 -0.952 -0.279 0.126 184 184 186 0 0
1.5826 -2.2463 -14.2681 -0.852 -0.492 0.181 84 21 7 0 0
1.6327 -2.3579 -15.7481 0.350 -0.670 0.654 3 1 2 0 0
1.5793 -2.3976 -15.7733 0.337 -0.193 0.922 5 3 4 0 0
1.1906 -2.6702 -15.7933 -0.275 -0.783 0.558 26 17 17 0 0
1.2731 -2.6988 -16.6629 -0.185 -0.746 0.639 111 111 113 0 0
1.1677 -2.7727 -16.6678 0.147 0.025 0.989 111 109 111 0 0
0.7598 -3.0780 -16.8819 -0.204 0.219 0.954 181 181 183 0 0
1.6527 -2.1072 -13.7321 -0.362 -0.822 -0.440 130 49 25 0 0
1.6316 -2.3171 -15.7270 -0.141 -0.878 0.457 4 2 3 0 0
1.6087 -2.3347 -15.7441 0.093 -0.616 0.782 4 2 3 0 0
1.5899 -2.3543 -15.8100 0.157 -0.748 0.645 6 4 5 0 0
1.5656 -2.3728 -15.8254 0.280 -0.733 0.620 6 4 5 0 0
1.2876 -2.6394 -16.5688 -0.044 -0.592 0.805 105 105 107 0 0
1.2488 -2.6753 -16.6585 -0.440 -0.163 0.883 112 110 113 0 0
2.5082 -1.4731 -13.7445 -0.531 -0.264 0.805 148 72 37 0 0
2.4850 -1.4909 -13.7612 -0.526 -0.469 0.710 148 87 59 0 0
1.6245 -2.0888 -13.7230 -0.166 -0.941 -0.296 128 47 23 0 0
1.6522 -2.2424 -15.5131 -0.680 -0.707 -0.195 8 1 3 0 0
1.0568 -2.6833 -15.7677 -0.286 -0.631 0.721 26 19 18 0 0
1.0462 -2.6937 -15.7987 -0.354 -0.591 0.725 29 21 19 0 0
1.3338 -2.5485 -16.3774 -0.899 -0.297 -0.323 76 74 77 0 0
1.3351 -2.5655 -16.5625 -0.505 -0.149 0.850 96 96 98 0 0
1.0890 -2.7476 -16.6667 0.159 -0.037 0.987 114 112 113 0 0
1.0007 -2.8118 -16.6921 -0.158 -0.759 0.631 124 122 125 0 0
1.0921 -2.7639 -16.8576 0.084 0.042 0.996 129 127 129 0 0
2.0420 -1.7641 -13.7755 -0.399 -0.477 0.783 136 71 51 0 0
2.0233 -1.7791 -13.7958 -0.575 -0.419 0.702 117 43 23 0 0
1.5736 -2.2516 -15.4463 -0.271 -0.959 0.081 13 4 4 0 0
1.4685 -2.3385 -15.5842 -0.486 -0.016 0.874 7 5 6 0 0
1.4355 -2.3621 -15.5891 -0.471 0.028 0.881 8 6 7 0 0
1.0122 -2.6770 -15.7818 -0.246 -0.611 0.753 22 16 15 0 0
0.9739 -2.7036 -15.7788 -0.406 -0.068 0.911 33 27 26 0 0
1.1068 -2.6431 -16.1211 -0.825 -0.309 -0.474 73 71 75 0 0
1.2191 -2.6127 -16.6275 -0.396 0.114 0.911 108 108 110 0 0
1.2044 -2.6257 -16.6553 -0.800 0.252 0.544 109 107 110 0 0
1.0485 -2.7424 -16.7344 -0.999 0.003 -0.047 121 119 120 0 0
2.9026 -1.1173 -13.7269 -0.285 -0.476 0.832 112 62 51 0 0
1.5756 -2.0513 -13.7512 -0.235 -0.956 -0.175 126 45 20 0 0
1.4796 -2.1762 -14.3623 -0.545 -0.402 0.736 100 29 6 0 0
1.5231 -2.2446 -15.4115 0.092 -0.976 0.197 18 6 6 0 0
0.9896 -2.6537 -15.7789 -0.354 -0.472 0.807 14 9 9 0 0
0.9578 -2.6765 -15.7838 -0.479 -0.154 0.864 23 19 19 0 0
1.1986 -2.5826 -16.5817 -0.241 0.214 0.947 104 104 106 0 0
1.1896 -2.5966 -16.6630 -0.750 0.394 0.531 108 106 109 0 0
1.0528 -2.7024 -16.7670 -0.990 0.142 0.013 122 120 121 0 0
2.8935 -1.0855 -13.7374 -0.147 -0.211 0.966 113 61 50 0 0
1.2501 -2.4142 -15.5923 -0.262 0.168 0.950 22 17 17 0 0
1.2168 -2.4380 -15.5963 -0.302 0.015 0.953 25 19 19 0 0
1.1830 -2.4620 -15.5995 -0.188 0.072 0.980 25 19 19 0 0
1.2432 -2.5144 -16.6184 -0.001 0.537 0.844 98 98 98 0 0
1.0296 -2.6783 -16.7640 -0.969 0.136 0.208 122 120 121 0 0
2.8883 -1.0511 -13.7515 -0.102 -0.002 0.995 114 62 50 0 0
1.9658 -1.7057 -13.7972 -0.702 -0.368 0.610 120 48 29 0 0
1.8570 -1.7903 -13.8833 -0.809 -0.219 0.545 134 52 28 0 0
1.3923 -2.1571 -14.3102 -0.428 -0.851 0.305 96 29 6 0 0
1.1926 -2.4155 -15.5915 0.011 -0.298 0.954 26 20 20 0 0
1.1440 -2.4485 -15.5769 0.235 -0.567 0.789 27 21 21 0 0
1.2425 -2.4769 -16.6441 0.036 0.504 0.863 94 94 94 0 0
1.1062 -2.5699 -16.6099 -0.521 -0.458 0.720 100 100 102 0 0
1.0178 -2.6517 -16.8228 -0.696 -0.098 0.711 127 125 128 0 0
2.8587 -1.0319 -13.7427 -0.102 -0.125 0.987 113 61 50 0 0
2.5423 -1.2602 -13.7953 -0.122 -0.682 0.721 121 56 37 0 0
1.8500 -1.7584 -13.8962 -0.622 -0.198 0.758 131 49 25 0 0
1.5193 -1.9791 -13.7528 -0.981 -0.169 0.096 133 51 27 0 0
1.4619 -2.0178 -13.7324 -0.981 0.192 0.036 132 52 27 0 0
1.2163 -2.3605 -15.6004 -0.076 -0.063 0.995 22 18 17 0 0
1.1665 -2.3942 -15.5846 0.011 -0.298 0.954 24 18 18 0 0
1.2433 -2.4384 -16.6718 0.144 0.597 0.789 91 91 91 0 0
1.0184 -2.5881 -16.5703 -0.688 -0.448 0.570 99 99 101 0 0
2.8415 -1.0049 -13.7456 0.008 -0.122 0.992 113 61 51 0 0
2.5105 -1.2426 -13.7841 -0.122 -0.682 0.721 124 57 38 0 0
1.2713 -2.2326 -15.0440 -0.504 -0.808 0.304 83 33 13 0 0
1.0235 -2.4587 -15.6114 -0.071 -0.097 0.993 29 23 22 0 0
0.8894 -2.5508 -15.5793 -0.052 -0.109 0.993 32 28 26 0 0
1.2385 -2.4031 -16.6924 0.183 0.505 0.843 88 87 86 0 0
1.0826 -2.5207 -16.7734 -0.603 0.594 0.532 103 102 102 0 0
2.8186 -0.9815 -13.7431 0.035 -0.105 0.994 114 62 51 0 0
2.7228 -1.0449 -13.6921 -0.516 -0.326 0.792 113 60 52 0 0
2.4791 -1.2250 -13.7730 -0.208 -0.684 0.699 123 57 38 0 0
2.2650 -1.3758 -13.7611 -0.664 0.134 0.735 130 72 53 0 0
1.2627 -2.1215 -14.1530 -0.163 -0.532 0.831 97 29 11 0 0
1.2769 -2.1740 -14.8631 -0.576 -0.803 0.150 63 25 14 0 0
1.4739 -2.1111 -15.7352 -0.624 -0.413 0.663 8 6 7 0 0
1.2818 -2.2389 -15.6394 -0.029 -0.708 0.705 16 12 13 0 0
2.7015 -1.0207 -13.6910 -0.482 -0.376 0.791 115 61 53 0 0
1.2623 -2.0965 -14.2941 -0.638 -0.760 0.123 91 24 6 0 0
2.6816 -0.9957 -13.6913 -0.482 -0.376 0.791 114 60 52 0 0
2.4485 -1.1662 -13.7430 -0.317 -0.524 0.791 118 49 31 0 0
2.2216 -1.3291 -13.7574 -0.419 0.081 0.904 129 70 52 0 0
1.1865 -2.1004 -14.1524 -0.200 -0.622 0.757 91 24 7 0 0
1.2312 -2.1615 -15.2374 -0.517 -0.821 0.244 32 8 6 0 0
1.2241 -2.1881 -15.4881 -0.420 0.055 0.906 6 4 5 0 0
2.6566 -0.9738 -13.6867 -0.259 -0.506 0.823 114 60 48 0 0
2.4083 -1.1542 -13.7235 -0.207 0.023 0.978 121 51 30 0 0
2.3879 -1.1704 -13.7430 -0.449 -0.206 0.870 122 56 32 0 0
1.8511 -1.5519 -13.7221 -0.224 -0.317 0.922 150 78 42 0 0
1.8252 -1.5715 -13.7351 -0.224 -0.317 0.922 148 84 56 0 0
1.2272 -2.0494 -14.3389 -0.557 -0.687 0.466 97 28 8 0 0
1.2052 -2.0666 -14.3552 -0.714 -0.560 0.420 97 32 10 0 0
0.7010 -2.5408 -15.7091 -0.316 -0.773 0.551 23 20 21 0 0
2.6400 -0.9467 -13.6900 -0.463 -0.424 0.779 114 60 49 0 0
2.3487 -1.1612 -13.7636 -0.145 0.005 0.989 120 56 36 0 0
1.7624 -1.5811 -13.7697 -0.731 -0.476 0.488 119 43 23 0 0
1.2010 -2.0296 -14.3316 -0.188 -0.907 0.378 94 28 9 0 0
1.1959 -2.0362 -14.3665 -0.844 -0.317 0.433 100 35 13 0 0
1.1369 -2.0831 -14.4232 -0.615 -0.278 0.738 98 47 24 0 0
1.1308 -2.0903 -14.4572 -0.745 -0.522 0.415 90 37 15 0 0
1.2916 -2.0644 -15.5288 -0.747 -0.529 0.402 3 0 1 0 0
1.1327 -2.1916 -15.6904 0.276 -0.135 0.952 7 6 6 0 0
0.5119 -2.7294 -16.8155 -0.598 -0.649 -0.471 176 177 179 0 0
1.1119 -2.0393 -14.1345 -0.487 -0.333 0.808 109 38 14 0 0
1.0763 -2.0649 -14.1355 -0.463 -0.565 0.683 95 26 8 0 0
1.1395 -2.0319 -14.2853 -0.168 -0.953 0.251 87 24 6 0 0
1.1582 -2.0235 -14.3464 -0.590 -0.770 0.245 100 34 13 0 0
1.2164 -2.0805 -15.5514 -0.709 0.290 0.642 2 1 1 0 0
1.2027 -2.0962 -15.6229 -0.510 0.120 0.851 3 3 3 0 0
1.0778 -2.1879 -15.6486 -0.281 0.373 0.884 6 6 6 0 0
1.0502 -2.2086 -15.6593 -0.305 -0.571 0.762 6 6 7 0 0
0.9573 -2.2768 -15.6784 -0.187 0.071 0.980 9 7 10 0 0
0.7389 -2.5112 -16.6287 -0.784 -0.606 -0.132 107 107 109 0 0
1.0882 -2.0150 -14.0897 -0.365 -0.788 0.496 106 28 4 0 0
1.0848 -2.0204 -14.1259 -0.448 -0.607 0.656 109 34 10 0 0
1.0523 -2.0441 -14.1304 -0.295 -0.452 0.842 105 32 11 0 0
1.1335 -2.0028 -14.3407 -0.590 -0.770 0.245 99 34 13 0 0
1.0249 -2.1868 -15.6532 -0.305 -0.571 0.762 7 6 7 0 0
0.9949 -2.2090 -15.6608 -0.144 -0.187 0.972 8 7 9 0 0
0.6063 -2.5695 -16.6679 -0.959 0.166 -0.229 131 130 129 0 0
1.1301 -1.9179 -13.7214 -0.542 -0.722 -0.429 139 66 44 0 0
1.0545 -2.0036 -14.1140 -0.407 -0.814 0.414 108 32 7 0 0
1.0702 -2.0161 -14.4141 -0.671 -0.487 0.559 81 25 6 0 0
1.0153 -2.1552 -15.6663 -0.356 -0.199 0.913 9 7 9 0 0
0.9668 -2.1890 -15.6513 -0.341 -0.088 0.936 10 8 11 0 0
1.1063 -1.8974 -13.7164 -0.446 -0.791 -0.419 143 68 43 0 0
1.0027 -2.0035 -14.1184 -0.370 -0.649 0.665 110 39 10 0 0
1.0709 -2.0793 -15.7144 0.011 0.320 0.947 10 8 9 0 0
0.9419 -2.1705 -15.6899 -0.068 0.293 0.954 13 11 14 0 0
1.9164 -1.2708 -13.6710 -0.319 -0.458 0.830 112 44 27 0 0
0.9759 -1.9846 -14.1101 -0.453 -0.666 0.593 109 38 6 0 0
1.0330 -2.0687 -15.7375 -0.374 0.397 0.838 12 10 12 0 0
1.0270 -2.0760 -15.7746 -0.043 0.455 0.889 13 11 14 0 0
0.9773 -2.1106 -15.7583 -0.086 0.515 0.853 15 13 16 0 0
0.9136 -2.1540 -15.7245 0.009 0.513 0.858 17 15 18 0 0
0.6712 -2.3232 -15.6456 -0.238 0.052 0.970 26 24 29 0 0
1.9195 -1.2317 -13.6938 -0.029 -0.425 0.905 112 43 26 0 0
1.6687 -1.4150 -13.7154 -0.170 -0.240 0.956 182 119 80 0 0
1.6275 -1.4476 -13.7519 -0.368 -0.536 0.760 132 64 39 0 0
1.4280 -1.5944 -13.7818 -0.347 -0.306 0.886 131 47 21 0 0
1.3762 -1.6309 -13.7670 -0.396 -0.541 0.742 129 45 19 0 0
1.0746 -2.0011 -15.7687 -0.527 0.430 0.733 11 9 14 0 0
1.0444 -2.0236 -15.7764 -0.357 0.519 0.777 14 12 17 0 0
0.6193 -2.3220 -15.6499 -0.193 -0.213 0.958 28 26 30 0 0
0.3694 -2.5575 -16.3678 -0.846 -0.500 0.183 106 106 102 0 0
1.5919 -1.4340 -13.7354 -0.415 -0.417 0.808 128 54 34 0 0
1.4246 -1.5572 -13.7592 -0.466 -0.646 0.605 132 50 26 0 0
1.3952 -1.5792 -13.7678 -0.584 -0.152 0.798 132 48 22 0 0
1.3747 -1.5954 -13.7858 -0.584 -0.152 0.798 129 45 19 0 0
0.1946 -2.6466 -16.3918 -0.311 0.554 0.773 146 146 146 0 0
0.2192 -2.6005 -16.5463 -0.742 -0.137 0.656 155 155 157 0 0
1.2430 -1.6111 -13.7276 -0.252 -0.728 0.638 130 46 20 0 0
0.8415 -1.9297 -14.0867 -0.576 -0.438 0.690 114 36 7 0 0
0.8648 -1.9380 -14.4375 -0.487 -0.843 0.229 126 73 37 0 0
1.0201 -1.9182 -15.7326 -0.578 -0.166 0.799 8 6 7 0 0
0.9732 -1.9579 -15.8091 0.156 -0.007 0.988 15 13 14 0 0
1.5052 -1.3830 -13.7458 -0.456 -0.398 0.796 128 51 33 0 0
1.0000 -1.7618 -13.8832 -0.341 -0.807 -0.483 143 74 53 0 0
0.9496 -1.7586 -13.8493 -0.357 -0.782 -0.511 156 89 73 0 0
0.8166 -1.8707 -14.0618 -0.721 -0.080 0.688 131 57 30 0 0
0.7833 -1.9556 -14.9310 -0.237 -0.943 0.234 85 44 31 0 0
0.3216 -2.3447 -15.6654 -0.422 -0.557 0.715 34 33 32 0 0
0.3030 -2.3723 -15.8652 0.417 -0.857 0.303 32 27 27 0 0
1.7104 -1.1512 -13.6810 -0.406 -0.203 0.891 128 57 35 0 0
0.7856 -1.8603 -14.1291 -0.682 -0.408 0.607 112 33 4 0 0
0.2030 -2.4054 -15.8508 -0.871 -0.333 0.360 38 33 30 0 0
0.7788 -1.8230 -14.0626 -0.745 -0.384 0.545 129 56 33 0 0
0.7806 -1.8272 -14.1451 -0.528 0.016 0.849 116 36 5 0 0
0.7332 -1.9140 -14.9186 -0.799 -0.580 0.160 61 20 12 0 0
0.7709 -1.9182 -15.3952 0.078 -0.826 0.559 2 1 1 0 0
0.5010 -2.1326 -15.6337 -0.289 0.052 0.956 10 10 12 0 0
0.8864 -1.6811 -13.6856 0.234 0.496 0.837 136 56 27 0 0
0.1826 -2.3379 -15.7863 -0.733 -0.564 0.381 29 25 24 0 0
0.1744 -2.3462 -15.8207 -0.734 -0.573 0.365 32 28 27 0 0
0.1647 -2.3554 -15.8530 -0.956 -0.278 0.096 36 32 31 0 0
0.0610 -2.4804 -16.5914 -0.210 -0.928 -0.308 155 156 155 0 0
1.4457 -1.2319 -13.7065 -0.231 -0.181 0.956 167 107 87 0 0
1.3472 -1.3057 -13.7225 -0.600 -0.379 0.705 132 53 27 0 0
0.1617 -2.3170 -15.8302 -0.917 -0.331 0.223 34 30 29 0 0
1.6163 -1.0646 -13.6652 -0.459 -0.637 0.620 131 58 37 0 0
1.3280 -1.2815 -13.7228 -0.464 0.121 0.878 136 57 30 0 0
1.1712 -1.4021 -13.7949 -0.325 -0.306 0.895 134 50 24 0 0
0.8011 -1.6682 -13.6740 -0.133 0.204 0.970 132 54 29 0 0
0.2047 -2.2370 -15.6878 -0.456 -0.484 0.747 14 14 16 0 0
0.0278 -2.4257 -16.6020 -0.399 -0.906 -0.141 153 153 153 0 0
1.6088 -1.0297 -13.6382 -0.428 -0.722 0.544 111 46 29 0 0
0.7487 -1.6697 -13.6769 0.171 0.186 0.967 140 64 41 0 0
0.6649 -1.8529 -15.6292 -0.350 -0.092 0.932 8 6 7 0 0
-0.0039 -2.4052 -16.5389 -0.285 -0.938 0.200 147 145 146 0 0
-0.5041 -2.7939 -16.8266 -0.716 -0.693 -0.081 198 198 200 0 0
0.7186 -1.6828 -14.1436 -0.419 -0.341 0.841 120 47 22 0 0
0.6265 -1.8321 -15.4734 -0.779 -0.612 0.133 4 4 3 0 0
0.6453 -1.8277 -15.6299 0.199 -0.522 0.829 9 7 8 0 0
0.1272 -2.2158 -15.6836 -0.287 -0.389 0.875 21 19 22 0 0
1.3165 -1.1799 -13.8118 -0.717 -0.655 0.239 131 48 24 0 0
0.6106 -1.7240 -14.1242 -0.447 -0.659 0.605 136 60 29 0 0
0.5888 -1.7656 -14.5510 -0.632 -0.746 0.212 96 47 33 0 0
0.5646 -1.7844 -14.5642 -0.509 -0.835 0.209 94 46 34 0 0
0.6534 -1.6463 -13.9926 -0.030 -0.733 0.680 124 46 24 0 0
0.5092 -1.7608 -14.1117 -0.681 -0.440 0.585 113 41 13 0 0
0.6275 -1.7345 -15.1735 -0.391 -0.882 0.263 63 17 11 0 0
0.5494 -1.8179 -15.6052 -0.564 -0.772 0.295 10 10 9 0 0
0.5399 -1.8268 -15.6379 -0.836 -0.490 0.245 11 11 10 0 0
0.5272 -1.8406 -15.7115 -0.602 0.199 0.773 15 15 14 0 0
1.8977 -0.6680 -13.8128 -0.849 -0.322 0.418 129 62 40 0 0
1.5080 -0.9526 -13.6945 -0.212 0.035 0.977 125 57 37 0 0
1.2675 -1.1361 -13.7616 -0.236 -0.393 0.888 139 68 46 0 0
1.2481 -1.1540 -13.8208 -0.202 -0.784 0.587 130 45 22 0 0
0.6896 -1.5802 -13.9742 -0.274 0.130 0.953 150 81 61 0 0
1.2078 -1.1420 -13.7590 -0.308 -0.189 0.932 117 41 19 0 0
1.2045 -1.1487 -13.8351 -0.258 -0.672 0.694 128 45 21 0 0
0.4821 -1.7265 -14.4944 -0.567 -0.791 0.231 113 59 36 0 0
0.4378 -1.8291 -15.7393 0.263 -0.297 0.918 15 13 16 0 0
0.3678 -1.8791 -15.6947 0.318 -0.199 0.927 17 15 18 0 0
0.2454 -1.9695 -15.6719 0.222 -0.189 0.957 23 21 24 0 0
1.1801 -1.1236 -13.7503 -0.136 -0.258 0.957 113 38 17 0 0
0.9199 -1.3168 -13.7106 -0.622 -0.194 0.759 121 40 19 0 0
0.8839 -1.3460 -13.7510 -0.560 -0.270 0.783 120 39 18 0 0
0.4328 -1.7531 -15.0090 -0.878 -0.444 0.181 93 37 18 0 0
0.4280 -1.7588 -15.0462 -0.878 -0.444 0.181 84 30 15 0 0
0.4391 -1.7535 -15.1031 -0.818 -0.566 0.105 77 24 12 0 0
0.4043 -1.8109 -15.6773 0.239 -0.717 0.655 13 11 14 0 0
-0.0085 -2.1185 -15.6361 -0.379 -0.438 0.815 74 74 76 0 0
-0.0367 -2.1425 -15.6887 -0.585 -0.647 0.488 29 29 29 0 0
0.0967 -2.1005 -16.7553 -0.342 -0.271 0.900 118 116 117 0 0
-0.0371 -2.1933 -16.6162 0.134 -0.552 0.823 128 126 127 0 0
0.9018 -1.2922 -13.7119 -0.645 -0.329 0.690 125 44 19 0 0
0.8854 -1.3058 -13.7338 -0.645 -0.329 0.690 121 40 18 0 0
0.8246 -1.3564 -13.8268 -0.659 -0.613 0.436 141 58 33 0 0
0.8206 -1.3613 -13.8624 -0.317 -0.884 0.343 149 75 52 0 0
0.8092 -1.3714 -13.8899 0.041 -0.912 0.409 153 92 75 0 0
0.7894 -1.3873 -13.9082 0.174 -0.803 0.569 186 135 124 0 0
0.4347 -1.6958 -14.6940 -0.410 -0.912 0.016 96 58 38 0 0
0.1653 -1.9477 -15.6201 0.013 0.083 0.996 15 13 16 0 0
-0.0268 -2.0931 -15.6382 -0.196 -0.638 0.745 64 62 65 0 0
-0.0574 -2.1188 -15.6876 -0.590 -0.705 0.394 30 28 31 0 0
-0.0853 -2.1402 -15.6957 -0.924 -0.354 0.145 35 33 34 0 0
1.7360 -0.6262 -13.7301 -0.073 -0.151 0.986 127 61 41 0 0
0.5020 -1.5708 -14.0107 -0.780 -0.085 0.620 118 68 40 0 0
-0.0786 -2.0954 -15.6859 -0.426 -0.737 0.524 23 21 24 0 0
-0.0925 -2.1072 -15.7125 -0.398 -0.670 0.626 30 28 30 0 0
-0.0990 -2.1141 -15.7491 0.048 -0.601 0.798 31 29 30 0 0
0.8271 -1.2762 -13.7919 -0.444 -0.483 0.755 157 83 51 0 0
0.4694 -1.5586 -14.0358 -0.597 -0.408 0.691 154 98 64 0 0
0.4401 -1.5956 -14.3290 -0.949 -0.188 0.255 90 28 12 0 0
-0.1046 -2.0753 -15.6777 -0.395 -0.499 0.772 18 16 19 0 0
-0.1237 -2.0907 -15.6974 -0.395 -0.499 0.772 28 26 27 0 0
1.5447 -0.6879 -13.6553 0.060 -0.222 0.973 142 69 40 0 0
0.8127 -1.2489 -13.7973 -0.128 -0.484 0.866 146 97 73 0 0
0.3567 -1.6604 -15.1429 -0.532 -0.761 0.371 61 35 30 0 0
0.3297 -1.6966 -15.4613 -0.373 -0.745 0.554 3 3 5 0 0
0.3288 -1.7038 -15.5942 -0.860 -0.270 0.433 5 5 7 0 0
0.3157 -1.7152 -15.6223 -0.888 -0.134 0.440 5 5 7 0 0
0.2742 -1.7484 -15.6590 -0.433 -0.031 0.901 7 7 9 0 0
0.2455 -1.7704 -15.6671 -0.015 -0.235 0.972 7 7 9 0 0
0.1186 -1.8673 -15.6825 0.041 -0.160 0.986 8 8 10 0 0
-0.1269 -2.0527 -15.6745 -0.395 -0.499 0.772 14 12 15 0 0
-0.1460 -2.0681 -15.6942 -0.395 -0.499 0.772 39 37 38 0 0
-0.4980 -2.3864 -16.7462 0.093 -0.996 0.015 186 187 189 0 0
0.4456 -1.4934 -13.8911 -0.923 -0.289 0.254 139 64 31 0 0
0.3334 -1.6385 -15.1386 -0.565 -0.731 0.382 14 8 10 0 0
0.2374 -1.7352 -15.6376 -0.132 -0.345 0.929 9 9 11 0 0
-0.1063 -1.9960 -15.6381 -0.436 -0.179 0.882 12 10 13 0 0
-0.1492 -2.0301 -15.6713 -0.395 -0.499 0.772 21 19 22 0 0
-0.1727 -2.0486 -15.6851 -0.057 -0.512 0.857 43 39 41 0 0
2.1021 -0.1893 -13.7373 0.066 -0.328 0.942 119 59 45 0 0
1.4654 -0.6674 -13.6146 -0.349 -0.787 0.508 130 60 35 0 0
1.4502 -0.6801 -13.6387 -0.384 -0.762 0.521 143 70 40 0 0
1.4245 -0.7003 -13.6519 -0.395 -0.703 0.591 150 86 63 0 0
1.3965 -0.7221 -13.6627 -0.200 -0.437 0.877 135 78 59 0 0
0.2728 -1.6346 -14.9150 -0.485 -0.872 0.069 43 32 38 0 0
0.2993 -1.6406 -15.4737 -0.673 -0.613 0.415 4 4 6 0 0
-0.1715 -2.0075 -15.6680 -0.395 -0.499 0.772 68 66 69 0 0
2.0363 -0.1951 -13.6522 -0.037 -0.494 0.869 126 69 57 0 0
2.0511 -0.1863 -13.7069 -0.161 -0.261 0.952 119 58 44 0 0
2.0145 -0.2143 -13.7106 -0.346 0.206 0.915 120 59 45 0 0
1.3516 -0.7176 -13.6763 -0.163 0.083 0.983 120 63 46 0 0
0.1504 -1.7006 -15.1777 -0.601 0.051 0.798 7 7 7 0 0
-0.1196 -1.9268 -15.6281 -0.552 -0.047 0.832 15 14 17 0 0
-0.1475 -1.9484 -15.6362 -0.281 -0.321 0.905 19 17 20 0 0
1.9661 -0.2061 -13.6028 0.085 -0.406 0.910 124 66 54 0 0
1.9998 -0.1854 -13.7161 -0.184 -0.040 0.982 120 58 45 0 0
1.4087 -0.6347 -13.6763 -0.382 -0.220 0.897 183 116 85 0 0
0.2430 -1.5776 -14.8839 -0.136 -0.983 -0.126 46 35 39 0 0
-0.1687 -1.9250 -15.6345 -0.281 -0.321 0.905 25 25 27 0 0
1.9150 -0.2036 -13.5721 -0.454 -0.130 0.881 118 59 48 0 0
1.9818 -0.1588 -13.7183 -0.184 -0.040 0.982 119 57 44 0 0
0.4506 -1.3446 -14.0651 -0.905 0.418 -0.082 149 79 61 0 0
0.2465 -1.5596 -15.4386 -0.801 0.085 0.592 4 4 4 0 0
1.4565 -0.5179 -13.6469 -0.131 -0.205 0.970 135 64 37 0 0
1.4194 -0.5464 -13.6485 -0.356 -0.248 0.901 133 72 49 0 0
1.3952 -0.5655 -13.6634 -0.356 -0.248 0.901 149 90 61 0 0
0.4286 -1.3127 -13.8194 -0.303 -0.386 0.872 135 53 27 0 0
-0.3950 -2.0221 -15.6998 -0.510 -0.083 0.856 37 36 36 0 0
-0.5485 -2.1815 -16.7054 0.254 0.378 0.890 173 173 173 0 0
2.0939 0.0103 -13.6688 0.073 0.315 0.946 126 102 98 0 0
1.8608 -0.1674 -13.6379 -0.047 -0.324 0.945 117 54 42 0 0
1.3713 -0.5442 -13.6590 -0.288 -0.092 0.953 123 71 47 0 0
0.4648 -1.2459 -13.8014 -0.575 -0.021 0.818 135 51 26 0 0
-0.3691 -1.9616 -15.6712 -0.296 -0.455 0.840 41 41 45 0 0
1.8394 -0.1435 -13.6366 0.016 -0.073 0.997 115 53 42 0 0
1.3157 -0.5475 -13.6617 -0.154 -0.292 0.944 114 55 35 0 0
0.4404 -1.2246 -13.7554 -0.419 -0.139 0.897 129 45 21 0 0
0.4495 -1.2196 -13.8057 -0.605 -0.388 0.695 132 48 24 0 0
0.4331 -1.2330 -13.8275 -0.605 -0.388 0.695 126 44 20 0 0
0.0211 -1.5696 -14.3279 0.302 -0.099 0.948 124 63 39 0 0
-0.0224 -1.6026 -14.3168 -0.045 -0.959 0.281 113 61 43 0 0
0.0733 -1.5846 -15.7437 -0.153 -0.218 0.964 16 16 18 0 0
1.9726 -0.0063 -13.7902 -0.128 0.063 0.990 113 52 42 0 0
0.3337 -1.2679 -13.7369 0.294 -0.474 0.830 130 48 24 0 0
0.2757 -1.3720 -15.3104 -0.978 -0.170 -0.122 14 10 9 0 0
0.0534 -1.5580 -15.6984 -0.090 -0.590 0.802 12 12 14 0 0
0.0331 -1.5744 -15.7173 -0.306 -0.327 0.894 13 13 15 0 0
0.0019 -1.5986 -15.7216 -0.105 -0.366 0.925 14 14 16 0 0
-0.0347 -1.6267 -15.7188 0.046 -0.401 0.915 15 15 17 0 0
2.1107 0.1428 -13.7456 -0.313 0.127 0.941 128 103 101 0 0
2.0774 0.1169 -13.7531 -0.313 0.127 0.941 113 70 64 0 0
2.0377 0.0862 -13.7541 -0.211 0.203 0.956 110 59 52 0 0
1.9993 0.0564 -13.7563 -0.211 0.203 0.956 113 55 48 0 0
1.9954 0.0521 -13.7928 -0.095 0.122 0.988 112 54 44 0 0
0.0224 -1.4815 -14.0456 -0.547 -0.125 0.828 112 40 16 0 0
0.4220 -1.2232 -15.4307 0.414 0.328 0.849 14 10 9 0 0
0.1996 -1.3881 -15.2397 -0.548 0.462 0.697 14 10 9 0 0
0.2334 -1.3651 -15.3267 -0.088 0.493 0.865 12 8 7 0 0
0.2017 -1.3898 -15.3310 -0.012 0.545 0.838 9 6 5 0 0
0.1019 -1.4688 -15.3817 -0.642 -0.700 -0.312 9 7 8 0 0
0.0325 -1.5339 -15.6974 -0.144 -0.720 0.679 9 9 11 0 0
-0.0200 -1.5735 -15.6737 0.099 -0.810 0.578 9 9 11 0 0
0.3281 -1.1943 -13.6937 -0.096 -0.238 0.966 131 46 25 0 0
0.2728 -1.2378 -13.7111 -0.130 -0.308 0.942 131 46 25 0 0
0.2303 -1.3282 -15.3483 0.062 0.379 0.923 11 7 7 0 0
-0.0048 -1.5232 -15.7205 -0.007 -0.727 0.686 8 8 10 0 0
-0.2794 -1.7310 -15.5819 -0.494 0.055 0.868 9 9 11 0 0
-0.3088 -1.7539 -15.5878 -0.187 -0.103 0.977 9 9 11 0 0
-0.4476 -1.8628 -15.6266 -0.281 -0.536 0.796 33 32 33 0 0
-0.5186 -1.9607 -16.8513 -0.155 0.053 0.987 166 164 165 0 0
-0.5623 -1.9940 -16.8358 -0.013 -0.206 0.978 169 167 168 0 0
-0.5852 -2.0123 -16.8510 -0.328 -0.171 0.929 172 170 171 0 0
2.0993 0.2152 -13.7749 0.270 -0.424 0.864 127 104 101 0 0
2.0067 0.1438 -13.7639 0.144 -0.007 0.989 120 66 57 0 0
0.9904 -0.6419 -13.6815 -0.091 -0.590 0.802 131 75 55 0 0
0.2216 -1.2952 -15.3627 -0.086 0.466 0.880 11 7 7 0 0
0.0500 -1.4269 -15.3219 -0.811 -0.496 -0.310 10 8 9 0 0
0.1120 -1.3876 -15.5817 -0.804 -0.195 0.562 2 2 4 0 0
-0.2571 -1.6759 -15.6386 -0.178 0.225 0.958 8 8 10 0 0
-0.2900 -1.7014 -15.6399 -0.171 0.187 0.967 8 8 10 0 0
-0.4223 -1.8425 -16.7773 0.401 -0.653 0.642 148 148 150 0 0
-0.4272 -1.8494 -16.8685 0.383 -0.847 0.370 156 156 156 0 0
-0.6048 -1.9866 -16.8524 -0.698 -0.328 0.637 172 170 171 0 0
2.0735 0.2365 -13.7695 0.037 0.041 0.998 131 107 104 0 0
0.9622 -0.6242 -13.6722 -0.481 -0.434 0.762 115 57 40 0 0
0.2015 -1.2705 -15.3627 0.358 0.030 0.933 11 7 6 0 0
0.0998 -1.3497 -15.3669 -0.135 0.476 0.869 12 8 7 0 0
0.0977 -1.3586 -15.5894 -0.878 -0.129 0.461 3 3 5 0 0
-0.1147 -1.5264 -15.6737 0.226 -0.422 0.878 5 5 7 0 0
-0.1453 -1.5504 -15.6785 0.179 -0.136 0.974 6 6 8 0 0
-0.2212 -1.6091 -15.6681 0.148 -0.000 0.989 7 7 9 0 0
-0.2589 -1.6382 -15.6630 0.190 -0.101 0.977 7 7 9 0 0
-0.3228 -1.6880 -15.6681 0.232 -0.229 0.945 9 7 10 0 0
-0.6446 -1.9773 -16.8729 -0.323 0.026 0.946 175 176 177 0 0
0.9420 -0.6006 -13.6715 -0.481 -0.434 0.762 134 82 55 0 0
0.9212 -0.6173 -13.6894 -0.405 -0.518 0.754 154 100 68 0 0
0.3764 -1.0418 -13.6924 -0.492 -0.863 0.113 131 49 27 0 0
0.3427 -1.0681 -13.6946 -0.201 -0.959 0.198 129 47 25 0 0
-0.0529 -1.4109 -14.8032 -0.667 -0.513 -0.541 112 62 45 0 0
0.1313 -1.2773 -15.1218 -0.349 -0.792 -0.500 40 35 38 0 0
0.0908 -1.3240 -15.6067 -0.553 -0.697 0.456 5 5 7 0 0
-0.5460 -1.8205 -15.6184 -0.655 0.073 0.752 12 9 11 0 0
-0.6601 -1.9487 -16.8803 -0.310 -0.175 0.934 176 177 179 0 0
0.3253 -1.0421 -13.6565 -0.166 -0.865 0.473 131 50 28 0 0
-0.1263 -1.4081 -14.1047 0.260 -0.847 0.463 102 47 35 0 0
-0.0535 -1.3729 -14.8269 -0.515 -0.680 -0.522 114 63 46 0 0
0.2901 -1.1242 -15.4821 -0.820 0.136 0.557 20 18 19 0 0
0.2652 -1.1440 -15.4955 -0.352 0.044 0.935 11 10 9 0 0
0.2150 -1.1827 -15.4764 0.065 0.152 0.986 8 7 5 0 0
0.0620 -1.3016 -15.4597 -0.331 -0.943 -0.028 13 11 12 0 0
0.0669 -1.3020 -15.6019 -0.553 -0.697 0.456 5 5 7 0 0
-0.4659 -1.7308 -16.0349 0.327 -0.945 -0.019 66 64 61 0 0
-0.5978 -1.8583 -16.8557 0.634 -0.577 0.515 165 165 167 0 0
-0.6939 -1.9335 -16.8604 -0.154 -0.928 0.340 177 177 179 0 0
-1.6288 -2.6611 -16.7885 -0.940 -0.194 0.279 202 202 204 0 0
-1.6455 -2.6748 -16.8111 -0.377 0.310 0.873 202 202 204 0 0
0.8991 -0.5553 -13.6675 -0.450 -0.463 0.763 130 58 33 0 0
0.8288 -0.6115 -13.7121 -0.062 -0.308 0.949 153 102 77 0 0
0.3474 -0.9878 -13.7028 0.028 -0.309 0.951 133 54 31 0 0
0.3236 -1.0068 -13.7161 0.051 -0.265 0.963 132 52 29 0 0
0.2631 -1.0545 -13.7280 -0.163 -0.387 0.908 131 51 27 0 0
0.1987 -1.1549 -15.4814 -0.116 0.483 0.868 9 8 7 0 0
-0.4095 -1.6362 -15.6771 0.410 -0.227 0.884 21 20 21 0 0
-0.1580 -1.4698 -16.7390 -0.545 0.461 0.700 102 102 102 0 0
-1.7080 -2.6852 -16.8410 -0.432 0.367 0.824 203 203 205 0 0
0.4550 -0.8644 -13.6842 -0.253 -0.332 0.909 132 54 32 0 0
0.2169 -1.0524 -13.7374 0.078 -0.483 0.872 126 50 27 0 0
-0.1044 -1.3041 -13.7283 0.070 -0.429 0.900 105 39 22 0 0
-0.1258 -1.3212 -13.7436 -0.545 -0.586 0.600 112 45 27 0 0
-0.0349 -1.2972 -15.4762 0.387 -0.736 0.556 7 6 8 0 0
-0.0989 -1.3463 -15.4375 0.095 -0.879 0.467 5 5 7 0 0
-0.4257 -1.6091 -15.6822 0.378 -0.118 0.918 25 24 28 0 0
-0.1019 -1.3857 -16.7996 -0.696 -0.168 0.698 99 99 99 0 0
-0.2641 -1.5106 -16.7149 0.403 0.150 0.903 112 112 110 0 0
0.6301 -0.6874 -13.6584 0.106 0.026 0.994 137 61 34 0 0
0.2172 -1.0133 -13.7192 0.156 -0.463 0.873 115 45 26 0 0
-0.1466 -1.2995 -13.7413 -0.545 -0.586 0.600 103 37 23 0 0
-0.1284 -1.3644 -16.7916 -0.323 0.023 0.946 100 100 101 0 0
-1.6368 -2.5512 -16.8723 -0.957 0.121 0.264 199 199 201 0 0
-1.6679 -2.5769 -16.9218 -0.911 0.247 0.330 202 202 204 0 0
2.1415 0.5348 -13.9195 -0.020 0.109 0.994 209 209 212 0 0
-0.1300 -1.2984 -15.7691 -0.385 -0.735 0.558 29 24 24 0 0
-0.1911 -1.3479 -15.8255 -0.038 -0.382 0.923 108 51 36 0 0
-0.2501 -1.3947 -15.8381 -0.014 -0.319 0.948 39 24 27 0 0
-1.6787 -2.5436 -16.8360 -0.780 -0.626 0.022 201 201 203 0 0
2.1278 0.5658 -13.9265 -0.278 0.414 0.867 207 205 207 0 0
-0.1286 -1.2090 -13.7261 -0.245 -0.529 0.812 96 40 30 0 0
-0.2886 -1.3670 -15.0890 -0.948 -0.225 0.223 86 42 24 0 0
-0.3004 -1.3769 -15.1178 -0.808 -0.546 0.223 97 43 23 0 0
0.1196 -0.9728 -13.6330 -0.470 -0.438 0.766 109 43 31 0 0
0.1015 -0.9875 -13.6525 -0.470 -0.438 0.766 113 47 31 0 0
0.0783 -1.0061 -13.6661 -0.401 -0.396 0.826 117 49 29 0 0
0.0535 -1.0260 -13.6778 -0.277 -0.243 0.930 118 49 33 0 0
-0.3447 -1.3658 -14.8227 -0.527 -0.834 -0.161 19 16 20 0 0
-0.2937 -1.3416 -15.5575 -0.766 -0.236 0.598 37 33 33 0 0
-0.3146 -1.2857 -13.9968 -0.517 -0.655 0.552 83 18 6 0 0
-0.3277 -1.2966 -14.0220 -0.517 -0.655 0.552 81 19 8 0 0
-0.3409 -1.3075 -14.0472 -0.517 -0.655 0.552 88 31 18 0 0
-0.3879 -1.3444 -14.0310 -0.846 -0.083 0.527 98 43 31 0 0
-0.3389 -1.3281 -15.1189 -0.676 -0.693 0.250 99 21 6 0 0
-0.3476 -1.3356 -15.1520 -0.685 -0.622 0.379 88 20 5 0 0
-0.3835 -1.3640 -15.1491 -0.639 -0.510 0.576 102 39 17 0 0
-0.3894 -1.3694 -15.1859 -0.781 -0.608 0.143 40 12 5 0 0
1.2760 0.0214 -13.6493 -0.512 -0.194 0.837 165 105 73 0 0
-0.3980 -1.3145 -14.0417 -0.845 -0.124 0.520 103 44 31 0 0
-0.3803 -1.3024 -14.1464 -0.236 -0.924 0.301 109 52 33 0 0
-0.4289 -1.3487 -14.5490 -0.962 -0.111 0.249 67 39 33 0 0
-0.3864 -1.2669 -14.0379 -0.317 -0.680 0.660 104 45 18 0 0
-0.4026 -1.2801 -14.0594 -0.317 -0.680 0.660 111 59 35 0 0
-0.4115 -1.2877 -14.0898 -0.384 -0.820 0.425 109 60 37 0 0
-0.4225 -1.2978 -14.1593 -0.317 -0.926 0.205 117 70 48 0 0
-0.4307 -1.3102 -14.4858 -0.652 -0.741 0.163 129 60 43 0 0
-0.4167 -1.3001 -14.5463 -0.389 -0.911 0.141 116 64 49 0 0
-0.4015 -1.3124 -15.9089 0.078 -0.330 0.941 33 30 34 0 0
-0.4469 -1.2850 -14.5323 -0.389 -0.911 0.141 77 42 31 0 0
-0.4512 -1.2890 -14.5697 -0.389 -0.911 0.141 33 22 20 0 0
-0.4252 -1.2754 -14.9946 -0.663 -0.748 0.029 66 34 27 0 0
-0.4576 -1.2426 -13.7518 -0.477 -0.574 0.666 120 63 37 0 0
-0.4468 -1.2536 -15.0363 -0.212 -0.956 0.205 98 47 39 0 0
-0.4524 -1.2712 -15.8943 0.107 -0.316 0.943 40 28 31 0 0
-0.4554 -1.2742 -15.9371 -0.329 -0.461 0.824 35 29 31 0 0
-0.2455 -1.0320 -13.5427 0.516 -0.515 0.684 112 53 31 0 0
-0.2924 -1.0693 -13.5278 0.359 -0.818 0.449 100 36 15 0 0
-0.4563 -1.2205 -14.9610 -0.524 -0.827 0.203 79 33 23 0 0
-0.4858 -1.2568 -15.8759 0.150 -0.430 0.890 41 27 29 0 0
-0.4872 -1.2174 -15.9021 -0.480 -0.320 0.817 45 29 31 0 0
1.7679 0.6588 -13.7919 -0.036 0.519 0.854 120 87 82 0 0
-0.5796 -1.2298 -14.0403 -0.100 -0.579 0.809 110 36 8 0 0
-0.5093 -1.1757 -14.2534 -0.704 -0.674 0.225 102 40 22 0 0
-0.5171 -1.1823 -14.2858 -0.712 -0.602 0.362 89 32 19 0 0
-0.5213 -1.1860 -14.3228 -0.504 -0.623 0.599 114 57 42 0 0
-0.5117 -1.1853 -14.9397 -0.291 -0.878 0.379 103 37 18 0 0
-0.5591 -1.2242 -15.0098 -0.149 -0.898 0.413 103 35 19 0 0
-0.5618 -1.2268 -15.0507 -0.404 -0.882 0.243 123 57 40 0 0
-0.5065 -1.1920 -15.9034 -0.480 -0.320 0.817 51 31 31 0 0
-0.5270 -1.1516 -14.2974 -0.809 -0.398 0.432 76 20 7 0 0
-0.5304 -1.1607 -14.9408 -0.611 -0.488 0.624 104 45 30 0 0
-0.5475 -1.1851 -16.0160 -0.755 -0.582 -0.303 37 31 31 0 0
1.2029 0.2887 -13.5780 0.044 -0.382 0.923 103 52 43 0 0
-0.5219 -1.1005 -13.3457 -0.389 -0.702 0.597 105 50 38 0 0
-0.6112 -1.1810 -14.3419 -0.385 -0.478 0.790 106 52 33 0 0
-0.7056 -1.2579 -14.4336 -0.134 -0.647 0.751 45 40 46 0 0
-0.5536 -1.1397 -14.9360 -0.827 -0.133 0.546 108 54 41 0 0
-0.5648 -1.1490 -14.9654 -0.711 -0.569 0.412 106 54 39 0 0
-0.7221 -1.2325 -14.4369 -0.103 -0.804 0.586 43 41 45 0 0
-0.4354 -0.9530 -12.9807 -0.670 -0.064 0.740 123 46 23 0 0
-0.5403 -1.0388 -13.1317 0.039 -0.851 0.524 114 56 35 0 0
-0.7021 -1.1775 -14.4446 0.000 -0.195 0.981 43 40 41 0 0
-0.5816 -1.0358 -13.3406 -0.769 -0.637 0.050 99 56 41 0 0
-0.6129 -1.0616 -13.4226 -0.934 -0.253 0.251 83 36 22 0 0
-0.6571 -1.1020 -14.4418 -0.572 -0.226 0.788 77 49 37 0 0
-0.6794 -1.1221 -14.8911 -0.774 -0.062 0.630 104 53 38 0 0
-0.6859 -1.0849 -14.0075 -0.346 -0.665 0.662 86 29 13 0 0
-0.8214 -1.1963 -14.3822 0.099 -0.604 0.791 44 40 44 0 0
-0.7559 -1.1436 -14.5536 -0.643 -0.668 0.373 47 42 43 0 0
-0.6164 -0.9887 -13.4228 -0.968 0.110 0.225 93 73 64 0 0
-0.7250 -1.0782 -13.9405 -0.423 -0.799 0.428 113 44 15 0 0
-0.7235 -1.0781 -14.5778 -0.512 -0.642 0.570 44 43 45 0 0
-0.7799 -1.1241 -14.5905 -0.450 -0.882 0.140 48 42 42 0 0
-0.5054 -0.8600 -12.9074 -0.910 -0.271 0.313 123 47 29 0 0
-0.6143 -0.9492 -13.4474 -0.974 0.103 0.203 46 30 25 0 0
-0.7811 -1.0855 -13.8939 -0.352 -0.439 0.826 119 59 17 0 0
-0.7368 -1.0498 -14.9814 0.007 -0.944 0.331 109 56 41 0 0
-0.5160 -0.8312 -12.9161 -0.938 -0.141 0.317 122 46 27 0 0
-0.6210 -0.9167 -13.3818 -0.992 -0.124 0.008 16 5 6 0 0
-0.6090 -0.9068 -13.4360 -0.983 0.124 0.134 14 4 5 0 0
-0.6101 -0.9077 -13.4747 -0.967 0.172 0.186 13 4 3 0 0
-0.6157 -0.9122 -13.5082 -0.978 0.203 0.041 19 9 9 0 0
-0.8352 -1.0908 -14.5683 -0.573 -0.818 0.047 44 43 41 0 0
-0.7145 -0.9080 -15.9716 -0.089 -0.723 0.685 100 44 29 0 0
-0.7342 -0.9241 -15.9912 -0.089 -0.723 0.685 82 45 38 0 0
-0.8531 -0.9833 -15.4286 -0.292 0.397 0.870 105 53 37 0 0
-0.6018 -0.7524 -12.7863 -0.618 -0.026 0.786 117 49 36 0 0
-0.9243 -1.0054 -14.8152 -0.269 -0.963 -0.007 128 67 43 0 0
-0.8769 -0.9636 -15.2395 -0.206 -0.882 0.423 68 41 36 0 0
-0.8557 -0.9456 -15.3146 -0.630 -0.595 0.498 72 42 33 0 0
-0.8607 -0.9495 -15.3536 -0.513 -0.645 0.566 109 57 43 0 0
-0.5547 -0.6764 -12.7454 -0.534 -0.269 0.802 120 52 40 0 0
-0.5747 -0.6928 -12.7610 -0.499 -0.240 0.833 119 51 37 0 0
-0.4195 -0.5566 -13.7762 0.072 0.519 0.852 5 3 4 0 0
-0.5489 -0.6634 -13.7842 -0.795 -0.144 0.589 4 2 3 0 0
