ply
format ascii 1.0
element vertex 694
property float x
property float y
property float z
property uchar diffuse_red
property uchar diffuse_green
property uchar diffuse_blue
end_header
-0.7610918869452564 -0.920824688658306 -13.73393125663775 48 9 3
-0.7609866052265585 -0.9089330214255709 -13.788260410404284 69 14 3
-0.7730281873886921 -1.0141282693681184 -13.723355732789864 113 57 25
-0.7769320943740984 -1.0409171908659847 -13.73815945706474 106 57 17
-0.781136650157235 -1.0706187382063774 -13.74994051474286 89 46 28
-0.7846035363739617 -1.093203711502893 -13.768991837043682 60 8 3
-0.7867426318266902 -1.102947405446744 -13.801284260118214 103 45 27
-0.78483478754905 -1.0734970928079468 -13.874205341907537 124 72 39
-0.7896353117512174 -1.1089595862452377 -13.88005676422393 97 37 9
-0.7840152804429091 -1.043410485398378 -13.99096517024292 72 16 5
-0.7871314521290116 -1.0624952648324708 -14.014044955138576 61 11 9
-0.7921480881469761 -1.100031996323251 -14.017818738927524 64 13 6
-0.7966631883651732 -1.1327204012420324 -14.026583652276155 81 23 7
-0.7991750406357111 -1.1459430071619696 -14.055776621125943 100 45 28
-0.793755156409212 -1.0819454513000553 -14.166571216117962 104 57 40
-0.7935592442857022 -1.0687027048000477 -14.224129560812642 103 61 45
-0.7947142137664659 -1.0685751850109337 -14.26796844260111 100 60 42
-0.7963955583938405 -1.0735492375138564 -14.306504690970032 119 68 51
-0.7967293129861066 -1.0653371796815456 -14.359230883618967 87 54 44
-0.7979571706742449 -1.0658154400562863 -14.402828651049028 46 39 39
-0.7991901986706419 -1.0663101896757095 -14.446539073255213 45 40 46
-0.8038362216752512 -1.1001812229724433 -14.454407762870638 45 41 46
-0.8058724493513612 -1.1085038143138108 -14.489814615993556 44 43 47
-0.8077507782008821 -1.1152565305598117 -14.527005846364041 48 43 45
-0.8021310482502164 -1.0484032929335756 -14.644315708005276 48 45 45
-0.8026356455325949 -1.041553871318757 -14.696757283885333 50 47 50
-0.8014457545761774 -1.018000583921462 -14.767646107908028 54 44 46
-0.8045716968629288 -1.036830697300803 -14.792339313177106 107 68 57
-0.8012821422596776 -0.9924873965771797 -14.88653728618163 110 63 49
-0.8054661557252194 -1.0216812480595783 -14.900037412363666 103 56 44
-0.8067476530758857 -1.0222603593375252 -14.945147985274684 104 58 45
-0.8058658502500037 -1.0014488330707527 -15.014129716162088 106 60 46
-0.8061275484993232 -0.991861919889816 -15.07089656325815 117 70 54
-0.8090305318579236 -1.0083384401501485 -15.098780037761768 116 68 54
-0.8109740276670852 -1.0153097794894306 -15.137338300429942 108 60 46
-0.8099405040061075 -0.9927672226615503 -15.209125213365649 108 65 52
-0.809797750428456 -0.9789783333700894 -15.271348586598414 84 54 44
-0.8076147390447876 -0.9448827428388782 -15.356735626780775 74 47 40
-0.8136058437598097 -0.9918666910735388 -15.350679173667782 112 65 51
-0.8132565074969521 -0.975871424772973 -15.415984196700295 105 57 44
-0.8103677419836639 -0.9345452888611758 -15.510394093025766 95 54 45
-0.8099637059104676 -0.9178480327671155 -15.57709218338011 101 60 49
-0.8127460085448156 -0.9328370848643015 -15.607748789886141 93 55 43
-0.8131285752591026 -0.9238754026776457 -15.665974431984331 108 63 50
-0.8126039938873408 -0.9058006036691006 -15.734912095271577 101 54 46
-0.8135059762264101 -0.9019085470318595 -15.787731245087091 78 34 27
-0.8183879865629518 -0.9377769619728866 -15.79464254451376 76 29 16
-0.8258774803593648 -0.9997730795967339 -15.771090842608846 95 41 25
-0.8288806862780904 -1.0168877158961944 -15.799597494373312 88 45 34
-0.8323778506240784 -1.0389465932583102 -15.82235952916386 64 38 37
-0.8238490794102395 -0.9402824582284817 -15.986696643666447 48 33 33
-0.8231184464103924 -0.9197488082925798 -16.059972931404456 42 34 34
-0.8257387409716339 -0.9328355872434617 -16.093888892118493 41 35 35
-0.8242578713415927 -0.9046206357546209 -16.176732364195644 41 35 35
-0.8223737267961391 -0.8587725798840813 -16.330887997853914 41 36 34
-0.2575059097234548 2.9287536727364856 -12.528332537298809 107 56 47
-0.273495679116457 2.8027642964012074 -12.514672172439592 109 49 38
-0.28151990475648847 2.739434662807997 -12.507331524494347 111 49 38
-0.5135453231502726 0.9482602128219568 -12.482392140908892 131 53 30
-0.5169340401896291 0.9267100735247613 -12.50359382273022 129 51 28
-0.5197519138503129 0.9104940038346641 -12.529195027343135 128 50 27
-0.5213793217616669 0.9054156147368007 -12.564035504218273 132 54 31
-0.5279248360778744 0.8543437486247871 -12.560795244192642 134 56 33
-0.5346805502449695 0.8012667129837849 -12.555743051990383 133 55 32
-0.5416197715714643 0.7464306056580048 -12.54906910040918 130 52 29
-0.5477705000797246 0.6989432854461324 -12.548383032956103 130 50 27
-0.5510122148289537 0.678708708262441 -12.570446073964067 133 53 30
-0.5610888576247194 0.5943242643862598 -12.53850802682555 132 52 29
-0.5650716779739121 0.5670910862200991 -12.554515153843036 133 51 29
-0.5677230169623813 0.5523633199390359 -12.581082534503 132 47 26
-0.5696823028728204 0.5441520130545126 -12.613216504936961 132 47 26
-0.5836238969808444 0.4436412332428983 -12.645001730848648 131 49 27
-0.5898066157960649 0.39562810117594527 -12.643007678364212 140 58 36
-0.5929262302799214 0.3764790878285318 -12.665752746317038 130 47 25
-0.5990139563088054 0.3293112874300128 -12.664292924230029 132 47 26
-0.6141476064083387 0.19665151921445378 -12.58860057636149 132 47 26
-0.6126852576327108 0.22073173492052245 -12.648598169778754 136 51 30
-0.6212081793400785 0.15041486198603415 -12.62652628558236 130 45 24
-0.6288026210227872 0.08882119735354177 -12.611831593633196 131 46 25
-0.6354140024031526 0.03648500454600612 -12.605048217450129 133 48 27
-0.6430249597960193 -0.025368025298663888 -12.58973484099602 132 47 25
-0.6467760372042767 -0.05066507502502571 -12.606455205541343 138 54 30
-0.6478762876189509 -0.05080785069715432 -12.645404142520755 129 45 21
-0.6560981515886914 -0.11856307894867157 -12.62447597192772 141 57 33
-0.6599242692895934 -0.14460325281901643 -12.64042182328097 139 53 30
-0.6649808999208111 -0.1823538570856975 -12.645890936206488 134 48 25
-0.6692193819556514 -0.21234103901442225 -12.658219869046217 126 40 17
-0.6741241667934487 -0.24868674619365727 -12.664793869282787 136 51 27
-0.6777790462164657 -0.27314166952253505 -12.68199007348814 136 51 28
-0.6849605382960999 -0.331235631991599 -12.668798629923222 129 42 21
-0.6909064210422823 -0.37758914602593574 -12.666040848919383 132 48 27
-0.6960627547768846 -0.4164379230748283 -12.669962489653116 130 48 27
-0.7014325475205379 -0.4573522475969325 -12.67190708975753 144 64 39
-0.706337582832661 -0.4938502024331939 -12.677777860526486 139 58 31
-0.7102209972142857 -0.5205930267601842 -12.692499646820858 135 52 30
-0.7101877175853512 -0.5098328139658488 -12.741640006264824 132 50 27
-0.7175413229136096 -0.5698255104726488 -12.72576316966764 135 53 30
-0.723751470561367 -0.6189074007766919 -12.719756862806179 126 45 21
-0.7277514981034331 -0.6468175796054663 -12.733216412300136 129 48 24
-0.7303985726205825 -0.6617435280789099 -12.758703101250095 122 40 19
-0.7303004054465512 -0.6502749420388065 -12.808820972896843 122 39 21
-0.7317883115129216 -0.6540159975667583 -12.844894730259771 120 37 18
-0.7344599497460622 -0.6691268177227929 -12.870401017662118 133 55 31
-0.7390880716996673 -0.703075787980767 -12.878225645349396 151 84 65
-0.7470086984034009 -0.7687830126393091 -12.856031797029495 169 108 89
-0.7532798922621945 -0.8186447428953221 -12.848575325388737 165 106 82
-0.7625602731244469 -0.8975999614061045 -12.813365282815091 163 86 53
-0.7679644801565242 -0.9391938753761044 -12.81336977282214 128 40 8
-0.7715647132370712 -0.9633781181735985 -12.829864622002987 92 18 3
-0.7730062631376894 -0.9666820274411494 -12.866314293543226 73 11 2
-0.7767731605076099 -0.9924758277376347 -12.881280380274225 70 9 2
-0.7811253451886493 -1.023949078173767 -12.890751262153206 74 11 4
-0.7826376617198079 -1.0279004792204347 -12.926719927571106 84 37 26
-0.7781619045505968 -0.9737162025759263 -13.01904677504631 87 60 54
-0.7730425362830062 -0.9131683303995874 -13.117969338462181 54 45 45
-0.7634936283181675 -0.7873290573133076 -13.362844501084862 47 46 48
-0.7605644169954288 -0.6681822492698437 -13.814767185861957 8 3 3
-0.7657401050209542 -0.707358487473515 -13.81785378333835 45 22 18
-0.7736421842134752 -0.7733101089115699 -13.793848749761953 45 13 9
-0.7802200594030407 -0.8263316943744377 -13.78265249242751 41 11 7
-0.7873354125397213 -0.8846855291117297 -13.765863834379239 48 9 2
-0.7892312730531751 -0.8917708141235696 -13.800981817768758 75 19 5
-0.7988329713836061 -0.9746735960500317 -13.75887392114408 112 57 24
-0.8023929248831125 -0.9981660155946859 -13.777154920451242 110 63 24
-0.8097616324525471 -1.059208661606843 -13.756909975569457 80 34 19
-0.8125658325887168 -1.0752835462705024 -13.782679330530215 66 13 6
-0.8045971331627765 -0.9849788679207654 -13.918214565496598 127 71 48
-0.8062645353943101 -0.9897162876617953 -13.956090253882778 125 72 38
-0.8137072557335318 -1.0515460631841327 -13.9348279307767 94 34 9
-0.8111764478787021 -1.0147206860839901 -14.015978059976963 69 15 5
-0.8161030753107521 -1.051677444513552 -14.020479916235919 57 9 6
-0.820681256142962 -1.0852056908736376 -14.028474546635547 65 12 4
-0.8252056111742894 -1.1182205246049302 -14.036932921996648 86 27 9
-0.82601767139904 -1.1143862906760154 -14.084110287440737 101 47 30
-0.8198429149799297 -1.041061066232718 -14.20480662944126 104 58 44
-0.8223519708084293 -1.0539658018720077 -14.234779342091567 104 63 50
-0.8242602771670878 -1.0608746584127369 -14.271170836348377 105 61 44
-0.8252253484432972 -1.0583592141019276 -14.317688101947326 113 65 49
-0.8257421622431905 -1.0513319853493899 -14.36917202585261 63 42 37
-0.827307676285316 -1.054724517152211 -14.409670695987565 46 42 42
-0.8293575693841324 -1.0629253910869085 -14.445115980003212 42 42 43
-0.8344990265396491 -1.1020182739288318 -14.447359976555346 42 43 45
-0.8355805747205666 -1.1005082720482973 -14.493367559782666 45 43 49
-0.8370774376985655 -1.1031184581718403 -14.53505428801791 45 43 48
-0.8345742984237056 -1.0655913799934043 -14.620483397108025 51 49 52
-0.8346731835067124 -1.0540712592910264 -14.677937648006267 52 47 52
-0.8341608581278275 -1.0363537255947834 -14.742376830375997 59 46 48
-0.8352506329640511 -1.034671659364398 -14.789485587171557 113 72 61
-0.8350371793743498 -1.0198353095894692 -14.851207470699592 104 57 45
-0.8359372751821468 -1.0161476298890575 -14.90086913270128 103 57 45
-0.8372529533883515 -1.0166030908232022 -14.946112197770018 103 57 44
-0.8356006918649892 -0.9870771294151757 -15.024747982978722 111 64 49
-0.8373861053153105 -0.9921713858298098 -15.06520355695235 118 71 55
-0.8384381215852317 -0.9898224865883538 -15.114072328512886 112 63 50
-0.8462857653560832 -1.05617587287799 -15.08622768581036 110 61 48
-0.8457399034611313 -1.0376213910682424 -15.153374743116526 103 63 51
-0.8449693408251941 -1.0167150527693618 -15.22343347553576 71 47 40
-0.8441939078163015 -0.9956800098094352 -15.2939189487144 83 53 44
-0.8432419253597543 -0.9727723597528017 -15.366807852446208 113 66 51
-0.8425246943075386 -0.952166603234085 -15.437380714505956 100 54 44
-0.8426305928210615 -0.9398541670957821 -15.498794126465802 100 58 46
-0.8421945658689979 -0.921958782507172 -15.566812623098654 100 60 48
-0.844942512765993 -0.9364379588135447 -15.598021537548139 100 60 49
-0.8451999634917035 -0.9254954951520036 -15.658482876256302 107 62 51
-0.8455966377172273 -0.9159112659117525 -15.717603133240624 94 49 41
-0.8454001432297896 -0.9002031618130877 -15.784013925797662 73 29 18
-0.8505352158770911 -0.9389673925592339 -15.787565541905249 79 31 18
-0.8569976426570094 -0.9913556122561831 -15.775175342888797 94 42 29
-0.8602804260386907 -1.0112088179256622 -15.800501288582556 82 46 38
-0.8527982735397251 -0.9066245478971311 -16.020358787350673 47 33 34
-0.8533672826061461 -0.8984223729152818 -16.07921877289677 42 36 35
-0.8558698042857652 -0.9100562580872209 -16.11490153008155 42 36 36
-0.852613234010706 -0.8623456341485776 -16.22084262931955 41 35 35
-0.8448190753056892 -0.7532826127677783 -16.450418269148635 39 34 31
-0.27697680994334606 3.040463917254752 -12.566680501136808 107 63 57
-0.302053564813454 2.8394733274285047 -12.537909884425613 111 49 38
-0.32349286962332946 2.650781380489362 -12.437923370883166 111 48 38
-0.5443571288416745 0.9458141539527505 -12.476425555105921 132 54 31
-0.5467568006467082 0.9336602565332273 -12.505336600684384 131 53 30
-0.5460291508815835 0.9512664902974919 -12.558832942278919 129 51 28
-0.5516353366579281 0.9086356307988819 -12.56270061804419 130 51 28
-0.5582705812809721 0.8561751378298554 -12.558313210172821 130 50 27
-0.5655413946786665 0.7976156893637727 -12.54870221521449 132 52 29
-0.5721529370325794 0.7452945134020155 -12.544115429560234 131 50 28
-0.5778321130382728 0.7018303706760278 -12.546788958548806 130 48 26
-0.5829002713616537 0.6641719681578921 -12.554226573853017 131 49 27
-0.5880862502408798 0.6253655608681328 -12.560618063002504 137 55 33
-0.596573154042133 0.5549677395732786 -12.540257787745574 133 50 28
-0.5897938580610921 0.6305976883736655 -12.643275397571646 134 49 28
-0.5930089272543393 0.6106504431729265 -12.665624674899476 136 51 30
-0.5968428817735181 0.5847744441804119 -12.682932684578692 134 49 28
-0.6034153406795376 0.532631493798223 -12.677786802110873 131 49 27
-0.6089151924019504 0.4907389506604565 -12.681266803928981 133 51 29
-0.6148483986616772 0.44465660612594604 -12.68104514952666 135 53 31
-0.6239609021688792 0.3679888908741935 -12.654350801244039 135 52 30
-0.6310593534715195 0.3106112762003814 -12.644044587369429 132 47 26
-0.645577369551651 0.18178646276589028 -12.5716467753828 132 47 26
-0.6556041644645755 0.09605895572332823 -12.536158023659105 131 46 25
-0.6517006112403164 0.14447699723601648 -12.617257601576332 133 48 27
-0.6579398245780179 0.09518547988770987 -12.613301207585167 128 43 22
-0.6634120507009875 0.0532552520870091 -12.615654020721824 130 45 24
-0.6694534534092972 0.00579884003694886 -12.613041172957605 133 48 26
-0.674945085073238 -0.03638259915435249 -12.614943797981983 137 53 29
-0.6802787513183963 -0.07706687529783363 -12.618061142763516 128 44 20
-0.6855270417661848 -0.1169533751108327 -12.621784031646982 124 40 16
-0.6888800886474707 -0.13851291124847442 -12.64171006616993 132 46 23
-0.6953895838207238 -0.19066409592238642 -12.634342444775012 129 43 20
-0.6996607600745618 -0.22115244092594466 -12.646193098662565 131 45 22
-0.7033534054132959 -0.2460399763816632 -12.663018581144105 135 49 26
-0.7064717390221606 -0.26535546887398276 -12.684836639566655 131 44 22
-0.7137004823420917 -0.32462100174037634 -12.670607696657772 129 41 20
-0.7189911978362933 -0.36509218937854193 -12.673187674791926 140 57 35
-0.7260579281281465 -0.422880424027146 -12.65994414671381 137 56 34
-0.7314953934726809 -0.4648525057291968 -12.660903525164153 135 53 30
-0.736715200904888 -0.5047344839511387 -12.663658246032565 132 50 25
-0.7418898172731673 -0.5442043660720781 -12.666687950919805 137 53 31
-0.7463152896033547 -0.5763885842643139 -12.676307793346162 130 45 24
-0.7454492798232842 -0.5568902244039284 -12.733465716201678 130 47 25
-0.7499480159968066 -0.5897869350081697 -12.742441161977638 122 40 18
-0.7600091378989139 -0.6771313279478184 -12.70091182415122 132 51 27
-0.7590783981604945 -0.6569379359936027 -12.7589321847715 134 52 30
-0.7591067079457864 -0.6460813497317792 -12.80847231006697 121 38 18
-0.7593718217709118 -0.6374992446568868 -12.856056826791757 132 50 29
-0.7667163471354965 -0.6983575999014828 -12.838721504297636 137 61 38
-0.7621962516950086 -0.6427357039576647 -12.9306467412381 169 105 87
-0.7788681251068782 -0.7953186669161161 -12.826728151021833 168 106 81
-0.7900702117621852 -0.8942951649110613 -12.77276515558628 206 150 127
-0.7907909348240307 -0.890199130852201 -12.816095167035524 140 61 34
-0.7959128068756027 -0.9294304609100266 -12.81836154758779 112 26 3
-0.7980409113728175 -0.9391698819074943 -12.84864802877876 83 14 4
-0.8013895371595312 -0.9609375653997434 -12.867489675599277 74 12 5
-0.8040924730730518 -0.9763302596952137 -12.892438299417837 74 12 3
-0.8092066122099246 -1.0155482380756853 -12.894496056867702 73 16 6
-0.8072366329688508 -0.9847184942215277 -12.964026393072414 91 53 42
-0.803317352002505 -0.9345086452050229 -13.052594334813337 69 51 47
-0.7989349467130086 -0.8795968688686946 -13.146121450565598 51 47 49
-0.789034400753075 -0.7581371864933546 -13.345808805418542 49 46 49
-0.7876212682731535 -0.7323406519593938 -13.412150528338124 47 46 49
-0.771830873292718 -0.5394865644861655 -13.726776148936018 12 11 14
-0.7765894934953842 -0.5747877284155694 -13.734015566497902 5 4 5
-0.7826495366081215 -0.6230908836832594 -13.72826237223472 4 3 1
-0.7863650946869241 -0.6480382222143177 -13.74561547322501 3 2 1
-0.7905299995350946 -0.665296552808254 -13.812951660109775 11 4 2
-0.7967523935891835 -0.7153188202851242 -13.805143226855625 48 23 18
-0.8047850091444749 -0.78351800628168 -13.778852390052506 41 13 7
-0.810440946671419 -0.8279750076642172 -13.776278806206014 38 9 4
-0.808896023519402 -0.8002359426611738 -13.846735514985276 49 10 2
-0.8165084605376951 -0.8643540354474366 -13.824117341884108 77 21 6
-0.8251423798674765 -0.9388099075694241 -13.790708410939974 112 57 24
-0.8283184409303928 -0.9584661887397745 -13.813005445045697 112 65 29
-0.8384246354148747 -1.0478780295663546 -13.763793197335364 68 22 9
-0.8408806473605127 -1.0603354747521339 -13.793301642998593 74 23 14
-0.8323799679852616 -0.9622982180212221 -13.936805499654168 134 82 52
-0.8343510370216287 -0.9697357312262556 -13.971938315290767 115 61 26
-0.8368609284668602 -0.9825918571618732 -14.001533277286324 89 28 5
-0.8388088399021457 -0.9897518701018839 -14.037103661498914 65 12 2
-0.8451941876421558 -1.0417882086152934 -14.025941656607204 58 9 5
-0.8492399896688099 -1.0701849667289496 -14.03932652319834 67 12 2
-0.8539874108321814 -1.1057065983001708 -14.045191246655126 92 33 14
-0.8465279920696985 -1.0174074073002561 -14.18127298492728 102 49 32
-0.8486178848637008 -1.025883141333268 -14.21588551210348 107 63 50
-0.8514998444695779 -1.0423862860386928 -14.24207979259942 101 62 49
-0.8525462168682831 -1.0402072921050758 -14.28813593351682 109 65 51
-0.8533718815438921 -1.0357384550936057 -14.33677495105853 92 56 45
-0.8550393054133627 -1.039801438651307 -14.37646405092641 49 40 37
-0.8568020859885838 -1.044805500147353 -14.415253016643184 44 42 44
-0.8609088035074776 -1.073711317042683 -14.428474873485397 44 41 39
-0.8625648814831722 -1.077586548188048 -14.46861000996115 49 45 43
-0.8653711736362625 -1.093194799603511 -14.496181095119907 51 45 48
-0.8670676939958091 -1.0974299013923883 -14.536110049587839 47 43 49
-0.8665746550844798 -1.0791944862152336 -14.600561752434324 58 55 62
-0.8665801883279397 -1.0659989390126912 -14.659772868118239 53 48 54
-0.8653731181721397 -1.0402882667645086 -14.732881144884502 67 49 49
-0.8677611490293569 -1.0514345323002425 -14.765895024899628 118 74 62
-0.8658478641901113 -1.0183154187063792 -14.847632275162088 103 58 46
-0.8664875888396187 -1.011378676211641 -14.90085705749458 103 57 45
-0.8685361206827743 -1.0189064448738945 -14.938274235158932 105 59 45
-0.8650940147484135 -0.9697658460657816 -15.038618282548281 115 69 52
-0.8669396037341425 -0.9750887020644461 -15.078854932650106 115 67 53
-0.8693211036595045 -0.985918518556927 -15.113057549067747 110 60 49
-0.8691270672639068 -0.9700807407621541 -15.177161162947485 111 66 55
-0.8681751845670072 -0.9463212218259791 -15.250397889164542 84 52 44
-0.8673555309236147 -0.9238429103506851 -15.32249271028681 68 46 40
-0.8730321373317319 -0.9686831491545238 -15.31892227095698 96 60 48
-0.8712910485962415 -0.9365252424357315 -15.402335767740144 110 63 50
-0.8718795687956696 -0.9284799716556273 -15.458741762694856 95 53 43
-0.8714649752379855 -0.9099352377558141 -15.527299079736009 103 62 48
-0.8736404516392745 -0.9182906093671539 -15.565419790247761 98 55 42
-0.8723519678515563 -0.8904967617330906 -15.64502024672379 107 63 51
-0.875035210752146 -0.9040597125879364 -15.677469309456706 102 58 49
-0.8745810818591327 -0.8848231804247568 -15.747748881196813 86 43 34
-0.8778246826554044 -0.9041778035762391 -15.773738828977487 73 25 12
-0.8853125607230552 -0.9679632744132904 -15.748286027853123 86 35 21
-0.8897264554400941 -0.9996156763723532 -15.759882744115714 91 42 32
-0.881995097266612 -0.8741954570188728 -16.052557375424872 44 34 35
-0.8884072604481521 -0.9267246612453581 -16.040121478031054 42 36 36
-0.8843248251932434 -0.8687557883302945 -16.157731211958506 42 36 36
-0.8806829829078656 -0.8152643329390168 -16.270604063927035 42 36 36
-0.8675808200552242 -0.6463071491892887 -16.571631691707868 38 33 30
-0.316251388921576 2.979370847386738 -12.518200262456176 106 55 48
-0.3333368373487112 2.8403876744316525 -12.495276896021903 112 51 40
-0.3278275270970423 2.9035759589078065 -12.581330065473303 113 49 38
-0.3322131410377792 2.87332404294812 -12.598665791673842 114 49 39
-0.5744978529247791 0.9496124076098802 -12.475579858750459 131 53 30
-0.5784623945311759 0.9224812052783466 -12.492176644261052 129 51 28
-0.5766418052774902 0.9513780736555884 -12.554933631986946 129 51 28
-0.5818871889929729 0.9118550478267062 -12.56136578862239 131 50 28
-0.588755461702578 0.8565652165693489 -12.554637294471675 131 49 27
-0.5966554331207236 0.7912136706599364 -12.539377581472841 131 49 27
-0.6019332722624149 0.7512700851997796 -12.545095929240032 132 50 28
-0.609526241009623 0.6887965751236056 -12.531878068930991 132 50 28
-0.6136598253092523 0.6599147807400092 -12.546640345782384 130 48 26
-0.6209106439342627 0.6006787442685004 -12.535826305108621 133 52 30
-0.6196197264751144 0.624594084323566 -12.594991755552346 132 48 26
-0.6219982218301874 0.6128046194780996 -12.624162997584623 133 48 27
-0.6261971494339088 0.5832704579883927 -12.638320284991607 134 49 28
-0.6306049561903613 0.5516853680191156 -12.65069116033887 134 49 28
-0.6358533756166851 0.5118733301172265 -12.655987560993506 131 49 27
-0.6423639472903868 0.4596952565631245 -12.65060388101625 131 49 27
-0.6487377264260547 0.40881042284083957 -12.646176498615624 133 51 29
-0.6550286877519653 0.35869304217882014 -12.642261684241673 133 50 28
-0.662070059454887 0.30118086161048563 -12.631814673789084 133 48 27
-0.6642228046432858 0.29154798945808036 -12.662659776041131 135 50 29
-0.6745238563239839 0.20197906234495466 -12.624117178701184 132 47 26
-0.6815307879674365 0.14465521540479376 -12.613323236965558 135 50 29
-0.68780836393363 0.09444458430136748 -12.60856093617593 136 51 30
-0.6915048478856382 0.06957317661712459 -12.625856702587646 132 47 26
-0.6984959791728246 0.012271490120607353 -12.614628538482691 134 50 28
-0.7034199038553498 -0.02472509924018862 -12.621113069876333 140 56 32
-0.7073106787090979 -0.05156287790494041 -12.636495945834227 133 49 25
-0.7131903569230997 -0.09802793823504974 -12.634446087025118 138 54 30
-0.7183725429691517 -0.13764673444542197 -12.63835191487911 134 49 26
-0.7258838759125414 -0.20030357686093314 -12.62161539366636 133 47 24
-0.7300635474558325 -0.2300862055602355 -12.634064039559046 132 46 23
-0.7341174976073298 -0.2586388223120144 -12.647569008214145 141 56 33
-0.7382381970434502 -0.2878644219135058 -12.660427802365941 129 45 21
-0.7433016997879762 -0.32644573729893 -12.66480130924944 131 44 22
-0.7483578425248362 -0.36498181557620946 -12.669122037038385 130 43 23
-0.7534473001700944 -0.40387635586203796 -12.673023609699165 132 48 27
-0.7603899443259352 -0.4612062521989051 -12.66005098724293 137 53 31
-0.7655803576762367 -0.5011759982192237 -12.662729720886183 134 49 26
-0.7702133096977966 -0.5356305646618029 -12.670354250816928 132 46 23
-0.774209349752119 -0.5637659843412228 -12.683706236841854 131 44 25
-0.7817282344129094 -0.627014827405211 -12.664687933254058 133 48 28
-0.7895895108235651 -0.6937459905043966 -12.642225585496774 125 42 22
-0.7883729065145235 -0.6699553482573064 -12.703345646387593 126 44 22
-0.7881682590422121 -0.6562010603839337 -12.755381977619429 126 44 23
-0.7895876096748838 -0.6586249581113934 -12.792533464529086 121 38 20
-0.7896054361715446 -0.646998828627571 -12.842907968426179 126 44 25
-0.8015321577934259 -0.754553206138441 -12.78179866358823 139 65 49
-0.793583280037907 -0.663091308768287 -12.907212757365883 188 122 106
-0.8088539393498488 -0.8043014160976014 -12.81398329874577 153 76 45
-0.8241340825195445 -0.9458044222321442 -12.719817370597353 175 102 71
-0.8316796000854235 -1.009813228137534 -12.698437117753713 132 49 20
-0.8221198459502308 -0.9019319282137879 -12.840208236171812 98 22 4
-0.8272183047885764 -0.9413220232273094 -12.842289500233843 79 15 5
-0.8281628692356742 -0.9389144910732892 -12.884227815921642 73 12 4
-0.8317843213125823 -0.9634473564362791 -12.90046048452161 75 13 3
-0.8345207605755891 -0.9790602455615822 -12.92524802786679 83 28 18
-0.8343111172545399 -0.9649237269792392 -12.978753594224631 90 59 50
-0.8300544367307956 -0.9098386518276875 -13.072059197798694 57 45 44
-0.8096284180413182 -0.6662600956032128 -13.430945309585432 49 46 49
-0.8065591494720832 -0.6226293592926009 -13.514971473554585 48 46 49
-0.8000313324040862 -0.5183076469780046 -13.743031900740576 9 4 8
-0.8043785841925646 -0.5497020472631009 -13.754191428473018 7 3 4
-0.8086583672745826 -0.5804270212407774 -13.765957812176612 7 3 2
-0.8137707516058941 -0.6196536437618683 -13.769205307365564 4 3 1
-0.817713706417527 -0.6469834562305969 -13.784228866856564 6 2 2
-0.8190824588123101 -0.6480435565404177 -13.825525113737033 16 7 4
-0.8251285414722153 -0.6968616463766759 -13.818973049491136 49 23 17
-0.8348617521984953 -0.7834379956565707 -13.774228088479456 38 11 6
-0.8400365072393868 -0.8234687727031069 -13.776121170170228 37 9 4
-0.8464250221993924 -0.8759690672030427 -13.765270608821243 51 10 3
-0.8471421175126382 -0.8703664246155709 -13.813271660684364 78 21 5
-0.8597970478019241 -0.9872465015005591 -13.73661950393109 130 76 42
-0.862830505534031 -1.0054550636060462 -13.760239799277413 108 60 26
-0.8659393287689026 -1.0244335111401952 -13.783087558689672 59 13 3
-0.869686944121203 -1.04998280633888 -13.799193158713331 90 39 25
-0.8616952616926286 -0.9546069045125867 -13.939931766333714 138 89 54
-0.8634362298671372 -0.9593708097409372 -13.977834386528418 110 55 20
-0.8651255659245765 -0.9635714921699723 -14.016419465998021 84 20 3
-0.8669726635784298 -0.9693703283541906 -14.05344493757734 64 12 3
-0.873020009138081 -1.0185702980389886 -14.045300136031688 58 10 5
-0.8776578055398361 -1.053234443475568 -14.052189571102353 69 12 3
-0.8744252975855676 -1.0063935452333803 -14.144493761195019 99 40 25
-0.8753682202155717 -1.0027194049722565 -14.19180011071968 107 55 40
-0.8783857839711372 -1.0205303397572836 -14.216590619092754 107 64 49
-0.8803485048858943 -1.0273761686775256 -14.25300521530155 101 61 46
-0.881380805396263 -1.0245192874529394 -14.299805426870197 111 69 58
-0.882063290056 -1.0179749434617147 -14.350679397003605 62 43 37
-0.8840779919515074 -1.0252566826796965 -14.38696830778239 48 41 38
-0.8862275315157137 -1.033917277337716 -14.421868893452107 55 39 35
-0.8906007904745401 -1.065765938628119 -14.431954387837223 84 52 43
-0.8923030264406245 -1.0697255186874521 -14.472003729112163 98 62 50
-0.893427163825207 -1.0676044997028802 -14.51872864881366 86 62 50
-0.8955335439280058 -1.0757206526086849 -14.554515004096165 56 45 44
-0.8968587177395739 -1.0756235922835815 -14.599306356144014 52 48 54
-0.8960880906801341 -1.053498623641354 -14.668229131555677 49 48 53
-0.8959214185690333 -1.0376286886873283 -14.730595328546059 75 55 52
-0.9047664796613286 -1.1164060031254524 -14.68950086285249 117 72 59
-0.8974594647652832 -1.0110328212226714 -14.895970366604303 103 58 45
-0.8983820014631148 -1.0063651268339715 -14.946847983000914 108 62 48
-0.8940460743902927 -0.9461490818110452 -15.05946824643303 116 71 52
-0.8952228477380623 -0.9440028461113146 -15.108063740311454 110 62 49
-0.8979653061357291 -0.9583642749776144 -15.138411002120804 109 61 51
-0.8980319992250246 -0.9443848887548718 -15.20049741534902 102 63 55
-0.8973767530102318 -0.9226810938561307 -15.271480656676573 71 45 40
-0.8964434801903354 -0.8979374407523304 -15.34616891180853 70 45 39
-0.9020838901125887 -0.9429001154707688 -15.342539231615781 109 67 53
-0.9006554067779231 -0.9127696010696846 -15.423708463709545 107 60 49
-0.900734369604851 -0.8985699986368578 -15.487148611760343 97 56 47
-0.9005871794570451 -0.8818846281343342 -15.553658503559781 102 61 46
-0.9038456172980589 -0.9014321596805921 -15.579079825502134 103 58 43
-0.9066379683923085 -0.9159983177271496 -15.610221279495232 109 60 48
-0.9063796127782845 -0.8979478500904507 -15.678853295403204 95 51 44
-0.9059883608666711 -0.878389141366771 -15.74949261441112 80 37 28
-0.910594370535933 -0.9122555001336305 -15.758733357350904 76 26 11
-0.9170967581564271 -0.9664763908071023 -15.744329249414168 91 38 24
-0.9197838166798856 -0.979819403585557 -15.777181721474921 89 43 36
-0.9229073021809547 -0.9978314084230888 -15.804658320350807 62 39 34
-0.9214873255817844 -0.9354961321910178 -16.023997875523378 42 36 36
-0.9130165663725736 -0.8282248160116827 -16.19962425266865 42 36 36
-0.9083056926057395 -0.7612830514226436 -16.32848509332344 43 37 37
-0.9121736746946306 -0.7869225165574756 -16.34823532140033 40 34 34
-0.895907329741439 -0.5945673782202192 -16.62710116415247 37 32 29
-0.3617390748108692 2.8915204851916556 -12.56859318746876 114 50 38
-0.3730075796710485 2.8066998431007972 -12.585133962678242 117 51 37
-0.5968981300380505 1.0296507585770946 -12.537199047408917 130 50 27
-0.6029131344797501 0.9822536443608634 -12.537325979078089 131 51 28
-0.6080787909463129 0.9431988056338882 -12.544203781486289 131 51 28
-0.6138264908477763 0.8983712258012382 -12.546225851012263 133 53 30
-0.6192161132739379 0.8570474377152735 -12.551039712195927 135 55 32
-0.62571654140864 0.8047101764532414 -12.54660123062327 133 53 30
-0.6340019611256806 0.7346631970364621 -12.52724645519373 131 51 28
-0.6396003052218036 0.6911541675481709 -12.529846632700313 135 53 32
-0.6465641482811462 0.6340791592753057 -12.520961168603437 136 60 39
-0.6488740357935527 0.6231083131678252 -12.550679853135737 150 72 50
-0.651408183120696 0.6099271173472589 -12.578584559794116 135 51 30
-0.6537389373911665 0.5987784781297503 -12.608248835220216 133 48 27
-0.6569204849647069 0.5791879436613225 -12.630800227075357 133 48 27
-0.6593677502051355 0.5669047176102557 -12.659578574126272 133 48 27
-0.6654093868797089 0.5188509849591858 -12.657872842888239 134 52 30
-0.67200452428043 0.4652416082584372 -12.651278712054516 133 51 29
-0.6782837482189861 0.4147324834532897 -12.647184712101485 131 49 27
-0.6852778773458016 0.3570444187015491 -12.636763554957954 132 49 27
-0.692743901740809 0.2945873372913974 -12.622041484776375 133 48 27
-0.6947043277687458 0.2870897288534522 -12.654705355546415 131 46 25
-0.7045080876525709 0.20116492970446842 -12.619323766592121 132 47 26
-0.7122022690983835 0.1362550580946218 -12.60191899132244 132 48 24
-0.7166319376717347 0.10397889644671565 -12.612799398673783 131 46 25
-0.7218368345528784 0.0639128687435333 -12.616797541812023 130 45 24
-0.7275940289081354 0.018275180864876006 -12.615802634311207 133 48 27
-0.7291005852815032 0.015280635931055109 -12.652259331405457 139 55 31
-0.7352403215769945 -0.03424604907336537 -12.647683538251247 133 49 25
-0.7402228704477386 -0.07218012388178341 -12.653235824679959 131 47 23
-0.7496601076755501 -0.1549802064715422 -12.61881730112345 132 48 24
-0.75553984863673 -0.2020432103355514 -12.615938779644505 131 47 23
-0.756436731095005 -0.1989127993313229 -12.65780249542442 133 49 25
-0.7612902702548031 -0.2356660031579958 -12.664026236062538 134 50 26
-0.7665847721953722 -0.2768981057601039 -12.666138707091989 133 49 25
-0.7720355413266403 -0.3197429486465051 -12.666689518403395 128 44 20
-0.7798967581843527 -0.3870048918180329 -12.64503774182884 131 47 23
-0.7849239834702597 -0.4256550180834262 -12.64909730681849 132 48 24
-0.7908809589607579 -0.4737544997983303 -12.644464650511278 137 53 29
-0.7951954665152929 -0.5052453676414608 -12.654841387062858 131 47 23
-0.8014749331242338 -0.5566951071452362 -12.646895553635048 133 49 26
-0.8040451454844911 -0.570522920670653 -12.67331383087203 125 42 21
-0.8135491568323722 -0.6548224993658076 -12.634902794800544 128 46 25
-0.8080341330199126 -0.586430555226122 -12.737102103298831 135 53 32
-0.8170554401106075 -0.6659013821147841 -12.70288737212984 125 41 20
-0.8169770137537141 -0.6527377180124114 -12.754365212088215 131 48 26
-0.8178527662754814 -0.6492490709430294 -12.797015245106016 145 67 44
-0.8197865483816885 -0.6565200883891036 -12.82974684121369 129 52 33
-0.8338743109972665 -0.7879452928927506 -12.746268769797231 146 75 59
-0.8270462158141691 -0.7056805681699831 -12.86290892646928 169 102 76
-0.8389711101761066 -0.8151675883642318 -12.799471943832973 171 92 66
-0.850314553809253 -0.9188525079516285 -12.741030343733907 161 73 41
-0.856078981508419 -0.9654841635284921 -12.736190858148555 112 30 5
-0.8489827678691162 -0.880195177113885 -12.85656573047842 88 17 3
-0.8521541650228378 -0.9001723556102554 -12.877202165604782 82 15 5
-0.8571878012222038 -0.9392912114109926 -12.87954578656954 76 11 7
-0.860723842315537 -0.9630352613580984 -12.896523375071748 77 12 3
-0.8631677450482373 -0.9755389905811516 -12.924288123780766 84 35 26
-0.8614815316395444 -0.9454612569842764 -12.993150847214764 77 53 49
-0.8291545233288107 -0.5463149636964983 -13.585058078440763 47 46 49
-0.8324626908503179 -0.5672163059484836 -13.60632751759146 47 45 49
-0.8354938647418846 -0.5852441629963803 -13.63042582657826 20 17 21
-0.8391883046207398 -0.6101517949723441 -13.647753782871632 9 3 5
-0.8396159738183111 -0.6011215929290712 -13.698645167184527 8 3 4
-0.8366255954708565 -0.5564862914015434 -13.785046837214612 7 3 4
-0.8418310764010909 -0.597048701309725 -13.787027040015351 7 3 3
-0.8476804883459852 -0.6443564760511773 -13.78216284358998 6 3 4
-0.8501687873953716 -0.6566580134958411 -13.812193695084384 26 13 12
-0.8558289322740927 -0.702054527323634 -13.809048391306288 45 17 12
-0.860046597771372 -0.7324237778523015 -13.82089422230402 34 8 5
-0.865595699601472 -0.7767356927723803 -13.818606641995867 38 9 6
-0.8723940173309296 -0.8341692413060535 -13.802894409136488 60 13 1
-0.8805509541614571 -0.9059084952905936 -13.772438569557922 93 36 11
-0.8863378379739418 -0.9528852549823448 -13.766909560167143 129 78 42
-0.8904992755031582 -0.9828462651789227 -13.778611302565597 97 51 20
-0.8936548724484926 -1.0022540481707294 -13.801072961652759 60 13 2
-0.8981159334038817 -1.0353911100343502 -13.80943647738874 117 65 45
-0.9032945902655295 -1.0761075128176225 -13.809916902542572 139 95 55
-0.9058983074119143 -1.0897233514819833 -13.838289032273428 104 45 13
-0.8934486068662093 -0.9445119056280946 -14.031336332058654 81 19 4
-0.8955177197893949 -0.9522972837149721 -14.066335927325612 65 12 4
-0.9090799351287376 -1.0815465452083437 -13.97478253966665 61 11 5
-0.911484539868449 -1.0929488084002754 -14.005795524374449 75 18 6
-0.9023483565603775 -0.9820952319670226 -14.165068315608256 97 43 28
-0.9049839413555913 -0.9957857695429766 -14.194165001494873 109 61 44
-0.9066678007464957 -0.9993604864162586 -14.233977654284097 108 64 48
-0.9087169807691712 -1.0067805113633366 -14.269831500662114 109 62 48
-0.9098891361452206 -1.0048458776495837 -14.315694920450717 99 61 51
-0.9113115739414124 -1.0055282660252702 -14.358917594855988 50 38 35
-0.9132562300261639 -1.0117331749755882 -14.39637564875846 59 40 34
-0.9152050561313725 -1.017951432762728 -14.43391384790651 101 62 48
-0.9196659881147436 -1.0509620098040742 -14.442792204111866 120 68 50
-0.9209230095472875 -1.0497505918533356 -14.488433834551543 120 67 47
-0.9219607344715859 -1.046145832940656 -14.536800909715454 111 70 51
-0.9231803221851368 -1.0444368405060205 -14.58327310727518 77 54 45
-0.9257721122737933 -1.0573922160158968 -14.613969459947786 50 49 52
-0.9239987821044768 -1.0234773954701337 -14.69575850026879 53 49 52
-0.9236911703654723 -1.0051944022375432 -14.760827555211067 92 60 52
-0.9318877618132558 -1.078297657395498 -14.726057740754484 114 68 58
-0.9342672643180061 -1.088875303534559 -14.759642250802639 102 58 49
-0.9342563454298622 -1.073663512229352 -14.821708497463465 103 59 48
-0.9193617060161624 -0.8977728489537018 -15.061538179056743 114 68 52
-0.923122180182526 -0.9229685731484825 -15.07982051746466 112 66 51
-0.9256206693253385 -0.9345245994757239 -15.113240171825808 109 60 48
-0.9271024629067074 -0.9350519918679661 -15.159019298834487 112 66 57
-0.926716831289686 -0.9152953262665058 -15.227611047265182 82 52 45
-0.9267183025755085 -0.8996469737603228 -15.291869545925934 61 46 45
-0.9258641799959977 -0.8746234332255804 -15.366915247209366 77 48 37
-0.9311291870825305 -0.9160272627514408 -15.36736875845995 115 67 52
-0.9293397022758676 -0.8806874268203302 -15.454482475559422 103 57 47
-0.929441800184105 -0.8658319268455905 -15.518743370581312 101 60 49
-0.9316362965692099 -0.8737193371613365 -15.5573810536199 102 60 44
-0.9344731962815631 -0.8885900565700009 -15.588148537286742 111 63 49
-0.936286543885935 -0.8922529241982424 -15.631789047219971 107 56 47
-0.9372175487258829 -0.8862155476566285 -15.686685126993304 89 47 39
-0.9386892032534079 -0.8860381023243393 -15.7350284125817 72 30 21
-0.9410806623704129 -0.8958998636088218 -15.771937313592142 80 27 13
-0.9472370384142141 -0.9470833676641615 -15.761101364401245 92 40 28
-0.9491441238631201 -0.9516083670428994 -15.80423710742128 82 44 38
-0.9509315794463122 -0.9547749549132343 -15.849076301652758 55 35 32
-0.952988175095287 -0.9608629294414239 -15.890635968022618 45 35 35
-0.9551144069305564 -0.967680940421932 -15.931453097090303 45 35 35
-0.9500148725331522 -0.8946396416483537 -16.06617350076005 43 36 34
-0.9387006365960565 -0.7355336074603374 -16.352973150208456 42 37 34
-0.9361287705269092 -0.6898204392758744 -16.45733860243285 39 34 31
-0.4049497422140419 2.787931710417581 -12.48841873562672 114 50 38
-0.41188945896107043 2.7323414563231285 -12.48675944467151 115 51 39
-0.42427418220210766 2.623380300503163 -12.445397943813326 118 52 38
-0.496340786085115 2.0624196342982044 -12.492437662480981 121 50 32
-0.6253533393193048 1.0517679306501142 -12.551339766207867 130 50 27
-0.633179316431579 0.9857031184991829 -12.53618069726668 132 52 29
-0.6387259494128483 0.9424853433523044 -12.539630939495252 133 53 30
-0.6425327871298864 0.9167387921338808 -12.557412846723288 133 53 30
-0.6493259313245604 0.8609158440838902 -12.55025014921366 135 55 32
-0.6571040294285581 0.7951139094227058 -12.534627522075114 132 52 29
-0.6598458401776344 0.7800333927905534 -12.56106813228834 133 53 30
-0.6673791600903545 0.7166026274076298 -12.547119678922922 132 49 28
-0.6744141983976991 0.6581387063073345 -12.537130354016057 129 51 30
-0.6817043108266083 0.5970375999625812 -12.524741811622025 135 56 34
-0.6866210668744916 0.5598842344110899 -12.532353616547624 134 52 30
-0.6915462439205475 0.5226202851464228 -12.539793618533908 134 51 29
-0.6964688133888614 0.4853571373690517 -12.547155165946641 133 50 28
-0.7007326929443135 0.4547480994376931 -12.560098099570666 131 48 27
-0.7045238289290432 0.4289219072998156 -12.57707504796197 130 48 26
-0.7107224286832189 0.37863445129737894 -12.573097427622745 128 46 24
-0.716645553604881 0.3311002032378214 -12.571337308674293 131 49 27
-0.7182309232092738 0.3276552110761983 -12.607392394729617 137 54 32
-0.7260030573693846 0.26124369637446065 -12.58918325817246 131 46 25
-0.7261477982863859 0.2724857974432 -12.637972253952814 134 49 27
-0.7341914537757621 0.20322006922580904 -12.617024233673003 132 47 25
-0.7409961827415674 0.14652111090060593 -12.606775344133851 132 48 23
-0.7410375610552397 0.15885645486181854 -12.65663336316202 135 50 27
-0.746833599920162 0.11240960661583799 -12.655176785594964 131 46 25
-0.7543873218423279 0.04793427883618939 -12.637754522758922 132 48 26
-0.7582323957594053 0.021367999717753605 -12.653505931703398 138 54 30
-0.7644172194936736 -0.029190188468147582 -12.64803131514094 132 48 24
-0.7693549162529663 -0.06700446968276808 -12.653696548582436 129 45 21
-0.7753917599121496 -0.11613266650854559 -12.649220296627998 133 48 25
-0.7808918146345708 -0.15979277055343122 -12.649471364794142 135 51 27
-0.7863064750982139 -0.20261350618237195 -12.650354337577866 133 49 25
-0.7917634570827888 -0.24590753421130795 -12.650698552559199 130 46 22
-0.7968801203607523 -0.28573411406519966 -12.654042726649415 125 41 17
-0.8018090911630337 -0.32365822144695144 -12.659002487418146 131 47 23
-0.8079083406713921 -0.3736895761800634 -12.652923724687922 136 52 28
-0.8146779306584766 -0.43069587236744944 -12.640365124767875 137 53 29
-0.8207852306338179 -0.4809186330975761 -12.633784773401805 135 51 27
-0.8234322997133675 -0.495389608307617 -12.659659934751573 128 44 20
-0.8297993601461722 -0.5483750084441983 -12.650333134951161 131 47 24
-0.8361023298965049 -0.6007531573623677 -12.641391160827988 120 38 17
-0.8415929715474179 -0.6447600967556131 -12.639982170540826 128 46 25
-0.836139581877847 -0.5751692658974203 -12.743278219061592 121 39 18
-0.8463693999102648 -0.6684127970495446 -12.696352852201045 127 44 24
-0.855684865794052 -0.7522748583619254 -12.657744691498586 121 39 17
-0.8492481868304841 -0.6722464583838779 -12.77135816011177 123 42 20
-0.8615080040259184 -0.7868718978497888 -12.703787738915235 133 53 37
-0.8658344006771387 -0.8189191953370285 -12.713025002791015 167 99 84
-0.8672143953714508 -0.8070819185132958 -12.802817160333916 195 120 94
-0.8771006835538513 -0.8972735964699172 -12.757155097604636 142 57 23
-0.8856790475347978 -0.9739012770657878 -12.723958712725494 109 31 7
-0.8777801266521841 -0.8779829387368023 -12.854365135600613 85 15 3
-0.8828231466510069 -0.9175813781007145 -12.856302645280776 86 16 6
-0.8858421950206574 -0.9359688517568756 -12.8784008707532 79 12 4
-0.8898912249181252 -0.9651748120579677 -12.890143379988416 82 20 11
-0.8914619131599343 -0.9683324495442154 -12.926870266220694 90 47 41
-0.8861181041435066 -0.8986696683748807 -13.033879146148006 70 50 48
-0.8754854494417695 -0.7594138801062975 -13.249342412338883 51 46 50
-0.8564705647310713 -0.5168134864258214 -13.609322323944092 49 48 51
-0.8599421018745821 -0.5394136863250552 -13.62899711830847 38 35 38
-0.8646517452035589 -0.5751370208807165 -13.63575675622329 9 5 8
-0.8680889049534934 -0.5973905096319703 -13.655720600036629 9 3 5
-0.8638879804478443 -0.5385464746919668 -13.755906291834167 9 3 5
-0.8672634503038372 -0.560069338010627 -13.776815811057336 8 4 5
-0.8728102641401976 -0.6046924757428593 -13.774738944207321 5 4 4
-0.8741356219558606 -0.6044071893138545 -13.817342109625159 6 3 4
-0.8768747450154579 -0.619149340736592 -13.845030711977786 31 18 18
-0.8819627730552071 -0.6589413153752304 -13.847614919781075 40 15 11
-0.8875961110928544 -0.7045942060466226 -13.84419198790411 33 8 4
-0.8929193600924032 -0.746980407518226 -13.843924752238916 44 10 6
-0.9001969896928098 -0.8103246215148747 -13.82231464562117 68 17 3
-0.908240850607495 -0.8819619108010528 -13.792036460235089 113 56 29
-0.9137026767017336 -0.9260124703012496 -13.789553895068497 127 75 42
-0.9178561689292569 -0.9560653257918919 -13.801231645262895 84 35 14
-0.9214676764247786 -0.9803126410623086 -13.818802597799584 65 16 6
-0.9259947318933793 -1.01441437670577 -13.82623181209261 134 83 59
-0.9294449444157048 -1.036948134888429 -13.845500779259044 128 80 42
-0.9320760018446118 -1.0506557760436905 -13.873879988792005 94 34 7
-0.9330379614888965 -1.046339439330949 -13.920979634206738 73 16 3
-0.9349545774624729 -1.0522814736105683 -13.957571211963172 60 10 3
-0.9369722777256337 -1.059284879399586 -13.993147935962426 63 12 4
-0.9401105038285578 -1.0783865880408179 -14.016164223391606 82 24 12
-0.931541711292132 -0.9706421549732305 -14.172163652692316 101 49 34
-0.9330727372782861 -0.9721696838105371 -14.214066792083614 109 64 49
-0.9344321478806346 -0.971791962285999 -14.25809962278458 105 62 46
-0.9366748346259667 -0.9809684892840034 -14.292162442511529 115 68 52
-0.9379035743029074 -0.979086455294679 -14.338027960791443 80 48 39
-0.9391882244391919 -0.9777635058557674 -14.383442262375446 56 38 34
-0.9415130368076168 -0.9877336270744035 -14.416951086602365 101 61 48
-0.9437253364993967 -0.9964507113830114 -14.451871654943123 120 66 49
-0.9483382856698653 -1.0313737867672454 -14.458755572859005 115 59 43
-0.9497430963289116 -1.0312301457129713 -14.50328774838423 109 57 43
-0.9505852719514575 -1.0248774030822076 -14.554655608975565 116 73 57
-0.9517279807676291 -1.0217583631421112 -14.602698566466497 88 58 45
-0.9530711165661054 -1.0207847066557418 -14.64856817620803 55 47 46
-0.9538253976943472 -1.0132907577513208 -14.701677995882106 65 49 47
-0.9534631204046622 -0.9934497196752945 -14.76845186781707 110 65 50
-0.9596143591896928 -1.0452454959726278 -14.757053877212947 117 67 52
-0.9618309257012 -1.053729830706228 -14.793024296538619 104 61 50
-0.9623272270091937 -1.0431975153062742 -14.850021803113382 107 63 53
-0.9498171073973287 -0.8888755946328253 -15.06603945608236 112 66 52
-0.9526462809789968 -0.9038403135031885 -15.095670164519237 110 62 47
-0.9547791537739908 -0.9110774837811171 -15.133931162184636 113 66 51
-0.9561664600259991 -0.9100142427092761 -15.181535869937669 97 60 52
-0.9562110643015291 -0.8939934232891815 -15.246004194080164 68 46 42
-0.9558537437688502 -0.8734178933282717 -15.315824818486245 61 47 46
-0.9560567814695335 -0.8589777431339245 -15.379028735462034 86 54 43
-0.9548034949281164 -0.8282302279808063 -15.460854179600606 113 65 47
-0.9572437456172639 -0.8385488787773943 -15.49660377748336 101 54 43
-0.9582929688190673 -0.8333082694642728 -15.550073297171568 104 61 49
-0.9614871557187445 -0.851979420075752 -15.576536065354107 107 60 45
-0.9649598276771865 -0.8737583275941843 -15.599479720718886 113 63 49
-0.966352601496185 -0.8722307656206603 -15.649083532238212 102 54 44
-0.9676617197383539 -0.8697074416535324 -15.699989369879507 84 44 36
-0.9700292265675186 -0.879011587676378 -15.737456288758064 71 26 16
-0.9709150882496939 -0.8716224296426676 -15.794271663655287 90 38 23
-0.976822802616312 -0.920701094887888 -15.78594902396004 93 47 35
-0.9796999359893138 -0.9356818498049035 -15.817017608496723 74 44 39
-0.9746045727475475 -0.8606639986259763 -15.952884516875155 52 35 34
-0.9735012692610555 -0.8305176509596812 -16.037037279277424 46 36 37
-0.9727870739923576 -0.8046434395015805 -16.116549084064772 45 36 36
-0.9731134006394554 -0.790435887762591 -16.182695886515653 43 37 34
-0.9678630634037098 -0.6947070262476842 -16.395249676892647 41 36 33
-0.9604330239091126 -0.5919419835745465 -16.567285563645203 37 32 29
-0.39572585515976966 3.1369828989235122 -12.542378033461706 109 63 56
-0.4275917489679171 2.8722632689050815 -12.507223965783762 111 49 37
-0.4392495079570289 2.7691827064396204 -12.4707847821983 114 50 38
-0.4440146966542009 2.734651624643207 -12.484640072186469 116 51 39
-0.5274819526665213 2.041847012012199 -12.394764941183858 121 49 34
-0.5282297358094066 2.047248676986862 -12.437851610822499 121 50 32
-0.5288176962433234 2.054299103174422 -12.482328547086244 121 50 32
-0.6616521932322647 1.0074807381415125 -12.550087337352503 132 52 29
-0.6691017348798157 0.9443577004927945 -12.537190323296143 132 52 29
-0.6728803243039805 0.9188169046748387 -12.555137300553293 133 53 30
-0.6801944603396335 0.8569786276532376 -12.54299426751 133 53 30
-0.689568086450374 0.7739170087307121 -12.513022134905949 133 53 30
-0.6956086885358432 0.7250222672020055 -12.511221991239285 136 55 32
-0.6981936239068606 0.7116406909740842 -12.538967256233343 130 48 25
-0.703892358566641 0.6662048700497838 -12.539884415837587 128 47 26
-0.7095739916925179 0.6209052141476556 -12.540798123860704 132 52 29
-0.7134272902476418 0.5944259825808738 -12.557461061375115 136 56 32
