ply
format ascii 1.0
element vertex 713
property float x
property float y
property float z
property uchar diffuse_red
property uchar diffuse_green
property uchar diffuse_blue
end_header
-4.4093758893185875 2.579410071326512 -12.52193900804182 111 45 29
-4.433343619451563 2.767487516616974 -12.675617168918489 99 40 26
-4.4375892254560325 2.8377377565927997 -12.646053182147094 99 40 28
-4.4386165237842725 2.8078388804466154 -12.711003392970909 99 46 33
-4.440628251966945 2.808412566641973 -12.747291469041926 93 46 33
-4.441639975528205 2.777260628580165 -12.81388047536715 82 38 27
-4.449057636904194 2.8212309675655103 -12.88333061973194 95 60 54
-4.451612671347627 2.8384614547438956 -12.904047597825155 98 64 58
-4.454219491842345 2.857350455617965 -12.923171469007336 116 79 71
-4.45676245160975 2.874166685636987 -12.94430226168645 56 25 19
-4.458580066659202 2.8672931551700387 -12.98845376218014 36 12 6
-4.460404630586405 2.8603933531006867 -13.032774047284072 32 8 4
-4.4622362003642175 2.853467690466366 -13.077263537704482 31 7 5
-4.464237146296164 2.851893116138493 -13.116655315051174 28 6 3
-4.466647859592109 2.863753117473351 -13.142962763671934 26 5 2
-4.468293500397346 2.849939683395891 -13.194606755323157 25 4 2
-4.470101312012535 2.841243488146631 -13.241379443309977 25 3 1
-4.470105093199004 2.7712664748829043 -13.349038027008005 32 5 2
-4.474193041023096 2.8391643224859493 -13.320177808071122 50 10 1
-4.476367438498705 2.8421986549098452 -13.355688266310825 93 39 23
-4.477156214138481 2.7974695345872416 -13.439032665076361 158 103 83
-4.480844972754947 2.8521974463280486 -13.423045344208841 164 111 87
-4.48457273211238 2.9086638111448293 -13.40510578028023 147 102 69
-4.487683245950455 2.9439905408685663 -13.408263457710042 127 79 50
-4.489638914376558 2.9389610018729213 -13.452130617738263 112 68 50
-4.492410852728003 2.962474114103105 -13.467195813851703 93 60 50
-4.494336230135865 2.9559906417710673 -13.51273869864475 85 60 56
-4.496234967263651 2.9482678972242136 -13.55969472322288 80 55 48
-4.497865456426835 2.9306109849016106 -13.616968058711736 72 42 36
-4.500217762576389 2.9385898487300004 -13.648163532527509 70 36 30
-4.502904828052453 2.958593698378116 -13.667056001621667 83 39 30
-4.504904316982021 2.9534950536900526 -13.711839069300614 118 66 52
-4.506992793681048 2.9513790006839784 -13.753680643137084 128 89 74
-4.512316842609991 2.8263045826470705 -14.044351772903648 115 91 86
-4.513382481341509 2.783431951085781 -14.129957363133414 115 90 86
-4.514635465622782 2.7469203230487595 -14.209244524426664 111 89 87
-4.517204528006501 2.7601562724513933 -14.23636224093538 112 89 85
-4.519744074458487 2.7721709435258104 -14.264812299298482 113 89 85
-4.524270798803919 2.774316992719725 -14.345151733931257 118 95 90
-4.526904320731164 2.7895826835661204 -14.370339750237395 117 96 92
-4.529326718866138 2.796430443297541 -14.404569350472148 108 86 82
-4.5314567417341625 2.7914546175880677 -14.451575422868725 100 71 67
-4.533190004520307 2.7702292842094884 -14.51623407594809 87 46 36
-4.535317401897205 2.764366081108448 -14.56455596875999 99 48 31
-4.536959092733437 2.738399412837447 -14.63481241264789 130 86 66
-4.538743943110676 2.717660333834738 -14.699676624915192 117 85 69
-4.540542815319173 2.6969309460950948 -14.764785014254217 99 67 58
-4.542374034576197 2.676969765693432 -14.82930996202642 84 47 43
-4.544302640585761 2.66051020305418 -14.890250605859347 74 34 21
-4.546283408781884 2.6457204768088394 -14.949587684025461 109 68 55
-4.548223429105402 2.62869328264322 -15.011611952648078 120 87 78
-4.550343579882186 2.6188154939751067 -15.065972323649959 107 76 68
-4.552140456627509 2.5945732168812237 -15.1364448636925 111 76 68
-4.5530117565064625 2.5295206209511623 -15.2525611098958 83 57 51
-4.588307872504554 1.9520675475119598 -16.792543440261475 108 103 103
-4.592019751692876 2.0071828716415583 -16.776387670056643 114 109 109
-4.595425601404677 2.0470799196753102 -16.77797537856774 118 116 117
-4.272305596557379 1.2408263647966473 -12.567983104335209 213 213 214
-4.277851921657897 1.3317288929053888 -12.528241698246312 193 184 183
-4.283346116807078 1.4217769721061346 -12.488873909725324 112 90 86
-4.288235426835227 1.4968950710289928 -12.461794800880039 97 61 53
-4.292577905929722 1.558418604294996 -12.445979570599485 100 53 43
-4.29506814514672 1.5727648891120314 -12.470108601550159 105 53 43
-4.298712789590869 1.616755434576599 -12.46896007150185 105 51 40
-4.302111260463474 1.6545623424441755 -12.472983204369662 107 51 39
-4.305325166610955 1.6877177388369153 -12.480908173912846 109 52 39
-4.309603686494269 1.7486182684742015 -12.464876851008452 109 51 39
-4.313198861959885 1.7919963711096392 -12.463768262145884 107 49 37
-4.332738351897056 2.0017897739910904 -12.498915068993 109 47 34
-4.333285748010589 1.9647803384398994 -12.567908899173329 108 46 33
-4.336641834473975 2.0026658294703212 -12.571009522692616 109 47 34
-4.3422035842683115 2.100037593582921 -12.521299671142812 108 46 32
-4.34596789885784 2.1494406017281955 -12.513820948429395 108 46 32
-4.349896285096271 2.2035151697271838 -12.502022811154207 109 47 33
-4.353544323533504 2.2502229069953508 -12.496629291403341 109 47 33
-4.357341418495084 2.3012087657355824 -12.487257603656083 108 46 31
-4.3604644506570915 2.333958804211207 -12.494114666288265 104 41 26
-4.364456946282666 2.3907377062478536 -12.479234906054087 104 42 27
-4.367409365777159 2.419078391051193 -12.48987244487179 108 45 30
-4.370994260542376 2.4650285654265467 -12.4844915672243 107 44 27
-4.373705988398513 2.486885142629694 -12.500880448077357 107 44 27
-4.376978280648784 2.524429025153993 -12.502945349679116 106 43 26
-4.378622118414421 2.5164397524059527 -12.546560130245254 108 42 26
-4.382241470920133 2.5638740028432077 -12.539474499474437 108 42 26
-4.408747928572858 2.8242228650228 -12.625605505675981 100 40 27
-4.41085318148828 2.828941589138151 -12.657754349311272 100 39 26
-4.411458279875591 2.78934740686317 -12.7319332868476 95 39 26
-4.422720242605466 2.8316901608478693 -12.876795045799767 84 48 41
-4.425635136083499 2.8599195601625436 -12.886902626167714 93 58 52
-4.429053044973858 2.9035118836656846 -12.88211725716978 103 68 62
-4.431530404927587 2.9186311391048694 -12.904778068645953 101 69 63
-4.432916700121991 2.900278013684101 -12.959979411493379 33 7 3
-4.434565605902149 2.88967166991622 -13.007839710377478 31 8 4
-4.436140198887097 2.8764964590725883 -13.058374729932773 28 7 4
-4.438445450280542 2.8857288360521247 -13.087130893906782 26 5 2
-4.440583192644093 2.8896418356646736 -13.12116906252552 25 4 3
-4.440867330287984 2.8352748495686733 -13.212732353884025 23 2 1
-4.4425448770959814 2.8241254062163312 -13.261993063946477 25 3 2
-4.443182256588516 2.7797514638298546 -13.344359370677646 32 6 4
-4.44792320611128 2.865330313374245 -13.297898849315994 48 10 3
-4.450199444057077 2.8727535855808544 -13.328977681778968 78 23 8
-4.45240369131442 2.877750403413015 -13.36254911301335 98 37 18
-4.454081250664304 2.8656042215518553 -13.413390672215865 149 96 70
-4.457887640772199 2.9222199538731193 -13.395266197677765 159 113 84
-4.461204748227274 2.963256105713227 -13.392636764231526 143 93 64
-4.463508955303671 2.9713183331720137 -13.42322887439769 138 92 63
-4.466249990698857 2.993657735555588 -13.439403817444312 112 72 52
-4.468198160409311 2.9897806743534954 -13.482226612342506 91 60 51
-4.470052023242837 2.9825284076566083 -13.528626415516285 82 56 53
-4.471465213623491 2.9602605690312007 -13.59054195830279 77 51 47
-4.473853745451752 2.9703567173351884 -13.61949613423819 69 38 33
-4.476315506737737 2.9828322912266287 -13.646055608981516 76 36 28
-4.478710405707707 2.9929638163992394 -13.675073547277268 92 43 33
-4.480706856614306 2.9893833434207107 -13.71833491830954 118 71 59
-4.48222640549395 2.969172171501828 -13.778991245663303 127 90 79
-4.483452923962584 2.9384076413518567 -13.850866586071524 117 92 88
-4.486423597705631 2.8932889119368346 -13.978338605721241 114 93 89
-4.487960821806649 2.871846235721132 -14.041280573085949 115 90 86
-4.488988449094291 2.8319414201893505 -14.12390628292996 112 88 84
-4.48983938915784 2.7850818492269482 -14.214234574534311 112 88 84
-4.495107355732045 2.8171906649572653 -14.262487215041102 113 89 85
-4.497321199931254 2.817994854729439 -14.302887917198571 115 91 87
-4.499679114006618 2.82381309810223 -14.338049546727378 119 95 91
-4.50220634748621 2.8356575476385366 -14.36684237365418 116 93 89
-4.5041657713605066 2.826514284721852 -14.41822809400994 105 81 77
-4.506407936067809 2.827485837450957 -14.4588965326253 95 67 60
-4.508153441353061 2.809728505850863 -14.519915262456184 82 40 27
-4.50982439311948 2.788712082623971 -14.584698729078967 97 49 31
-4.511462163601839 2.76593357056783 -14.651651846816701 126 82 63
-4.513225905993738 2.747396516735619 -14.714250364990466 124 86 73
-4.515007326870117 2.7290440284204776 -14.776889002247442 107 74 68
-4.5168223492237125 2.711489398435825 -14.838894960913812 85 52 46
-4.518671826234142 2.694778908737879 -14.900210908998769 69 30 22
-4.520589096709944 2.6802248884693096 -14.959383383003175 106 65 52
-4.52255578690369 2.6671477892626188 -15.017144111816222 120 83 72
-4.524272104637504 2.6437480073710162 -15.08656109466117 106 74 68
-4.524889721038581 2.5761227893431453 -15.205426883567927 108 75 67
-4.526591071986152 2.5506350973304386 -15.277873090925553 76 52 43
-4.559913649845546 1.9709259015933975 -16.824470178510794 111 107 107
-4.564358483180668 2.0569808380962638 -16.771680250547902 116 114 115
-4.566847393128432 2.0523788378247225 -16.825832165215818 122 120 121
-4.235866601886688 1.130897126764105 -12.58952920508844 216 216 216
-4.241111838679437 1.2107338512888077 -12.559560512712757 216 216 218
-4.246318678471724 1.290011819156545 -12.529769195860052 210 204 203
-4.25172408971657 1.3744502398885894 -12.495345590325323 130 109 105
-4.2573223225052494 1.463958947599842 -12.456326879703767 100 65 57
-4.2616050259682465 1.5219338042301018 -12.443655114475913 100 54 42
-4.266584394595345 1.5971303152670728 -12.41617638340972 102 50 37
-4.268191898086545 1.5902274583904559 -12.458312674933882 107 51 40
-4.271878278788354 1.634152182519478 -12.457184667677659 106 50 38
-4.274937527865932 1.6628008120703175 -12.46901491302889 108 50 37
-4.278861528425999 1.7128554780249026 -12.462417796889788 109 50 37
-4.283645671853991 1.7844082624988822 -12.437154249887708 108 49 37
-4.304878697927456 1.984424853339049 -12.517336265010872 109 47 32
-4.307990963304001 2.0152582631020692 -12.526609521826714 109 47 32
-4.311028984042117 2.044276816078547 -12.537427273671952 110 48 33
-4.3168155262004 2.1437184366702136 -12.485771800574454 110 48 32
-4.320453761502945 2.1885304808694555 -12.482268394887925 109 48 31
-4.323930046946154 2.2293463911502522 -12.482195159121858 109 48 31
-4.327268901427951 2.266759452645105 -12.485051948698246 110 48 32
-4.330214609486119 2.2940979589988784 -12.49684697614413 111 46 32
-4.333832176785847 2.3389939459073297 -12.492809682423145 108 44 29
-4.337666935517674 2.3897502672236737 -12.483352383906215 107 43 28
-4.341035300753594 2.4285000779580006 -12.484588527969834 109 43 28
-4.344336632012822 2.4656279225539857 -12.48719195717865 107 41 25
-4.347629363064581 2.5026605744112533 -12.489786104528054 107 40 24
-4.350784656556947 2.5361815711313582 -12.495488153909161 107 41 25
-4.354147472848571 2.575332598132931 -12.49596145394219 107 41 25
-4.356399503879301 2.584966574908478 -12.523410747606441 107 41 25
-4.357703218499458 2.569112382031581 -12.57436225060457 110 44 28
-4.399644461858251 2.8791363679138176 -12.871908492232423 90 53 47
-4.403437536499441 2.9321275869778063 -12.857995180882877 96 62 55
-4.404221719637885 2.898839178855595 -12.927500088193804 112 79 72
-4.406310792762617 2.902813508658358 -12.961081657860781 77 46 41
-4.407338805570299 2.8758790367652765 -13.024870158269353 30 5 2
-4.41000891036896 2.8963992465026145 -13.042531623821546 26 7 4
-4.412485310607603 2.9112658593658 -13.065725525921685 25 4 3
-4.4147855051945335 2.920920005775014 -13.094065945807845 24 3 2
-4.4167997236114065 2.9220537809272136 -13.130858309886559 24 3 2
-4.4161576856071285 2.84429130288983 -13.245756031954455 25 3 2
-4.419476008024982 2.8835936472819057 -13.245128070020435 32 5 4
-4.422147075546677 2.903718913224931 -13.263454121391021 46 9 3
-4.426179479483896 2.9044779610101674 -13.339582823079404 87 23 6
-4.429156402881436 2.9337258810438556 -13.348853052729819 96 33 10
-4.4313042501666295 2.9378207552861992 -13.383365126655484 136 75 54
-4.434158331067559 2.963382652636006 -13.396308555542888 130 67 42
-4.436704021573089 2.979527052341158 -13.41874152933056 144 91 56
-4.4403543113387896 3.0297511004178794 -13.406615570722238 121 74 43
-4.442097603438489 3.0211089378031017 -13.454202705043464 107 66 46
-4.443539237292057 3.002801609314562 -13.511813731587115 91 60 53
-4.445135913799696 2.9889926620216842 -13.56504039986989 81 57 51
-4.447160113525447 2.988320547437268 -13.604978647961358 80 54 49
-4.4493373355551515 2.9922948582185027 -13.640251578012986 71 37 31
-4.4524735105377955 3.0265935672758335 -13.644314487554436 75 34 25
-4.454497792047539 3.025533618627027 -13.684888787461698 98 51 40
-4.456504808568753 3.0237183089281716 -13.726367564426521 124 74 61
-4.45770792571642 2.9957632142943043 -13.79518552621677 127 92 83
-4.459025313627579 2.9710355900752052 -13.860915996405243 113 89 85
-4.4629101997969585 2.8919113341366876 -14.064900465682822 112 88 83
-4.463758182959756 2.849791078463241 -14.150078101454511 111 87 83
-4.466148147455154 2.8583154518036427 -14.18198922129614 111 87 83
-4.468229899435795 2.8564147439658347 -14.225041669568924 111 87 83
-4.47018627369555 2.8500680916778673 -14.272961878002432 112 87 83
-4.472619557883129 2.85956065995563 -14.304120248579869 114 90 86
-4.475042612826932 2.8685941114310847 -14.335833447386388 117 93 89
-4.477170052300493 2.8674083381325755 -14.378592902746185 116 92 88
-4.479128716494063 2.860191564087007 -14.427980536531123 101 80 75
-4.48126227758635 2.8587164291004328 -14.471330833853752 90 60 53
-4.482793270240832 2.836064353162711 -14.537764255068499 79 38 25
-4.484354367127089 2.8139816389579844 -14.60384383635717 95 48 33
-4.486245143143174 2.803004028757237 -14.658081480170292 125 79 62
-4.487876170154777 2.7824875262749256 -14.72294055747474 127 90 76
-4.4896285555039475 2.7658131022509433 -14.78384265706272 111 79 73
-4.491473186785246 2.752005267353514 -14.841825059392013 94 60 54
-4.493299911624871 2.7371505276277013 -14.901176586258117 85 41 29
-4.495207573429257 2.7248052649793513 -14.957975651123634 119 77 63
-4.497054774757299 2.7098652008410173 -15.01785965181919 116 83 74
-4.496902019939868 2.6212403064653387 -15.159915863774799 104 69 60
-4.498555067394927 2.5978260343253687 -15.229938098550287 111 77 66
-4.5005939362498495 2.588173735253789 -15.284849065476573 67 44 38
-4.527428877704421 2.0324391373094555 -16.70889788576008 104 100 99
-4.5335710996061795 2.077927519004364 -16.752332468013243 114 112 113
-4.203608959704919 1.0806592121531686 -12.597627460513635 216 216 218
-4.2091661706294135 1.1648216698582736 -12.564268760582024 216 216 214
-4.214508455591354 1.2444109970093828 -12.534425404078494 214 211 211
-4.219826169277326 1.3237763326944023 -12.504479473392177 162 145 144
-4.224542786844105 1.3895921885883125 -12.485647310571615 104 70 65
-4.229338151183444 1.4575006364911935 -12.464823137325936 98 55 47
-4.233514714612341 1.511305305720808 -12.455702094568359 101 50 38
-4.238365336389873 1.5810261751269596 -12.432899341214924 103 49 37
-4.240158801168244 1.5795565635812236 -12.470466841477027 105 49 36
-4.244568339147933 1.6393168516773287 -12.455849722369239 107 50 37
-4.246131841571309 1.6323724189114666 -12.498160576618659 108 49 35
-4.252508502155592 1.7388249798129385 -12.443204527351764 109 51 37
-4.256293494000712 1.784473555502184 -12.440191534784393 111 51 40
-4.281964397703389 2.043801191378864 -12.504626123489313 110 48 33
-4.285986442598471 2.0963783331637647 -12.494554377608832 111 49 34
-4.290060701073626 2.1504432777493987 -12.48299250329363 111 49 32
-4.294107264204046 2.204054502914124 -12.471654748795698 111 49 31
-4.297822416828633 2.2497476567234944 -12.46720019694521 110 49 31
-4.301214488014999 2.2876518932189667 -12.469573764587864 109 47 29
-4.304569208173835 2.3247564962389635 -12.47256650218766 110 44 30
-4.307708485863218 2.3566362688923865 -12.480164636254148 110 44 30
-4.310865657664519 2.3890473311289453 -12.487215954309491 110 44 29
-4.314100406519535 2.4234856708901393 -12.492362637765662 109 43 27
-4.31692959908116 2.4478673223180856 -12.506552242441082 110 43 27
-4.3205079958424 2.4911204649257757 -12.503541326138809 110 43 27
-4.324065365402251 2.534008621514598 -12.50073518839749 112 45 29
-4.327923658617034 2.5846771646799773 -12.49068184658087 113 47 31
-4.330793817130592 2.6104695340928643 -12.503291408553466 105 39 23
-4.333957163778948 2.6437823391624553 -12.508941264409021 105 39 23
-4.373782572604529 2.9003023232786775 -12.855028381509204 82 42 37
-4.37683028534339 2.9313082069698204 -12.862310420312106 88 55 47
-4.379060283992486 2.9401543222877757 -12.891003739541091 99 66 58
-4.381321726959334 2.9497828472318135 -12.918991408604178 111 77 71
-4.382742600099458 2.936284358858855 -12.969576058780662 50 23 20
-4.383897615828062 2.9152107387561292 -13.027747436335616 25 5 4
-4.385920474285843 2.9178133199653074 -13.062928284560863 24 3 4
-4.387406933628727 2.90539739040282 -13.112968529586965 24 3 2
-4.3886384701118715 2.885625374987625 -13.17043964181918 24 3 2
-4.390903718825186 2.894464788564674 -13.199833892041893 25 3 3
-4.391408064532341 2.853747740608469 -13.278436606024357 30 4 2
-4.393990050850134 2.8711529653290766 -13.29956712637587 46 10 5
-4.403473756655322 2.9729256175374594 -13.313296334386171 89 23 6
-4.405047532121065 2.961563159154684 -13.363266393219948 99 30 12
-4.4077003294965955 2.981027082273087 -13.382306869150746 116 46 22
-4.410720632757087 3.0111273213184777 -13.390581531478043 131 73 39
-4.413261340498936 3.027387699520471 -13.412837151354541 140 90 57
-4.41537891918264 3.03127592097377 -13.447700731267709 115 65 39
-4.417567168101479 3.0371029958635534 -13.480673826331543 104 65 49
-4.419081477140922 3.0229725087019927 -13.534153317208878 86 59 50
-4.420916310486074 3.0180252346592162 -13.57840090129947 80 57 50
-4.422286616964816 2.9990644685672514 -13.637217352811877 75 48 41
-4.425744470021458 3.0420471574063237 -13.632304732460737 72 37 27
-4.4283390732189645 3.0593717662395408 -13.65381817474448 80 37 26
-4.430900786752069 3.075689239405171 -13.676388359104248 108 59 47
-4.433426118350086 3.090879927698235 -13.70014894831648 125 81 68
-4.43586986705937 3.1035543564601626 -13.726561271658797 125 92 83
-4.434479019250212 2.999089475168545 -13.875702208250424 115 92 88
-4.4351200763657905 2.9557888002942407 -13.961341000185968 113 95 93
-4.436783877179292 2.9434152816193704 -14.014779084395808 110 90 85
-4.4378995404171775 2.9137610479901177 -14.086665826856873 110 87 82
-4.4402554083864 2.922226425023524 -14.11846433885161 111 87 83
-4.441562653669254 2.8977924572338924 -14.18528659500036 111 86 82
-4.443432479956523 2.8906052822321096 -14.234000023333904 111 87 83
-4.445825997279803 2.8996906468699493 -14.265488468327778 112 88 84
-4.447990316889255 2.901396302510907 -14.30495093562093 113 90 86
-4.4498257728558315 2.892431616505167 -14.355992637249415 116 93 89
-4.451654651465342 2.8829654897364447 -14.40775216229704 114 91 86
-4.454541976097654 2.9073054448039626 -14.423149427660238 103 79 74
-4.456283457122296 2.8945813370302638 -14.478699057099888 95 64 59
-4.457534660388788 2.865558642369529 -14.552171324592717 78 39 30
-4.459513164020976 2.8598258502641576 -14.600555675358445 97 51 36
-4.461071645877899 2.8400045567594034 -14.6645061985426 123 77 59
-4.462669192531879 2.8210521363325327 -14.72775419339197 124 86 71
-4.464439688843183 2.80743235482921 -14.785383484650772 115 82 74
-4.466149276251312 2.7914119528453982 -14.845873752847503 98 61 53
-4.467932933923807 2.7774869664115345 -14.904275754843972 104 64 51
-4.469703156998158 2.7627327835846422 -14.963814724059404 129 91 76
-4.471322537804602 2.7424642057574387 -15.029711725540118 112 79 70
-4.471143141756558 2.660269740247479 -15.164957513338862 101 68 62
-4.473427221818642 2.6615810534252393 -15.20742862776413 109 77 70
-4.499579129330283 2.0684091173686676 -16.72040839440463 108 105 104
-4.502327913460528 2.078694617894925 -16.756821138623653 112 110 110
-4.50475245615382 2.0762082651153904 -16.808451181085672 116 114 115
-4.50814073594495 2.111130673757546 -16.8157843057094 120 118 119
-4.522558601509528 2.2874752799774383 -16.80015577314078 135 135 135
-4.167746490277366 0.9546738064748119 -12.668421345342265 216 216 218
-4.182566617798097 1.1986214042913161 -12.539100963291446 216 214 212
-4.18802199140411 1.2783320935759726 -12.509074613977251 178 164 163
-4.1927828260929525 1.3430165560843514 -12.49137059518823 107 76 72
-4.197724590081569 1.411953932245944 -12.469866695756519 99 58 50
-4.201436854490113 1.453840724224733 -12.470961357673893 98 52 42
-4.2048333567799805 1.4888145186425952 -12.477800266600596 103 49 38
-4.208017268260325 1.5191238077675795 -12.488524409402533 105 49 35
-4.2136852018388185 1.6051432913568595 -12.451747166951481 106 48 34
-4.217550076140931 1.65102592352837 -12.448924758167367 108 49 35
-4.221117955387132 1.690365885548199 -12.45157583116154 109 50 36
-4.224753686963814 1.7313511134312538 -12.452714167079911 109 51 37
-4.260230468963487 2.1277221379262956 -12.470016294027566 112 49 34
-4.263451835326649 2.160417017120089 -12.477331155139764 112 49 32
-4.268076248172836 2.226016599133157 -12.4553102834479 111 48 31
-4.271356927397884 2.260367804274108 -12.460922729094172 110 47 30
-4.2742780460806 2.2863502132218967 -12.473942028381977 111 48 31
-4.279770496700239 2.373078660760144 -12.43242766923503 111 45 29
-4.2828288081712556 2.402583331380023 -12.442047419144389 111 45 29
-4.2842651409592545 2.393626896222628 -12.486315653151392 109 43 27
-4.290643099617933 2.5022423721327467 -12.424335390774054 109 43 27
-4.290320076546798 2.4512554477561315 -12.506730084722793 109 43 27
-4.294210296156153 2.5008498671740975 -12.497945950902466 110 43 27
-4.297527242244898 2.536850404899928 -12.501408278253017 110 43 27
-4.301177872868145 2.581012148489399 -12.497309100029085 113 46 30
-4.304398631891675 2.6149310522414204 -12.502479075297224 103 36 20
-4.307727720574183 2.6515786466035305 -12.505056265759496 107 40 24
-4.352025890059695 2.9774554278998 -12.82122187377366 81 43 35
-4.354054006307108 2.981742619616247 -12.854223308102704 93 59 50
-4.356124467933036 2.9870231847792468 -12.886338879358318 100 65 58
-4.35817781940201 2.9917612150805795 -12.919058337684882 104 71 66
-4.359386411639367 2.9743457561833955 -12.973521138068993 38 12 9
-4.360420969240137 2.9521039636529647 -13.032920542774484 21 3 2
-4.361448015713295 2.9293600210515542 -13.093045018084235 22 2 1
-4.364389986616543 2.906459152638078 -13.191655683129579 25 4 3
-4.365858647938211 2.8946022253888257 -13.241622919165025 29 5 2
-4.367812883923546 2.8954735267652607 -13.279101975287617 42 6 2
-4.373367568900792 2.941084251260956 -13.31047390613993 68 16 5
-4.3783975312306795 2.972586309262657 -13.35595811395328 77 15 3
-4.381322339894882 2.999454428042557 -13.367507768155583 95 29 11
-4.384008421209604 3.019860801690128 -13.385552644200853 106 43 16
-4.386573647291468 3.0369623295941794 -13.406944259207714 143 90 57
-4.389030358047475 3.0510590784796072 -13.43140601626909 138 88 57
-4.390806009992829 3.0462778368117887 -13.475170497045735 113 66 42
-4.392579930334683 3.0412541494077416 -13.519322865846174 97 60 45
-4.394741581089724 3.0468451913562076 -13.552717155907631 81 57 50
-4.396903675848669 3.052336903522068 -13.586293380480448 76 55 49
-4.399035059192555 3.0568514850920936 -13.620959324666 76 45 36
-4.401642054515191 3.074673453737878 -13.641929143347024 72 34 25
-4.404159979028107 3.089958436773137 -13.665542030774983 86 40 31
-4.406506183564193 3.100320302323678 -13.694306350320767 117 68 53
-4.408913590467689 3.1123571032177253 -13.721373534514136 129 86 71
-4.410676475329826 3.105819331086991 -13.767943860975427 120 92 87
-4.4127835409707865 3.1089868050470963 -13.80447176853792 117 98 97
-4.412664453644492 3.047510663206233 -13.90921268137581 111 93 88
-4.412532644153392 2.9849512506658042 -14.015587234224775 108 87 82
-4.413946409741819 2.9668439302032885 -14.075349830378357 110 86 82
-4.414699561015557 2.9290016922182565 -14.15631625253137 111 86 82
-4.41693238577096 2.934285962609321 -14.191665361434579 111 86 82
-4.419227427415647 2.9412833472091977 -14.225271056342288 111 87 83
-4.422319996089584 2.971904213169659 -14.233629534305638 112 89 85
-4.424127101143287 2.9641862995402555 -14.283138588365578 112 90 86
-4.424723845360934 2.9198510726489992 -14.37229739262372 115 91 87
-4.427380254605117 2.9370838502297882 -14.395279896467137 114 90 86
-4.429515068018368 2.938474516310362 -14.435457464804058 106 80 77
-4.4308772151277696 2.9161463127845613 -14.501544558091457 96 67 62
-4.432898014120111 2.9135796827321796 -14.546342218709189 84 48 39
-4.434488805404161 2.897566813521707 -14.605987987372785 94 52 37
-4.436033760672501 2.8797867960629357 -14.66779820419573 115 72 54
-4.437604986468029 2.8624521454530374 -14.729356638847268 122 84 69
-4.439128797023576 2.8432672794701084 -14.793192745785891 118 83 75
-4.440889737206746 2.831130907334887 -14.849479384619421 114 78 68
-4.44251581172702 2.8144169448869594 -14.911050838067764 134 95 80
-4.44396885497924 2.7918446201755422 -14.97937714676975 126 92 82
-4.443866154668782 2.719273764077019 -15.10377673073203 102 73 69
-4.445979528454644 2.716706072008015 -15.150423593197022 100 68 61
-4.446350215844711 2.6578068240618586 -15.260448039173388 109 77 69
-4.1504923136495515 1.152641186013109 -12.543796560038285 216 215 215
-4.156086440339723 1.2326993557493218 -12.513689430691297 202 189 187
-4.161092845804157 1.3006173973530712 -12.493453989368067 119 91 89
-4.16681604571752 1.3839952950010748 -12.46000315888899 101 58 53
-4.170966524199777 1.4342286146983847 -12.454152365895553 101 53 43
-4.173936837710652 1.459439537918584 -12.469283858007257 102 51 40
-4.176651136365664 1.4792035730775153 -12.489000786822238 105 49 37
-4.179543725694019 1.5027926177317026 -12.505467256148378 106 49 34
-4.18655673511273 1.614998612880135 -12.446420569641932 106 48 34
-4.193464349889334 1.7254172332149027 -12.388443124412412 107 48 34
-4.1950987959604 1.722337737627929 -12.42726533364095 109 50 36
-4.197438355343413 1.7344212073690537 -12.453168381786394 110 51 36
-4.238995235792533 2.218027020039317 -12.429410930838529 115 50 35
-4.242546773291408 2.2577567716252327 -12.430259265373769 114 48 32
-4.2458293207912945 2.291563706177601 -12.436284995840932 112 46 30
-4.248934913698226 2.3214704192971007 -12.445723695112171 112 47 31
-4.253371135791939 2.381493560772938 -12.428080108123996 111 44 28
-4.255811709683729 2.3965509561586353 -12.450690174881782 110 43 27
-4.257824158453969 2.4018612074653207 -12.482116935269387 109 43 27
-4.26116328068496 2.4373178661764126 -12.486326927807907 109 43 27
-4.264308902179749 2.4684506352150164 -12.494375117326816 111 45 29
-4.268091957858166 2.5142639423068642 -12.488993853808338 108 41 25
-4.271701211858747 2.5562426883200082 -12.48697164236069 112 43 28
-4.2755536390587014 2.603965795422531 -12.479567359121802 113 45 29
-4.278842297115267 2.6388272278692906 -12.483820528976484 110 43 27
-4.2823782376482145 2.6795211863729014 -12.482616700072152 109 42 26
-4.285401229660275 2.708416487032112 -12.492192872922661 107 40 24
-4.325940411533094 2.9882366753045133 -12.814312359192115 77 36 28
-4.328855874973769 3.0150375904567444 -12.825466617237463 84 47 38
-4.331156520897858 3.0267427842709056 -12.851257767690413 93 56 50
-4.333222818840145 3.032606362792582 -12.882785654068048 105 67 60
-4.334862252707818 3.027791704370297 -12.924830903564716 95 64 56
-4.340372919016729 2.9334255693843776 -13.206805089699744 31 5 2
-4.345082493748361 2.9575040416999796 -13.259390511202044 54 10 4
-4.347307227443882 2.9177459325806394 -13.376215829750997 65 15 6
-4.35030905254075 2.946007698286472 -13.386500677647962 68 13 6
-4.353242227438477 2.972565780197355 -13.398452440577687 76 13 3
-4.357167738440203 3.0248734141074163 -13.384289027874265 95 29 10
-4.359793215050075 3.0436416222861125 -13.403988711004397 129 69 39
-4.363019118053903 3.0780707823098243 -13.407741632086864 146 94 59
-4.364835661989918 3.0757130452004793 -13.448973505327718 126 77 44
-4.366891102399708 3.0794725891404777 -13.484065354658842 109 64 40
-4.369280325997073 3.0919221696502968 -13.51032110345481 95 60 46
-4.371138426925393 3.090254371062054 -13.551158039033472 83 55 50
-4.372859653820184 3.0847872837549932 -13.596042533789436 78 52 47
-4.374949088494363 3.088956909327689 -13.631088893974512 72 41 33
-4.377567150930861 3.107174223208421 -13.651628633741542 75 35 27
-4.379844537202482 3.1162197116659724 -13.681730826507303 93 45 31
-4.38177602951576 3.1158431145412413 -13.72173942778829 122 73 57
-4.383279114844742 3.1036935887808914 -13.774203270818665 128 93 80
-4.385435683287077 3.1090829363538646 -13.808422460462001 116 94 88
-4.386109507277458 3.0738282098550442 -13.885565123610043 116 96 94
-4.387480723942283 3.057269857481457 -13.943274979498424 110 90 86
-4.389656302290721 3.0625847138043634 -13.978015275400661 109 87 83
-4.38890262793365 2.9867177793576607 -14.099149066977613 109 85 81
-4.390427080117186 2.9733647873351554 -14.15421298202101 109 84 80
-4.392996375521367 2.9888934428171225 -14.178596440542966 111 86 82
-4.39633251488842 3.025878335702112 -14.179996473985552 111 87 83
-4.397929473233245 3.0140637370337435 -14.23376934268904 111 88 84
-4.399535200610483 3.002227552340285 -14.287759608058114 114 90 86
-4.401105130467033 2.989103183601446 -14.343338306186462 114 90 86
-4.402713888950557 2.9768002410322305 -14.398229968873762 114 90 86
-4.404224488028275 2.961405478455694 -14.456684837836724 103 82 77
-4.405998223276516 2.953268425772416 -14.507441701711638 94 71 64
-4.407769177589656 2.9448021390651578 -14.558734213165973 89 56 47
-4.40935315131925 2.9306555439545923 -14.616437823159018 92 52 42
-4.410899268450411 2.915097650849895 -14.675909412753395 110 65 51
-4.412280396971859 2.8943848264798167 -14.741294797210479 121 79 69
-4.4140162634556575 2.8837342971099638 -14.79580215871379 129 88 80
-4.415513594680771 2.8657499655966454 -14.858645361750249 140 99 87
-4.4169651458685575 2.8460513954730544 -14.923640174221198 133 95 85
-4.416777141692505 2.7770675973074335 -15.043910322908618 111 83 78
-4.41842509698844 2.7622688102434836 -15.104090055834462 94 68 63
-4.419079440213755 2.717211223531055 -15.198470898599737 104 69 62
-4.420101506466131 2.6826519450019335 -15.28145376777643 106 70 65
-4.108608168682743 0.9467816326116711 -12.644033369121177 215 217 217
-4.115464900022426 1.0494304168969473 -12.595864118709766 215 216 214
-4.122248406909592 1.1509835636811605 -12.548208218513276 212 204 202
-4.128703856134258 1.2462557506722547 -12.505401806864594 141 115 111
-4.134372832359088 1.3258650186735457 -12.475345727702193 104 63 59
-4.138124642507145 1.3666114055303078 -12.477637453163002 103 52 45
-4.140430690778137 1.3778655151214716 -12.504667250270373 105 53 42
-4.1441458817535555 1.4179933530190771 -12.507346913856932 105 49 38
-4.14784159388505 1.457820195576553 -12.510180858265127 108 48 37
-4.152114458787036 1.5096459589756837 -12.502720318608947 106 48 34
-4.157204158586876 1.5785132264551516 -12.48057938412377 105 47 33
-4.1602730607236165 1.6057527023757654 -12.493768786175961 108 49 35
-4.165709639489103 1.6822105807965997 -12.464736463504778 110 51 37
-4.167919333418279 1.6917589962748147 -12.492932188385305 110 51 37
-4.170034300626749 1.6992810728402077 -12.522923392098818 111 49 34
-4.217897295703059 2.3061975802687975 -12.39033497404575 114 48 32
-4.220558222662915 2.326121056556775 -12.408635496079238 114 48 32
-4.224208809078168 2.367417035575266 -12.407801898600233 113 46 30
-4.22694084044865 2.3889490444968766 -12.424592107026408 109 42 26
-4.229266649467723 2.4016781356143806 -12.449292371719867 110 43 27
-4.232227567202558 2.4281977637375904 -12.461574361508514 111 44 28
-4.234824737146788 2.446820737460331 -12.48096565648248 109 42 26
-4.2379277761773375 2.476513818249712 -12.490306226037486 116 49 33
-4.241633153659466 2.519485931812121 -12.487497595440818 110 41 26
-4.245334601458667 2.5625061051232514 -12.484517985360284 111 42 27
-4.2493983901357115 2.61365825254937 -12.473962629931428 112 43 28
-4.252506705548264 2.6438478658905487 -12.482490393503596 108 39 24
-4.256151426149904 2.6860069946035674 -12.47993123812131 108 39 24
-4.260290123422159 2.7392937016010555 -12.466967362169742 108 39 24
-4.301067808990412 3.026783129942026 -12.780542026780672 78 32 23
-4.303419017767053 3.040096627903485 -12.804684554146542 77 36 27
-4.306119750753599 3.06158717225221 -12.820901163139215 88 51 44
-4.308449044962949 3.0743433179604374 -12.845623614582808 97 60 52
-4.310386516846358 3.0777996557616305 -12.8794786284518 113 77 68
-4.311230671827708 3.055230089194813 -12.938958324354765 78 47 42
-4.317624749260191 2.9907045461679793 -13.191759262755403 44 9 5
-4.320336216690893 2.922048441395666 -13.375679632986422 55 12 5
-4.323586470841052 2.95592309855945 -13.380311712230704 60 13 7
-4.326687619002321 2.9862434339688075 -13.388447617585758 68 13 4
-4.329546694936866 3.0106863457314548 -13.402470771613459 80 18 3
-4.3324661806431894 3.0366577669802526 -13.414909962873775 102 37 14
-4.336532089300352 3.09107458326596 -13.398333352726421 122 61 29
-4.338753945454796 3.099901744032855 -13.428121903982948 146 93 55
-4.340830342445109 3.105028968943463 -13.461760623890648 125 75 42
-4.34317845536401 3.116859727926423 -13.488593528051549 118 70 46
-4.345525483399336 3.1286119797952407 -13.515549735389726 97 59 46
-4.34747251308249 3.1302270006866406 -13.553024362656501 84 55 49
-4.349450160846575 3.132490820452831 -13.589930099906539 80 53 46
-4.351029284221295 3.1245115166807595 -13.637581632472997 73 41 34
-4.35340477200649 3.1366324231082396 -13.664444553385007 79 36 27
-4.3555967571376275 3.1440071742104134 -13.696310527700547 101 54 40
-4.357325504880777 3.1393996805065303 -13.740808092999362 123 79 64
-4.358746182012181 3.126674473072905 -13.793983087559031 125 91 81
-4.360640036215864 3.125950688972944 -13.834697487492809 113 90 85
-4.362340167023289 3.1200450140995732 -13.88101200974757 114 94 92
-4.3626355444698355 3.0773285754243007 -13.96651387936252 111 90 86
-4.366625143509829 3.130806106428915 -13.950096002747568 109 87 81
-4.367552854263769 3.104114303136603 -14.018971241071744 109 83 79
-4.366151190621643 3.0156357591120786 -14.154214754884476 109 84 80
-4.370055852135423 3.0667946246770015 -14.140338960458909 110 85 81
-4.371657214229934 3.056983350264473 -14.191856355012357 110 86 82
-4.373156926585914 3.044226615888851 -14.24673291771128 112 88 84
-4.3746141751432805 3.030073710784637 -14.303320638563438 114 90 86
-4.37624579786643 3.020339395074248 -14.355324116127424 114 90 86
-4.3778926022048275 3.010776692790298 -14.407324356053904 113 90 86
-4.380840581640785 2.9815185242605775 -14.522965189348714 96 75 69
-4.382582640911934 2.973792079049809 -14.573534078033656 91 61 56
-4.384205743366004 2.962569319076799 -14.628125768643251 91 54 47
-4.385590684091783 2.944518333407329 -14.69045246500742 98 59 51
-4.386910767387551 2.9243499055771247 -14.755364825016404 114 73 64
-4.387939735912807 2.8957438657911094 -14.82990142347987 125 83 74
-4.388997968636669 2.8675371179006577 -14.904304538368706 128 92 83
-4.3898950878513086 2.8343932984920377 -14.984530832479262 111 85 79
-4.390776974581996 2.8003554155449253 -15.066101524006282 102 77 76
-4.391257185963779 2.7544757010389285 -15.161322697401356 97 66 61
-4.393411011472164 2.7555721127887356 -15.204059732558811 111 71 62
-4.392733962679281 2.6756872890467935 -15.338400639053882 95 61 52
-4.082604986641641 0.9951665194895467 -12.60701410728873 214 216 216
-4.0896248570213 1.0981051385783465 -12.558483890077927 214 212 213
-4.09650656237041 1.1987127459499591 -12.511494190314684 167 148 146
-4.103205668558216 1.2961049787398649 -12.466798984526525 105 70 65
-4.108240077296963 1.3611710678707833 -12.448804129663792 100 54 48
-4.113405667501004 1.429022669348619 -12.42824815019139 103 50 41
-4.114627024327154 1.4193256051074048 -12.472791272442485 105 50 38
-4.1185842993768125 1.463561844492979 -12.471906504291882 107 48 35
-4.122024729369883 1.4976740417684384 -12.479479667351262 107 48 35
-4.125458437832801 1.5317199813180347 -12.487037292221842 108 47 34
-4.129567009430002 1.5792617791000065 -12.483020335199893 108 49 35
-4.13381568648051 1.629728270084244 -12.47636458999696 111 52 38
-4.136443284059363 1.6479327322202835 -12.497212215224348 111 52 38
-4.139963325301673 1.6840142711452124 -12.502695837061328 111 51 37
-4.148722885750189 1.8254102691708907 -12.417289632340012 112 49 36
-4.189845988511424 2.281034433804254 -12.415904640988018 115 48 32
-4.193387943593168 2.319058932527926 -12.418124352189945 114 47 31
-4.1967397450899036 2.3532376121945866 -12.423688194419114 114 46 30
-4.200594449949391 2.397946504300723 -12.419718528147074 113 46 30
-4.2026719811017 2.405755455802381 -12.448839780634561 114 47 31
-4.205295621812015 2.4249168301699022 -12.467766767984532 117 50 34
-4.208186550221821 2.4496782147620415 -12.48162043382719 115 48 32
-4.2114042227554656 2.4813315433077694 -12.489183486289782 115 46 30
-4.215936167921795 2.5407212229296423 -12.471415442407965 111 42 27
-4.219146902055921 2.572434820159005 -12.478715506659206 113 44 28
-4.2226859412427125 2.611164754349619 -12.479519347595405 114 44 29
-4.2262636278711305 2.650820515077796 -12.479366769341203 112 42 26
-4.22967075116612 2.6869587871564775 -12.48234407989479 111 41 25
-4.2335248414593805 2.7327253725591945 -12.476331306149582 110 39 24
-4.269973700062795 3.0012904556378732 -12.734732460414252 100 48 33
-4.271481333494407 2.9961242866267197 -12.776657406116541 91 47 32
-4.275917104454169 3.0561402852254673 -12.755645324896598 78 37 27
-4.2785061046966435 3.0750807259397934 -12.774260885722729 79 38 30
-4.281141566145393 3.095066009584926 -12.791857494232612 80 43 34
-4.28377812265111 3.115084437867629 -12.80941373708999 91 54 46
-4.2858163055622045 3.1216044129029434 -12.840173533172099 101 64 56
-4.286953375584958 3.1076500593770033 -12.89109824707225 115 80 71
-4.285521789632275 3.0351667049384323 -12.999822732146367 48 21 18
-4.292787049191947 3.038288299562957 -13.148084013549813 41 8 4
-4.29556191003674 3.0608939917280615 -13.16361086499828 46 10 4
-4.299727865298817 2.989636302020884 -13.388827313682286 62 14 6
-4.302733485933397 3.017250294628507 -13.399640984433663 69 14 4
-4.3057518429613655 3.045218902330393 -13.410044446099015 85 21 6
-4.3086760465598575 3.071025364819212 -13.422598749201466 102 37 11
-4.312259337997675 3.11246808810317 -13.41913540422191 129 70 34
-4.315226259322402 3.1394288915218196 -13.43038111270102 145 95 58
-4.3173732318223275 3.1469169962608685 -13.461592521723226 126 77 45
-4.320307625197588 3.1731419784326684 -13.473559893347804 115 66 47
-4.3216333189969465 3.1608514041106552 -13.525296044006978 89 57 45
-4.32359396990182 3.163622828921212 -13.561604409872025 82 56 47
-4.324798332480252 3.148031581133651 -13.617099583625755 77 49 43
-4.326823918761823 3.1520914595535734 -13.652313663696448 71 34 27
-4.329537241796157 3.172760031068992 -13.67025194065462 78 37 27
-4.331436139649301 3.1735806277220737 -13.70899347131553 107 61 47
-4.33291572117845 3.1640140547483036 -13.758768646026523 122 79 66
-4.334652766791927 3.1605684550638466 -13.802262030292603 124 92 86
-4.336237455160084 3.153209393013979 -13.850031849675926 113 90 87
-4.337013729892639 3.1256717386735406 -13.919367120078867 112 93 90
-4.342019837432995 3.1556012556212005 -13.968209958380564 112 87 83
-4.339816782081822 3.052889376466495 -14.118573383993276 109 83 80
-4.342473773470884 3.0712086667334964 -14.139824692320161 109 84 80
-4.344623041555592 3.076735869387031 -14.174848452428733 108 83 79
-4.347048682927548 3.089144093729873 -14.202533112168693 111 86 81
-4.348435359628951 3.0751467941546506 -14.258839787530334 117 92 88
-4.349760180037878 3.059324142676413 -14.317336605766702 113 88 84
-4.35123074337297 3.046959586379913 -14.372290555234045 114 89 85
-4.35350689855333 3.004377021945025 -14.502346697903072 106 86 80
-4.355818796935106 3.012954962080787 -14.53496798674315 99 77 73
-4.357349555604878 3.0011770924415426 -14.590073932277477 95 70 66
-4.359069799758202 2.9940891755112764 -14.640201393464928 92 62 57
-4.360367543844189 2.975741230740714 -14.702970203254742 95 61 54
-4.361672794768176 2.9572884998566114 -14.766099513584283 104 68 62
-4.362443667247128 2.924445178172154 -14.845503396337381 110 80 75
-4.363067628386279 2.8872910527538505 -14.930061967174456 100 77 72
-4.3631856182899424 2.836231775038903 -15.030566523994601 109 83 81
-4.363441008796795 2.788259995427185 -15.128062388663082 99 67 66
-4.366959099024208 2.8271286319074864 -15.128155235902193 99 61 52
-4.36676833918647 2.7663910580143716 -15.24068037555147 113 76 64
-4.3673737225760645 2.3145984283430074 -16.120671382549023 54 49 46
-4.056536947105063 1.0393326924027804 -12.573471547382947 215 216 218
-4.063820958808797 1.144426842373635 -12.523040719568225 188 179 179
-4.070910091374466 1.2462039844435076 -12.474961357546155 111 80 76
-4.077829514810226 1.345120152351969 -12.428874971070572 101 57 51
-4.082080183187184 1.3938362208035713 -12.424462961006556 103 52 45
-4.088382488207601 1.481609225323818 -12.387090916411427 105 49 38
-4.0871174042389775 1.425764825427315 -12.470412659273556 106 48 36
-4.09070721808853 1.4621211074336644 -12.476179324379766 107 48 34
-4.094368815567686 1.4999210643896017 -12.480639776400707 107 47 33
-4.097926951671016 1.5358201020987554 -12.486626150848107 107 45 32
-4.10588427063632 1.6561769080276552 -12.42052897623379 109 48 35
-4.109387835930593 1.691355652508114 -12.42676016301801 111 51 37
-4.11254669456969 1.719962862180302 -12.438547722458814 111 51 37
-4.115577500614515 1.746138621315576 -12.452380016641051 111 50 37
-4.169545390874827 2.345996826122903 -12.433369939524807 114 46 30
-4.173875354765593 2.3991820540905433 -12.421813649188001 114 47 31
-4.176306493803221 2.4144896684309547 -12.444193386582175 114 47 31
-4.178857161628749 2.432180959384703 -12.464438228967907 115 48 32
-4.1826334124936695 2.4745395895635847 -12.462343921621208 114 46 30
-4.185876808818905 2.5062596150090792 -12.469791228130186 115 46 30
-4.189849076784151 2.552787828791594 -12.463679062812052 113 44 28
-4.192486525607936 2.572383195213968 -12.482029850183647 112 43 27
-4.196357156659907 2.617052926335915 -12.47739901531267 112 44 26
-4.200227515400314 2.6618460212263217 -12.472517581357778 112 44 25
-4.203557728776385 2.6957338463120166 -12.477548519405833 113 45 26
-4.207142739903883 2.7349169910056528 -12.477603923771214 112 43 26
-4.210672502515333 2.773069407941196 -12.478505183320344 111 39 24
-4.215890803473267 2.8460811053094535 -12.446895206168932 106 34 20
-4.247941749694544 3.059413702727163 -12.7190798968356 104 55 39
-4.250316768042281 3.073812369717869 -12.742045017212003 94 52 40
-4.252581066670342 3.0858168148924507 -12.767357057171978 80 43 34
-4.254487902600386 3.0901074982365477 -12.800214335625913 79 42 34
-4.257817518136435 3.1249625338778753 -12.803313846491386 85 48 41
-4.259133039013874 3.116408056110158 -12.84882116160859 91 54 47
-4.262580725628855 3.153881419501114 -12.84928872384959 105 68 61
-4.262704017101821 3.1192554154560437 -12.920643976772393 105 70 66
-4.261205138355698 3.048992923349659 -13.02749187636897 40 10 8
-4.269491606038638 3.0774856937753254 -13.150747274132339 41 9 4
-4.271243828619728 3.077380407262262 -13.188969679724252 44 9 3
-4.276303847015579 3.032248326105453 -13.388263443517127 57 10 3
-4.279080938408525 3.054427370744799 -13.40451899185901 67 13 4
-4.281780818613352 3.0748884775843255 -13.422507004193504 84 21 6
-4.285001110312008 3.1071023017420725 -13.42847362037578 105 40 12
-4.289560018569371 3.169697743810718 -13.403219047570108 136 78 41
-4.291938527220217 3.183054928461634 -13.428325663348733 146 96 56
-4.2941099797524425 3.1916615736343514 -13.458362974359751 122 73 46
-4.296445375986117 3.2039493446512717 -13.48465546500697 102 60 46
-4.297839881043919 3.194630920771244 -13.533391584744793 87 57 49
-4.299783462821178 3.197757784745563 -13.56935447546961 81 55 51
-4.300492913367211 3.1723189420919624 -13.635203459737369 74 42 37
-4.3027888809245605 3.183304986222362 -13.663222534308277 73 34 27
-4.305081363214005 3.194157938392184 -13.691429985024367 85 39 29
-4.306675590060557 3.188696433083015 -13.736848787651272 117 70 56
-4.30856716181877 3.1900218823982893 -13.775256444745064 125 85 74
-4.3103380708931045 3.1884020169737495 -13.816888403999618 118 89 84
-4.311596625742634 3.174595398840305 -13.871577464775108 114 93 90
-4.316761547609543 3.2090078043956813 -13.915370959883525 112 87 84
-4.3182145157926835 3.199362858524144 -13.966023061898309 110 85 81
-4.3134640988266355 3.0416657311795925 -14.175756673522903 109 82 79
-4.316899578365455 3.0785369043232365 -14.177153850881766 107 80 77
-4.320993846231776 3.1313362513265526 -14.161249649148148 102 77 72
-4.322413202916815 3.1199512742526707 -14.214623910226042 109 84 79
-4.323527958666894 3.1009914892642616 -14.276414604234095 110 85 80
-4.324740726180286 3.0841393894039433 -14.336151030164736 113 88 84
-4.32602970371011 3.068885483160246 -14.394370784191125 113 89 85
-4.328039556918077 3.023710281366239 -14.52757830800227 110 89 84
-4.32896493974007 2.9987114150170227 -14.597239141439566 105 81 77
-4.330662145022484 2.9924404344104403 -14.646497598668592 101 76 73
-4.332334958532116 2.9853750677605486 -14.69680254968097 99 73 71
-4.333773743693724 2.972293329715889 -14.75396381858212 98 71 70
-4.334692400722125 2.945988081378589 -14.826069941584093 99 75 72
-4.33564873184353 2.92028305252287 -14.897802852342613 102 83 78
-4.335559345092573 2.86794523075349 -14.999675463056372 107 86 83
-4.3357179567543165 2.8213211397136195 -15.095595115531864 105 79 75
-4.3362816469506615 2.784452220131616 -15.180953404777483 96 63 58
-4.340296779171306 2.834910484455645 -15.167975921700865 104 66 57
-4.339342141246205 2.7587430644282263 -15.298343242114779 114 78 67
-4.020618230319952 0.932428710056195 -12.628018872670573 215 215 218
-4.030789295535142 1.0866935101861257 -12.537267275222 209 203 206
-4.038407560543694 1.1950735789360225 -12.48398809928173 134 111 109
-4.0456054096178535 1.2961459149331302 -12.436369724465862 103 62 55
-4.05278238246373 1.397161574159747 -12.388404569171934 103 53 43
-4.056003768364659 1.426151603906133 -12.40040377406364 104 49 40
-4.060811067848955 1.454211411788255 -12.449483326122646 107 47 35
-4.06342620305194 1.47209987767972 -12.47080129453149 107 48 34
-4.067105599951107 1.509606457441591 -12.475494745812163 106 47 33
-4.070696865344764 1.545558406248496 -12.481421447239867 105 43 30
-4.077827216520749 1.6471064038233214 -12.431330712824986 108 46 33
-4.082084848064272 1.6956940343215825 -12.426126115299276 111 49 36
-4.0847336369452485 1.7144909111748863 -12.446327717854384 112 50 37
-4.089242001497263 1.7679319462051541 -12.43673177654071 112 50 37
-4.149739795691537 2.419059588001785 -12.44329673318164 115 47 31
-4.152270696804928 2.436409224396791 -12.463851432216353 113 46 30
-4.1559498588234565 2.4760039897456414 -12.464257733117888 114 45 30
-4.160531214667474 2.5332173847561625 -12.448545180205883 115 44 29
-4.163099171819596 2.551411409439912 -12.468190254046782 116 46 30
-4.1662590405680895 2.58115285608711 -12.477284290458371 113 43 27
-4.169978056834788 2.621881484522528 -12.476249441475192 112 43 25
