ply
format ascii 1.0
element vertex 829
property float x
property float y
property float z
property float nx
property float ny
property float nz
property uchar diffuse_red
property uchar diffuse_green
property uchar diffuse_blue
property uchar class
property uchar detection
end_header
-2.4563 0.2151 -16.2142 -0.657 -0.750 0.069 55 55 57 0 0
-2.4540 0.2200 -16.3148 -0.797 -0.531 0.288 65 65 65 0 0
1.3334 1.1176 -12.9237 0.392 -0.257 0.884 207 207 208 0 0
-2.2397 0.1461 -12.5576 -0.600 0.098 0.794 112 45 29 0 0
-2.5900 0.0612 -12.7573 -0.364 -0.913 0.186 106 40 21 0 0
-2.5776 0.0667 -12.8075 -0.557 -0.822 0.120 111 56 41 0 0
-2.7283 0.0828 -14.0996 -0.769 -0.639 0.006 108 45 24 0 0
-2.6688 0.1108 -14.3766 -0.766 -0.623 -0.161 101 57 47 0 0
-2.5103 0.2267 -16.0606 -0.828 -0.541 -0.150 54 53 55 0 0
-2.5194 0.2259 -16.0980 -0.931 -0.363 -0.030 54 54 56 0 0
-2.4922 0.2367 -16.1793 -0.493 -0.666 0.560 54 54 56 0 0
-3.6811 -0.0499 -16.8979 0.169 0.485 0.858 182 182 184 0 0
1.3741 1.1617 -12.9201 0.266 -0.219 0.939 208 211 213 0 0
1.3011 1.1414 -12.9044 0.374 -0.256 0.891 195 193 193 0 0
1.2085 1.1151 -12.8737 0.306 -0.260 0.916 133 115 111 0 0
-0.4629 0.6540 -12.5980 0.173 -0.286 0.942 117 50 34 0 0
-2.4714 0.1500 -13.3874 0.065 -0.998 0.018 18 12 9 0 0
-2.6824 0.1091 -13.7390 -0.699 -0.131 0.703 96 59 51 0 0
-2.7023 0.1047 -13.7593 -0.615 0.098 0.783 85 44 26 0 0
-2.7577 0.1039 -14.0749 -0.617 -0.733 0.286 113 48 25 0 0
-2.5338 0.2563 -16.1374 -0.592 -0.716 0.369 54 54 56 0 0
-3.5765 0.0149 -16.9999 -0.239 -0.219 0.946 180 180 182 0 0
-3.7248 -0.0271 -16.9504 0.078 0.075 0.994 184 184 186 0 0
1.4096 1.2042 -12.9126 0.287 -0.258 0.923 209 212 213 0 0
1.3341 1.1831 -12.8952 0.307 -0.280 0.910 204 205 206 0 0
1.2562 1.1611 -12.8756 0.307 -0.280 0.910 156 144 143 0 0
-2.2770 0.1947 -12.5718 -0.112 -0.572 0.813 113 44 29 0 0
-2.3953 0.1629 -12.5746 -0.440 -0.542 0.716 113 47 31 0 0
-2.6111 0.1058 -12.5970 -0.176 -0.397 0.901 165 89 43 0 0
-2.6400 0.0985 -12.6072 -0.529 -0.813 0.244 161 92 48 0 0
-2.6505 0.1437 -13.6560 -0.310 -0.703 0.640 126 78 62 0 0
-2.5617 0.2802 -16.1121 -0.771 -0.551 0.321 53 52 57 0 0
-3.7663 -0.0060 -16.9540 0.304 0.248 0.920 184 184 186 0 0
1.3821 1.2294 -12.8971 0.307 -0.280 0.910 210 209 208 0 0
1.3085 1.2087 -12.8810 0.357 -0.297 0.886 187 180 178 0 0
-2.2949 0.2183 -12.5608 -0.203 -0.280 0.938 115 46 31 0 0
-2.4950 0.1642 -12.5620 -0.867 -0.389 0.311 111 43 30 0 0
-2.6207 0.1317 -12.5936 0.063 -0.253 0.965 160 74 36 0 0
-2.6604 0.1209 -12.5934 -0.373 -0.844 0.386 165 97 50 0 0
-2.6108 0.1619 -13.1812 -0.280 -0.944 0.177 134 84 65 0 0
-2.6205 0.1607 -13.2111 -0.278 -0.948 0.157 128 78 60 0 0
-2.6335 0.1584 -13.2376 -0.303 -0.938 0.168 128 80 61 0 0
-2.6444 0.1568 -13.2663 -0.303 -0.938 0.168 129 83 64 0 0
-2.5718 0.3098 -16.1083 -0.713 -0.660 0.235 53 51 54 0 0
-3.5793 0.0772 -16.9632 0.046 -0.794 0.606 177 177 179 0 0
-2.7019 0.1384 -12.5971 -0.324 -0.910 0.257 158 86 41 0 0
-2.6279 0.1804 -13.0528 -0.323 -0.942 0.089 107 65 56 0 0
-2.6274 0.1825 -13.0924 -0.303 -0.938 0.168 107 65 53 0 0
-2.6921 0.2804 -15.4981 -0.726 -0.683 -0.080 124 76 59 0 0
-2.6895 0.2835 -15.5478 -0.726 -0.683 -0.080 118 73 60 0 0
-0.7084 0.7095 -12.5680 -0.401 -0.305 0.864 120 50 38 0 0
-2.2172 0.2960 -12.5310 -0.156 -0.341 0.927 119 49 35 0 0
-2.7421 0.1563 -12.6019 -0.340 -0.927 0.159 149 75 34 0 0
-2.6601 0.3488 -16.0664 0.152 -0.720 0.678 54 50 51 0 0
-2.6547 0.3530 -16.1214 -0.099 -0.854 0.511 55 51 52 0 0
-2.6981 0.3409 -16.1170 -0.682 -0.714 -0.161 55 52 53 0 0
0.9349 1.2006 -12.7693 0.043 -0.407 0.912 116 58 46 0 0
-2.7715 0.1757 -12.5794 -0.439 -0.816 0.377 170 98 50 0 0
-3.7456 0.0836 -16.0618 -0.840 0.397 0.370 161 161 163 0 0
-3.6468 0.1297 -16.4408 -0.368 -0.923 0.109 163 163 165 0 0
1.1782 1.3020 -12.8032 0.249 -0.382 0.890 115 68 64 0 0
0.7703 1.1839 -12.6873 0.170 -0.276 0.946 115 55 44 0 0
-2.0420 0.4015 -12.5144 -0.349 -0.255 0.902 119 50 34 0 0
-2.0658 0.3958 -12.5304 -0.556 -0.220 0.802 119 50 34 0 0
-2.7657 0.3864 -16.0998 -0.601 -0.788 -0.129 58 50 50 0 0
-3.6791 0.1207 -15.8184 -0.972 0.127 0.199 149 149 151 0 0
-3.7374 0.1182 -16.0815 -0.852 0.399 0.339 160 159 162 0 0
-2.4129 0.3304 -12.5544 -0.587 -0.113 0.802 117 45 31 0 0
-2.8418 0.2143 -12.5985 -0.594 -0.801 -0.076 123 67 38 0 0
-2.8598 0.2512 -13.3975 -0.889 -0.424 0.173 100 58 43 0 0
0.7142 1.2316 -12.6545 0.201 -0.207 0.958 115 55 44 0 0
-2.8646 0.2771 -13.3588 -0.889 -0.424 0.173 98 51 33 0 0
-2.8711 0.2771 -13.3922 -0.889 -0.424 0.173 97 50 35 0 0
-2.8751 0.2779 -13.4283 -0.799 -0.571 0.188 97 49 38 0 0
-3.8942 0.1482 -16.2844 -0.503 0.735 0.454 154 156 155 0 0
-3.9182 0.1425 -16.3017 -0.503 0.735 0.454 155 155 157 0 0
-3.9436 0.1362 -16.3169 -0.483 0.717 0.503 156 155 159 0 0
-2.8997 0.2548 -12.5916 -0.557 -0.716 0.421 144 81 44 0 0
-2.8615 0.2842 -12.9351 -0.879 -0.469 0.089 102 63 56 0 0
-2.8649 0.2852 -12.9705 -0.812 -0.555 0.181 103 66 58 0 0
-2.8760 0.3008 -13.3135 -0.977 -0.034 0.211 80 38 24 0 0
-2.8831 0.3006 -13.3462 -0.977 -0.034 0.211 75 34 20 0 0
-2.8901 0.3004 -13.3789 -0.977 -0.034 0.211 72 31 19 0 0
-2.8957 0.3008 -13.4133 -0.964 -0.111 0.240 75 33 22 0 0
-2.9074 0.2991 -13.4414 -0.972 -0.040 0.232 74 31 19 0 0
-2.9124 0.2996 -13.4765 -0.972 -0.107 0.208 73 30 17 0 0
-2.9138 0.3013 -13.5155 -0.977 -0.154 0.147 73 30 18 0 0
-2.9191 0.3017 -13.5504 -0.977 -0.154 0.147 71 29 18 0 0
-3.0382 0.2955 -14.0430 -0.672 -0.708 0.217 118 62 42 0 0
-3.9237 0.1751 -16.3532 -0.483 0.717 0.503 152 152 152 0 0
-3.9358 0.1736 -16.3868 -0.581 0.646 0.495 153 153 153 0 0
-2.9251 0.2751 -12.5726 -0.455 -0.806 0.378 163 92 48 0 0
-2.8731 0.3095 -12.9296 -0.896 -0.435 0.085 103 62 53 0 0
-2.8796 0.3095 -12.9619 -0.812 -0.555 0.181 101 65 54 0 0
-2.8996 0.3292 -13.4156 -0.964 -0.111 0.240 68 34 25 0 0
-2.9096 0.3280 -13.4456 -0.972 -0.040 0.232 70 36 25 0 0
-2.9173 0.3277 -13.4779 -0.972 -0.040 0.232 68 34 24 0 0
-2.9217 0.3284 -13.5137 -0.985 0.024 0.173 72 37 28 0 0
-2.9291 0.3282 -13.5465 -0.974 0.022 0.227 73 38 30 0 0
-2.9616 0.3286 -13.7165 -0.862 -0.408 0.302 47 14 10 0 0
-3.0407 0.3202 -13.9632 -0.435 -0.670 0.602 86 38 32 0 0
-3.9037 0.2142 -16.3897 -0.483 0.717 0.503 150 148 149 0 0
-4.0694 0.2007 -16.9779 -0.375 -0.917 0.133 182 182 184 0 0
-4.0944 0.1946 -16.9946 -0.461 -0.882 0.100 183 183 185 0 0
-2.9099 0.3329 -13.0154 -0.998 -0.053 0.046 108 69 57 0 0
-2.9041 0.3574 -13.4174 -0.964 -0.109 0.244 97 61 47 0 0
-2.9118 0.3571 -13.4497 -0.972 -0.040 0.232 92 61 47 0 0
-2.9191 0.3569 -13.4824 -0.965 -0.022 0.261 96 65 51 0 0
-2.9264 0.3567 -13.5152 -0.979 0.103 0.178 95 64 51 0 0
-2.9326 0.3569 -13.5493 -0.979 0.103 0.178 94 64 48 0 0
-3.9536 0.2399 -16.5322 -0.731 0.221 0.645 151 150 152 0 0
-3.9811 0.2329 -16.5449 -0.866 -0.079 0.493 152 151 152 0 0
-4.0400 0.2320 -16.8213 -0.164 0.096 0.982 172 171 175 0 0
-4.0821 0.2346 -17.0746 -0.008 0.368 0.930 183 183 185 0 0
-3.0262 0.3116 -12.7125 -0.617 -0.628 0.474 101 39 24 0 0
-2.9247 0.3663 -13.1636 -0.958 -0.280 -0.067 100 67 48 0 0
-2.9126 0.3842 -13.4150 -0.939 -0.283 0.196 87 52 38 0 0
-2.9186 0.3845 -13.4490 -0.964 -0.215 0.154 82 49 36 0 0
-2.9210 0.3860 -13.4869 -0.965 -0.022 0.261 77 44 31 0 0
-2.9247 0.3871 -13.5235 -0.979 0.103 0.178 80 47 34 0 0
-3.1365 0.3672 -14.2097 -0.504 -0.857 -0.104 121 72 56 0 0
-3.0974 0.3932 -14.4691 -0.829 -0.544 -0.126 137 79 61 0 0
-3.0817 0.4012 -14.5304 -0.865 -0.454 -0.213 125 71 59 0 0
-3.1084 0.3944 -14.5437 -0.411 -0.873 0.263 109 62 53 0 0
-2.9437 0.5100 -15.7403 -0.346 -0.691 0.634 101 57 47 0 0
-2.9641 0.5056 -15.7630 -0.353 -0.727 0.588 105 60 48 0 0
-3.9529 0.2723 -16.5426 -0.731 0.221 0.645 145 144 145 0 0
-4.0007 0.2609 -16.5779 -0.802 -0.016 0.597 148 147 147 0 0
-4.0416 0.2520 -16.6228 -0.585 -0.453 0.673 153 149 152 0 0
-2.9354 0.3782 -12.9243 -0.965 -0.195 -0.178 103 60 49 0 0
-2.9263 0.3836 -12.9722 -0.989 -0.082 -0.121 106 64 55 0 0
-2.9312 0.3842 -13.0062 -0.994 -0.102 -0.049 101 57 46 0 0
-2.9281 0.3876 -13.0485 -0.993 -0.118 0.016 116 76 60 0 0
-2.9266 0.3904 -13.0891 -0.965 -0.247 -0.090 96 63 46 0 0
-2.9422 0.3874 -13.1126 -0.896 -0.425 -0.131 55 28 17 0 0
-2.9407 0.4187 -13.6354 -0.967 0.045 0.250 43 11 1 0 0
-2.9538 0.4166 -13.6625 -0.959 -0.050 0.278 66 23 5 0 0
-2.9886 0.4070 -13.6666 -0.725 -0.489 0.485 95 46 17 0 0
-3.0038 0.4041 -13.6914 -0.606 -0.560 0.565 110 57 21 0 0
-3.0213 0.4005 -13.7138 -0.606 -0.560 0.565 127 74 41 0 0
-3.1669 0.3795 -14.0556 -0.590 -0.805 0.068 119 63 46 0 0
-3.1792 0.3777 -14.0842 -0.414 -0.910 0.025 122 68 56 0 0
-3.1825 0.3790 -14.1229 -0.360 -0.933 0.004 125 78 66 0 0
-3.1736 0.3847 -14.1754 -0.492 -0.871 0.001 111 70 54 0 0
-3.1294 0.4077 -14.3536 -0.588 -0.808 -0.045 113 60 45 0 0
-3.1373 0.4100 -14.4311 -0.655 -0.755 0.018 137 79 59 0 0
-3.0875 0.4615 -15.0655 -0.667 -0.374 0.645 102 65 56 0 0
-4.0207 0.2888 -16.6104 -0.757 -0.147 0.637 144 141 141 0 0
-4.0370 0.2859 -16.6387 -0.689 -0.328 0.646 147 144 144 0 0
-2.4624 0.5164 -12.5100 -0.371 0.090 0.924 120 47 32 0 0
-2.9242 0.4325 -13.2956 -0.985 -0.174 -0.019 18 4 4 0 0
-2.8967 0.4517 -13.4847 -0.957 0.281 0.075 19 4 2 0 0
-2.9264 0.4512 -13.6161 -0.979 0.068 0.192 17 4 3 0 0
-2.9387 0.4493 -13.6440 -0.942 0.102 0.320 23 4 2 0 0
-3.0285 0.4280 -13.7129 -0.684 -0.549 0.480 106 54 13 0 0
-3.1842 0.4012 -14.0014 -0.770 -0.638 0.001 100 42 30 0 0
-3.1907 0.4014 -14.0363 -0.790 -0.551 0.269 116 60 43 0 0
-3.2149 0.3955 -14.0517 -0.463 -0.885 0.055 115 64 49 0 0
-3.2256 0.3943 -14.0820 -0.304 -0.945 0.119 122 74 62 0 0
-3.1705 0.4161 -14.1859 -0.569 -0.817 -0.092 126 81 70 0 0
-3.1645 0.4208 -14.2353 -0.599 -0.796 -0.083 107 63 49 0 0
-3.1621 0.4242 -14.2809 -0.548 -0.818 -0.172 140 78 62 0 0
-3.1628 0.4265 -14.3230 -0.539 -0.834 -0.116 129 68 54 0 0
-3.1601 0.4301 -14.3693 -0.544 -0.838 -0.042 119 66 51 0 0
-3.1680 0.4299 -14.4036 -0.481 -0.876 0.046 136 80 60 0 0
-3.1709 0.4315 -14.4437 -0.493 -0.869 0.026 136 78 60 0 0
-3.2315 0.4259 -14.6367 -0.940 -0.326 0.097 128 78 65 0 0
-3.2344 0.4275 -14.6774 -0.926 -0.377 0.031 116 68 59 0 0
-3.0981 0.4865 -15.0154 -0.891 -0.387 0.239 102 65 56 0 0
-3.1122 0.4842 -15.0441 -0.456 -0.230 0.860 103 66 57 0 0
-3.0296 0.5442 -15.6523 -0.758 -0.643 -0.109 106 69 61 0 0
-3.9877 0.3456 -16.8725 -0.605 -0.707 0.367 154 153 158 0 0
-1.6487 0.7766 -12.5019 0.027 0.139 0.990 121 52 36 0 0
-3.0606 0.4075 -13.0437 -0.209 -0.977 0.046 21 6 3 0 0
-2.9257 0.4814 -13.6234 -0.979 0.068 0.192 15 4 2 0 0
-2.9382 0.4796 -13.6511 -0.948 0.117 0.295 17 3 1 0 0
-2.9596 0.4746 -13.6695 -0.954 -0.111 0.279 23 4 2 0 0
-3.0715 0.4480 -13.7559 -0.770 -0.197 0.606 132 84 50 0 0
-3.1551 0.4288 -13.8311 -0.495 -0.399 0.772 130 90 69 0 0
-3.1755 0.4242 -13.8505 -0.530 -0.551 0.644 136 88 60 0 0
-3.1916 0.4211 -13.8745 -0.531 -0.559 0.637 113 52 31 0 0
-3.2213 0.4157 -13.9254 -0.556 -0.658 0.507 87 39 31 0 0
-3.2058 0.4263 -14.0266 -0.783 -0.580 0.224 107 51 38 0 0
-3.2411 0.4164 -14.0295 -0.656 -0.735 0.174 116 62 46 0 0
-3.2487 0.4163 -14.0633 -0.330 -0.846 0.418 119 69 57 0 0
-3.2061 0.4340 -14.1532 -0.569 -0.818 -0.080 120 73 64 0 0
-3.1959 0.4402 -14.2073 -0.572 -0.819 -0.045 124 80 67 0 0
-3.1962 0.4427 -14.2497 -0.559 -0.814 -0.156 112 62 50 0 0
-3.1979 0.4447 -14.2906 -0.539 -0.834 -0.116 141 81 62 0 0
-3.2005 0.4464 -14.3308 -0.598 -0.800 -0.048 122 68 49 0 0
-3.1991 0.4496 -14.3755 -0.493 -0.869 0.026 127 74 57 0 0
-3.2189 0.4505 -14.4833 -0.525 -0.849 0.068 111 64 54 0 0
-3.2447 0.4548 -14.6730 -0.800 -0.481 0.358 113 68 58 0 0
-3.1175 0.5138 -15.0456 -0.072 -0.766 0.639 103 68 58 0 0
-3.1487 0.5082 -15.0996 -0.709 -0.687 0.159 104 70 60 0 0
-3.0553 0.5672 -15.6291 -0.795 -0.584 -0.163 108 73 64 0 0
-3.0478 0.5728 -15.6856 -0.795 -0.584 -0.163 106 70 61 0 0
-3.0403 0.5784 -15.7423 -0.795 -0.584 -0.163 87 62 56 0 0
-3.0613 0.5738 -15.7643 -0.707 -0.708 -0.007 25 14 14 0 0
-3.9445 0.3416 -16.0818 -0.783 0.166 0.599 38 38 42 0 0
-3.9628 0.3379 -16.1064 -0.811 0.129 0.571 37 36 41 0 0
-3.9677 0.3391 -16.1491 -0.901 -0.275 0.335 37 35 40 0 0
-1.6864 0.7963 -12.5117 -0.273 -0.272 0.923 122 53 37 0 0
-2.5472 0.5528 -12.5545 -0.345 0.269 0.899 118 46 29 0 0
-2.6569 0.5196 -12.5260 -0.528 -0.407 0.746 115 42 27 0 0
-3.0705 0.4261 -12.9229 -0.032 -0.983 0.182 72 38 31 0 0
-3.0734 0.4275 -12.9588 -0.131 -0.975 0.181 27 4 2 0 0
-2.9349 0.5083 -13.6203 -0.841 -0.132 0.525 14 3 1 0 0
-2.9500 0.5055 -13.6452 -0.841 -0.132 0.525 17 3 1 0 0
-3.0824 0.4742 -13.7509 -0.784 -0.007 0.621 144 94 58 0 0
-3.2316 0.4474 -14.0049 -0.747 -0.643 0.170 90 36 24 0 0
-3.2633 0.4387 -14.0118 -0.713 -0.661 0.234 113 58 44 0 0
-3.2738 0.4376 -14.0424 -0.121 -0.688 0.716 115 64 49 0 0
-3.2377 0.4531 -14.1250 -0.569 -0.818 -0.080 118 72 60 0 0
-3.2473 0.4523 -14.1568 -0.527 -0.842 -0.117 122 73 65 0 0
-3.1957 0.4760 -14.3004 -0.978 -0.134 -0.163 116 70 52 0 0
-3.2105 0.4734 -14.3267 -0.990 -0.109 -0.095 139 78 59 0 0
-3.2288 0.4696 -14.3491 -0.483 -0.876 -0.008 119 63 48 0 0
-3.1856 0.4877 -14.4415 -0.851 -0.166 0.499 135 78 62 0 0
-3.1978 0.4861 -14.4711 -0.673 -0.448 0.588 137 79 62 0 0
-3.2163 0.4822 -14.4935 -0.619 -0.482 0.620 117 67 59 0 0
-3.1629 0.5290 -14.9998 0.069 -0.848 0.526 106 70 61 0 0
-3.0695 0.5972 -15.6673 -0.795 -0.584 -0.163 75 49 43 0 0
-3.8505 0.3398 -15.1200 -0.948 0.038 -0.317 91 37 25 0 0
-3.9460 0.3728 -16.0888 -0.824 0.105 0.556 34 32 35 0 0
-3.9636 0.3694 -16.1143 -0.824 0.105 0.556 26 23 26 0 0
-1.7495 0.8071 -12.4990 -0.184 -0.504 0.844 121 52 36 0 0
-2.4720 0.6009 -12.5178 -0.829 -0.109 0.549 118 46 31 0 0
-2.6623 0.5445 -12.4889 -0.562 -0.000 0.827 119 46 31 0 0
-2.9738 0.5297 -13.6677 -0.734 -0.255 0.630 21 4 1 0 0
-3.0862 0.5029 -13.7535 -0.394 0.103 0.913 151 94 63 0 0
-3.1461 0.4869 -13.7715 -0.320 0.359 0.877 130 84 60 0 0
-3.2576 0.4603 -13.8575 -0.719 -0.090 0.690 117 61 32 0 0
-3.2528 0.4700 -13.9883 -0.571 -0.662 0.486 87 37 28 0 0
-3.2932 0.4582 -13.9856 -0.511 -0.605 0.610 103 48 34 0 0
-3.3108 0.4546 -14.0081 -0.344 -0.456 0.821 115 59 43 0 0
-3.2899 0.4701 -14.1586 -0.406 -0.910 -0.088 122 77 63 0 0
-3.2639 0.4821 -14.2306 -0.568 -0.816 -0.108 112 66 52 0 0
-3.2179 0.5041 -14.3686 -0.597 -0.649 0.472 134 74 58 0 0
-3.2328 0.5015 -14.3950 -0.418 -0.699 0.580 119 64 51 0 0
-3.2381 0.5218 -14.7399 -0.953 -0.229 -0.200 107 69 62 0 0
-3.2278 0.5284 -14.7964 -0.685 -0.700 -0.204 103 66 57 0 0
-3.1981 0.5476 -14.9660 -0.389 -0.916 0.092 106 71 63 0 0
0.9766 1.6337 -12.6732 0.445 0.163 0.881 109 75 72 0 0
-2.1433 0.7203 -12.4512 -0.209 0.272 0.939 121 50 32 0 0
-2.2192 0.7012 -12.4945 -0.272 -0.151 0.951 122 51 33 0 0
-2.6427 0.5780 -12.4756 -0.562 -0.000 0.827 121 50 32 0 0
-2.6612 0.5739 -12.4956 -0.714 -0.190 0.674 119 47 30 0 0
-2.6784 0.5704 -12.5169 -0.724 -0.200 0.660 117 45 29 0 0
-3.1181 0.5216 -13.7259 -0.697 -0.641 0.322 106 45 21 0 0
-3.1468 0.5167 -13.7775 -0.266 0.209 0.941 138 89 58 0 0
-3.1955 0.5045 -13.8075 -0.597 0.012 0.802 81 38 31 0 0
-3.2291 0.4952 -13.8124 -0.607 0.109 0.787 117 77 67 0 0
-3.2679 0.5251 -14.4491 -0.282 -0.889 0.362 133 81 57 0 0
-3.2584 0.5455 -14.7238 -0.774 -0.582 -0.250 106 69 61 0 0
-3.2208 0.5707 -14.9468 -0.100 -0.976 0.194 107 71 63 0 0
-3.2351 0.5684 -14.9751 -0.337 -0.940 0.048 101 66 58 0 0
-3.9556 0.4329 -16.0938 -0.881 0.273 0.387 31 26 25 0 0
-4.0240 0.4727 -17.0166 -0.540 -0.833 -0.120 151 148 151 0 0
-2.1350 0.7528 -12.4643 -0.221 0.386 0.896 122 51 33 0 0
-2.6684 0.6005 -12.4945 -0.644 -0.152 0.750 116 45 27 0 0
-2.6859 0.5968 -12.5155 -0.555 -0.275 0.785 118 47 30 0 0
-2.8928 0.6136 -13.6844 -0.376 0.409 0.831 17 5 3 0 0
-3.1391 0.5468 -13.7511 -0.341 -0.389 0.856 116 53 25 0 0
-3.2029 0.5319 -13.8062 -0.373 -0.428 0.823 93 50 37 0 0
-3.2296 0.5250 -13.8186 -0.510 -0.440 0.739 103 57 49 0 0
-3.2588 0.5172 -13.8282 -0.378 -0.310 0.872 116 72 56 0 0
-3.2846 0.5106 -13.8414 -0.497 -0.338 0.799 152 111 83 0 0
-3.3033 0.5066 -13.8626 -0.412 -0.452 0.791 125 77 48 0 0
-3.2852 0.5466 -14.3931 -0.248 -0.915 0.320 122 66 51 0 0
-3.2911 0.5473 -14.4298 -0.363 -0.916 0.169 131 77 57 0 0
-3.3018 0.5607 -14.6807 -0.615 -0.771 -0.164 104 66 57 0 0
-3.2858 0.5694 -14.7437 -0.610 -0.784 -0.119 103 65 56 0 0
-3.2865 0.5721 -14.7875 -0.483 -0.875 -0.030 105 67 59 0 0
-3.3135 0.5681 -14.8452 -0.628 -0.776 -0.062 107 70 62 0 0
-3.3053 0.5740 -14.8998 -0.726 -0.672 -0.149 102 66 58 0 0
-3.1802 0.6289 -15.1848 -0.626 -0.595 0.505 99 65 58 0 0
-2.1493 0.7775 -12.4568 -0.350 0.589 0.729 123 52 34 0 0
-3.1884 0.4827 -12.5608 -0.418 -0.424 0.804 167 95 58 0 0
-3.3221 0.5297 -13.8487 -0.484 -0.511 0.710 146 106 78 0 0
-3.2913 0.5664 -14.2639 -0.248 -0.968 0.034 119 74 56 0 0
-3.2826 0.5724 -14.3169 -0.166 -0.966 0.197 117 71 53 0 0
-3.2978 0.5698 -14.3428 -0.166 -0.966 0.197 120 69 51 0 0
-3.3321 0.5629 -14.3901 -0.237 -0.961 0.145 122 64 51 0 0
-3.3294 0.5668 -14.4366 -0.295 -0.954 0.047 133 77 58 0 0
-3.3339 0.5798 -14.6507 -0.607 -0.783 -0.135 102 63 55 0 0
-3.3289 0.5846 -14.7008 -0.607 -0.783 -0.135 103 65 56 0 0
-3.3141 0.5930 -14.7627 -0.450 -0.892 -0.045 105 67 59 0 0
-3.3348 0.5913 -14.8276 -0.867 -0.477 0.142 107 70 63 0 0
-3.3286 0.5966 -14.8798 -0.996 -0.058 -0.069 102 65 59 0 0
-3.1998 0.6533 -15.1693 -0.871 0.119 0.477 101 65 56 0 0
-3.9478 0.4997 -16.1222 -0.866 0.059 0.497 31 22 23 0 0
-4.1088 0.5128 -17.0200 -0.589 -0.808 0.028 153 152 154 0 0
-2.0808 0.8288 -12.4871 0.003 0.203 0.979 124 53 36 0 0
-2.1253 0.8156 -12.4842 0.003 0.203 0.979 129 58 40 0 0
-2.3141 0.7616 -12.4991 -0.547 -0.161 0.821 121 50 32 0 0
-2.3581 0.7486 -12.4960 -0.176 -0.241 0.955 122 51 33 0 0
-3.1979 0.5079 -12.5573 -0.071 -0.300 0.951 159 85 45 0 0
-3.2895 0.5009 -12.8469 -0.235 -0.537 0.810 67 38 33 0 0
-3.0074 0.6409 -13.6995 -0.382 0.265 0.885 29 7 4 0 0
-3.0353 0.6335 -13.7110 -0.312 0.151 0.938 36 7 4 0 0
-3.4058 0.5432 -13.9719 -0.437 -0.829 0.350 91 41 30 0 0
-3.3390 0.5852 -14.3030 -0.156 -0.970 0.189 109 61 46 0 0
-3.3541 0.5825 -14.3289 -0.156 -0.970 0.189 132 76 58 0 0
-3.3627 0.5823 -14.3623 -0.263 -0.961 0.082 129 71 55 0 0
-3.3677 0.5834 -14.3999 -0.307 -0.950 0.059 122 66 51 0 0
-3.3667 0.5867 -14.4446 -0.505 -0.851 -0.146 133 78 60 0 0
-3.3142 0.6180 -14.6812 -0.418 -0.899 -0.129 102 61 53 0 0
-3.3214 0.6184 -14.7171 -0.352 -0.934 -0.050 101 63 54 0 0
-3.3687 0.6038 -14.7062 -0.484 -0.873 -0.053 105 67 59 0 0
-3.3323 0.6264 -14.8831 -0.842 -0.539 -0.032 101 64 58 0 0
-3.3245 0.6324 -14.9375 -0.974 -0.215 -0.071 98 63 57 0 0
-4.0303 0.5169 -16.2677 -0.803 -0.036 0.595 48 23 21 0 0
-4.0485 0.5132 -16.2926 -0.803 -0.036 0.595 47 23 21 0 0
-4.1000 0.5526 -17.0953 -0.599 -0.796 -0.091 155 155 157 0 0
-4.1283 0.5452 -17.1074 -0.750 -0.659 0.057 160 160 162 0 0
-4.4635 0.4322 -16.8812 0.234 -0.178 0.956 178 178 180 0 0
-4.5045 0.4197 -16.8733 0.279 -0.116 0.953 180 180 182 0 0
-3.2978 0.5268 -12.8445 -0.404 -0.412 0.816 101 61 56 0 0
-3.3243 0.5198 -12.8560 -0.326 -0.303 0.896 33 15 13 0 0
-3.2106 0.6080 -13.6530 -0.306 -0.798 0.518 42 7 3 0 0
-3.4251 0.5778 -14.1265 -0.519 -0.826 -0.221 118 75 62 0 0
-3.4043 0.5885 -14.1929 -0.315 -0.946 -0.071 113 70 55 0 0
-3.3927 0.5958 -14.2489 -0.202 -0.977 0.069 124 78 63 0 0
-3.4011 0.5956 -14.2824 -0.257 -0.965 0.046 112 63 45 0 0
-3.4034 0.6157 -14.5845 -0.438 -0.899 -0.024 102 60 52 0 0
-3.4043 0.6215 -14.6719 -0.484 -0.873 -0.053 105 66 59 0 0
-3.3857 0.6315 -14.7381 -0.595 -0.796 -0.108 109 70 63 0 0
-3.3353 0.6596 -14.9324 -0.981 -0.185 -0.063 94 64 56 0 0
-3.3145 0.6895 -15.2772 -0.294 -0.942 0.162 8 1 4 0 0
-4.0514 0.5442 -16.2979 -0.819 -0.128 0.560 43 19 16 0 0
-4.0866 0.5375 -16.3498 -0.564 -0.271 0.780 43 18 15 0 0
-4.1055 0.5336 -16.3739 -0.728 -0.177 0.663 38 13 12 0 0
-4.1487 0.5701 -17.0877 -0.750 -0.659 0.057 156 156 158 0 0
-4.4869 0.4625 -16.9619 -0.085 -0.176 0.981 180 180 182 0 0
-3.3146 0.5495 -12.8334 -0.620 -0.630 0.468 105 59 51 0 0
-3.3348 0.5449 -12.8513 -0.326 -0.303 0.896 79 44 40 0 0
-3.1173 0.6695 -13.7190 -0.229 -0.039 0.973 34 6 3 0 0
-3.1593 0.6569 -13.7149 -0.123 -0.244 0.962 36 5 3 0 0
-3.4454 0.6065 -14.1960 -0.204 -0.976 0.072 117 71 56 0 0
-3.4489 0.6082 -14.2348 -0.153 -0.976 0.157 122 74 55 0 0
-3.4154 0.6420 -14.5780 -0.488 -0.868 -0.092 100 62 54 0 0
-3.4185 0.6440 -14.6184 -0.466 -0.876 -0.122 103 64 57 0 0
-3.4021 0.6533 -14.6820 -0.698 -0.665 -0.266 107 68 61 0 0
-3.3917 0.6603 -14.7387 -0.774 -0.610 -0.168 108 70 63 0 0
-4.0969 0.4845 -15.1867 -0.542 -0.640 0.545 68 33 26 0 0
-3.9973 0.5493 -15.6934 -0.965 0.245 0.090 12 4 5 0 0
-4.0165 0.5452 -15.7160 -0.476 0.555 0.682 25 11 10 0 0
-4.0644 0.5713 -16.2893 -0.839 -0.376 0.393 32 11 8 0 0
-4.0777 0.5696 -16.3210 -0.801 -0.367 0.472 39 16 12 0 0
-4.0946 0.5665 -16.3480 -0.593 -0.087 0.800 46 20 17 0 0
-4.1352 0.5577 -16.3924 -0.673 -0.265 0.690 42 16 14 0 0
-4.1621 0.5507 -16.4055 -0.670 -0.211 0.711 38 15 12 0 0
-2.0650 0.9212 -12.4804 -0.029 -0.034 0.999 122 50 35 0 0
-2.1013 0.9109 -12.4851 0.014 0.007 1.000 122 51 34 0 0
-2.1904 0.8842 -12.4791 -0.421 -0.364 0.831 120 49 31 0 0
-2.8090 0.7008 -12.4642 -0.558 -0.429 0.710 121 48 31 0 0
-2.8290 0.6962 -12.4826 -0.558 -0.429 0.710 119 46 29 0 0
-2.8536 0.6899 -12.4965 -0.374 -0.385 0.844 118 45 29 0 0
-3.3454 0.5699 -12.8465 -0.372 -0.347 0.861 107 62 52 0 0
-2.9521 0.7462 -13.6959 -0.189 -0.555 0.810 8 0 2 0 0
-2.9750 0.7406 -13.7128 -0.014 0.019 1.000 23 9 8 0 0
-3.1008 0.7028 -13.7021 -0.050 0.031 0.998 33 5 2 0 0
-3.4563 0.6057 -13.8108 -0.565 -0.594 0.573 146 103 76 0 0
-3.4916 0.6195 -14.1503 -0.178 -0.982 0.068 114 72 58 0 0
-3.4849 0.6250 -14.2008 -0.058 -0.978 0.200 124 77 58 0 0
-3.9575 0.6240 -16.1451 -0.854 0.466 0.231 23 17 20 0 0
-4.0107 0.6173 -16.2719 -0.633 -0.069 0.771 18 6 4 0 0
-4.1054 0.5944 -16.3423 -0.744 -0.254 0.618 37 15 11 0 0
-4.1242 0.5906 -16.3666 -0.744 -0.254 0.618 44 18 15 0 0
-2.0573 0.9539 -12.4930 0.065 -0.362 0.930 123 51 35 0 0
-2.2022 0.9097 -12.4739 -0.421 -0.364 0.831 121 50 32 0 0
-2.2441 0.8972 -12.4731 -0.280 -0.083 0.956 121 50 32 0 0
-2.8478 0.7211 -12.5079 -0.512 -0.519 0.684 118 45 28 0 0
-3.1081 0.7302 -13.7010 0.013 0.150 0.989 33 6 2 0 0
-3.4642 0.6327 -13.8089 -0.438 -0.538 0.720 130 80 61 0 0
-3.4990 0.6256 -13.8534 -0.486 -0.637 0.599 119 64 32 0 0
-3.5336 0.6247 -13.9824 -0.693 -0.248 0.677 98 47 32 0 0
-3.5685 0.6268 -14.1549 -0.431 -0.890 -0.146 127 79 62 0 0
-3.7074 0.6536 -15.0956 0.637 -0.442 0.632 80 22 10 0 0
-4.1315 0.6199 -16.3659 -0.826 -0.136 0.547 34 13 10 0 0
-4.2603 0.5907 -16.4894 -0.623 -0.254 0.740 38 15 12 0 0
-2.2140 0.9351 -12.4687 -0.421 -0.364 0.831 124 53 35 0 0
-2.2445 0.9267 -12.4783 -0.134 -0.333 0.933 122 51 33 0 0
-2.5933 0.8214 -12.4549 -0.208 -0.010 0.978 122 49 32 0 0
-3.0277 0.6950 -12.4900 -0.721 0.374 0.584 112 39 22 0 0
-3.4038 0.6088 -12.8373 -0.496 -0.774 0.394 103 61 52 0 0
-3.4207 0.6699 -13.7394 -0.431 -0.491 0.757 137 94 56 0 0
-3.4385 0.6662 -13.7612 -0.725 -0.507 0.466 109 71 50 0 0
-3.4985 0.6527 -13.8192 -0.256 -0.389 0.885 128 77 54 0 0
-3.5337 0.6454 -13.8633 -0.686 -0.557 0.468 108 50 24 0 0
-3.5463 0.6499 -13.9751 -0.394 -0.480 0.784 94 44 33 0 0
-3.5866 0.6439 -14.0561 -0.412 -0.908 0.073 117 72 58 0 0
-3.5871 0.6468 -14.0980 -0.259 -0.956 0.135 114 70 55 0 0
-3.6041 0.6434 -14.1211 -0.434 -0.898 -0.067 118 70 53 0 0
-3.5514 0.6667 -14.2247 -0.795 -0.599 -0.098 122 72 55 0 0
-3.5847 0.6571 -14.2291 -0.512 -0.852 -0.110 119 66 49 0 0
-3.4658 0.7250 -14.6740 -0.807 -0.505 -0.305 105 70 62 0 0
-4.2689 0.6194 -16.4868 -0.623 -0.254 0.740 44 16 13 0 0
-5.1009 0.4000 -16.8643 -0.579 0.792 0.193 194 194 196 0 0
-5.0833 0.4112 -16.9451 -0.613 0.781 0.120 195 195 197 0 0
-2.9985 0.7347 -12.5241 -0.619 0.438 0.652 111 38 21 0 0
-3.4784 0.6841 -13.7653 -0.880 -0.081 0.468 84 43 30 0 0
-3.4908 0.6824 -13.7931 -0.695 -0.059 0.717 95 50 46 0 0
-3.5173 0.6754 -13.8052 -0.510 -0.007 0.860 127 77 63 0 0
-3.5360 0.6714 -13.8258 -0.807 -0.220 0.548 151 97 65 0 0
-3.5417 0.6723 -13.8612 -0.747 -0.142 0.649 126 68 37 0 0
-3.6039 0.6673 -14.0434 -0.580 -0.807 0.115 114 66 49 0 0
-3.6226 0.6633 -14.0645 -0.295 -0.936 0.193 118 72 56 0 0
-3.5676 0.6908 -14.2131 -0.819 -0.570 -0.063 122 74 58 0 0
-3.5708 0.6928 -14.2525 -0.864 -0.487 -0.130 117 66 52 0 0
-3.5505 0.7102 -14.4060 -0.650 -0.753 0.105 106 62 47 0 0
-4.0035 0.6730 -15.7197 0.196 -0.158 0.968 14 5 3 0 0
-4.2843 0.6801 -16.9406 -0.594 -0.746 -0.301 102 88 87 0 0
-2.9019 0.7911 -12.5106 -0.261 -0.080 0.962 117 44 27 0 0
-3.4794 0.6439 -12.8489 -0.617 -0.506 0.603 73 41 36 0 0
-3.1515 0.8075 -13.7157 -0.126 -0.117 0.985 35 9 5 0 0
-3.1848 0.7979 -13.7211 -0.126 -0.117 0.985 33 7 3 0 0
-3.2172 0.7887 -13.7272 -0.254 -0.063 0.965 34 6 3 0 0
-3.4402 0.7223 -13.7315 -0.500 -0.124 0.857 138 79 54 0 0
-3.4578 0.7187 -13.7535 -0.725 -0.145 0.673 137 94 57 0 0
-3.5000 0.7088 -13.7896 -0.776 0.021 0.630 75 31 23 0 0
-3.5404 0.6996 -13.8279 -0.707 0.187 0.682 121 71 47 0 0
-3.5546 0.6973 -13.8537 -0.797 -0.037 0.603 151 98 69 0 0
-3.5529 0.7011 -13.8975 -0.851 -0.240 0.467 110 53 23 0 0
-3.6123 0.6910 -13.9986 -0.428 -0.543 0.723 101 49 32 0 0
-3.6294 0.6876 -14.0214 -0.784 -0.358 0.508 113 62 43 0 0
-3.6637 0.6776 -14.0244 -0.854 -0.492 0.171 116 68 52 0 0
-3.6509 0.6857 -14.0816 -0.901 -0.299 0.315 114 74 57 0 0
-3.5933 0.7112 -14.1908 -0.981 0.185 -0.051 114 69 53 0 0
-3.5903 0.7156 -14.2372 -0.993 0.097 -0.061 129 76 60 0 0
-3.5933 0.7308 -14.4505 -0.516 -0.851 0.098 108 67 57 0 0
-3.6016 0.7309 -14.4846 -0.550 -0.831 0.082 104 66 56 0 0
-4.0995 0.6735 -15.6975 -0.465 -0.575 0.673 39 21 19 0 0
-2.9467 0.8063 -12.5107 -0.169 0.009 0.986 120 47 29 0 0
-3.1930 0.8250 -13.7189 -0.126 -0.117 0.985 31 8 3 0 0
-3.4906 0.7392 -13.7655 -0.843 -0.185 0.505 133 88 58 0 0
-3.5052 0.7367 -13.7908 -0.843 -0.185 0.505 93 51 37 0 0
-3.5406 0.7295 -13.8346 -0.676 -0.191 0.712 107 60 46 0 0
-3.5657 0.7229 -13.8482 -0.500 -0.006 0.866 143 98 73 0 0
-3.5857 0.7184 -13.8675 -0.591 -0.107 0.799 135 85 50 0 0
-3.5842 0.7222 -13.9111 -0.874 -0.443 0.201 95 45 23 0 0
-3.6623 0.7081 -14.0332 -0.743 -0.600 0.296 111 60 46 0 0
-3.6143 0.7333 -14.1737 -0.990 -0.000 -0.139 113 71 58 0 0
-3.6112 0.7378 -14.2202 -0.966 0.256 -0.041 118 69 54 0 0
-3.6166 0.7390 -14.2570 -0.995 0.041 -0.086 122 74 56 0 0
-3.6143 0.7532 -14.4334 -0.504 -0.863 0.026 103 62 52 0 0
-3.6189 0.7548 -14.4716 -0.504 -0.863 0.026 103 63 55 0 0
-4.2658 0.6130 -15.1566 -0.967 -0.212 0.143 58 46 46 0 0
-4.1194 0.7538 -16.4200 -0.208 0.168 0.963 27 9 7 0 0
-4.1502 0.7451 -16.4278 -0.549 -0.077 0.832 30 11 8 0 0
-4.1667 0.7423 -16.4555 -0.748 -0.260 0.611 35 13 10 0 0
-2.5878 0.9351 -12.4076 -0.633 -0.462 0.621 122 49 32 0 0
-3.4912 0.6971 -12.8489 -0.383 -0.434 0.816 107 59 51 0 0
-3.1254 0.8748 -13.7158 0.052 0.199 0.979 10 1 0 0 0
-3.2099 0.8487 -13.7073 0.034 0.080 0.996 43 17 14 0 0
-3.4796 0.7605 -13.6191 -0.455 0.142 0.879 46 10 5 0 0
-3.5060 0.7631 -13.7552 -0.699 -0.544 0.464 146 98 62 0 0
-3.5208 0.7606 -13.7803 -0.699 -0.544 0.464 118 80 54 0 0
-3.5355 0.7581 -13.8055 -0.699 -0.544 0.464 78 36 23 0 0
-3.5534 0.7544 -13.8272 -0.530 -0.561 0.636 112 64 56 0 0
-3.5707 0.7510 -13.8495 -0.417 -0.500 0.759 123 78 63 0 0
-3.6085 0.7395 -13.8488 -0.398 -0.301 0.867 154 111 81 0 0
-3.6269 0.7356 -13.8698 -0.749 -0.227 0.623 114 62 31 0 0
-3.6704 0.7317 -13.9887 -0.621 -0.527 0.581 103 53 35 0 0
-3.6781 0.7320 -14.0221 -0.877 -0.386 0.287 110 59 41 0 0
-3.5946 0.7747 -14.2468 -0.933 0.279 -0.228 111 67 55 0 0
-3.6336 0.7695 -14.3311 -0.457 -0.886 0.080 130 75 57 0 0
-3.6378 0.7712 -14.3696 -0.588 -0.804 0.087 122 68 56 0 0
-3.6363 0.7752 -14.4150 -0.707 -0.707 0.006 102 62 55 0 0
-3.6529 0.8136 -14.9742 -0.720 0.397 0.569 54 19 13 0 0
-4.2634 0.6339 -15.0296 -0.430 -0.146 0.891 66 38 33 0 0
-4.2887 0.6274 -15.0429 -0.430 -0.146 0.891 56 31 27 0 0
-4.0801 0.7983 -16.4333 -0.612 -0.475 0.632 27 10 6 0 0
-2.5685 0.9687 -12.3938 -0.463 -0.521 0.718 122 49 32 0 0
-2.5975 0.9608 -12.4041 -0.441 0.004 0.898 122 49 32 0 0
-3.4837 0.7920 -13.6626 -0.357 -0.103 0.928 44 6 4 0 0
-3.6092 0.7692 -13.8549 -0.418 -0.512 0.751 141 98 76 0 0
-3.6387 0.7609 -13.8634 -0.761 -0.368 0.533 142 94 58 0 0
-3.7150 0.7476 -13.9869 -0.541 -0.603 0.586 103 53 36 0 0
-3.7460 0.7387 -13.9935 -0.688 -0.663 0.295 108 60 45 0 0
-3.6967 0.7615 -14.0929 -0.603 -0.766 -0.223 114 69 57 0 0
-3.6977 0.7644 -14.1345 -0.556 -0.808 -0.193 111 69 60 0 0
-3.6818 0.7741 -14.1958 -0.582 -0.797 -0.162 110 66 52 0 0
-3.6702 0.7854 -14.2956 -0.741 -0.623 -0.250 115 67 47 0 0
-3.6606 0.7926 -14.3502 -0.611 -0.790 -0.054 132 75 61 0 0
-3.6637 0.7949 -14.3901 -0.807 -0.589 -0.038 111 63 54 0 0
-4.2735 0.6604 -15.0247 -0.407 -0.369 0.836 61 32 25 0 0
-4.2978 0.6543 -15.0392 -0.407 -0.369 0.836 58 31 26 0 0
-4.3221 0.6481 -15.0538 -0.407 -0.369 0.836 63 42 39 0 0
-5.4907 0.4390 -16.8858 -0.354 -0.750 0.558 203 203 205 0 0
-2.5860 0.9915 -12.3830 -0.549 -0.384 0.743 123 50 33 0 0
-2.6003 0.9891 -12.4071 -0.419 -0.305 0.855 122 49 32 0 0
-2.6214 0.9841 -12.4248 -0.505 -0.356 0.786 121 48 31 0 0
-2.7472 0.9484 -12.4560 -0.166 -0.123 0.978 124 51 34 0 0
-2.8569 0.9157 -12.4639 -0.451 -0.099 0.887 122 48 32 0 0
-2.9800 0.8809 -12.4956 -0.452 -0.445 0.773 120 46 27 0 0
-3.5456 0.7370 -12.8433 -0.217 -0.470 0.855 103 59 48 0 0
-3.2657 0.8906 -13.7015 0.108 0.148 0.983 48 20 18 0 0
-3.7319 0.7709 -13.9745 -0.377 -0.546 0.748 93 46 34 0 0
-3.7619 0.7624 -13.9823 -0.740 -0.614 0.274 104 58 44 0 0
-3.7348 0.7833 -14.1414 -0.664 -0.705 -0.249 106 68 55 0 0
-3.7221 0.7918 -14.1991 -0.664 -0.705 -0.249 118 69 54 0 0
-3.6889 0.8154 -14.3678 -0.421 -0.865 0.274 124 70 54 0 0
-4.4128 0.7614 -16.4413 -0.725 -0.064 0.686 18 12 12 0 0
-2.6022 1.0147 -12.3735 -0.627 -0.326 0.708 126 53 36 0 0
-3.0236 0.8963 -12.4968 -0.686 -0.196 0.701 118 45 26 0 0
-3.5880 0.7525 -12.8440 -0.128 -0.756 0.642 102 63 48 0 0
-3.7924 0.7836 -13.9965 -0.679 -0.657 0.327 109 60 47 0 0
-3.7428 0.8173 -14.2253 -0.633 -0.690 -0.350 124 72 55 0 0
-4.4128 0.7936 -16.4508 -0.769 -0.142 0.624 17 12 12 0 0
-4.4635 0.7888 -16.5831 -0.774 -0.361 0.521 15 9 9 0 0
-4.4836 0.7846 -16.6056 -0.477 -0.308 0.823 13 8 7 0 0
-2.6114 1.0405 -12.3705 -0.788 0.066 0.612 124 51 34 0 0
-2.6246 1.0386 -12.3955 -0.679 -0.113 0.726 125 52 35 0 0
-2.6360 1.0373 -12.4223 -0.654 -0.228 0.721 125 52 35 0 0
-3.3413 0.8272 -12.4907 -0.893 0.197 0.404 113 40 23 0 0
-3.6321 0.7672 -12.8427 -0.084 -0.606 0.791 97 60 52 0 0
-3.3585 0.9075 -13.5322 -0.472 -0.812 -0.343 5 2 1 0 0
-3.3174 0.9339 -13.7002 0.171 0.100 0.980 47 19 14 0 0
-3.3541 0.9228 -13.7014 0.060 0.019 0.998 31 6 1 0 0
-3.3757 0.9176 -13.7191 -0.173 -0.247 0.954 31 6 2 0 0
-3.4063 0.9089 -13.7269 -0.173 -0.247 0.954 32 6 2 0 0
-3.5407 0.8624 -13.6612 -0.397 0.001 0.918 36 6 4 0 0
-3.8184 0.8032 -13.9736 -0.581 -0.654 0.484 103 55 44 0 0
-4.3878 0.8321 -16.4450 -0.902 -0.149 0.405 20 11 12 0 0
-4.4027 0.8300 -16.4748 -0.728 -0.530 0.435 17 10 10 0 0
-2.6132 1.0692 -12.3744 -0.934 0.093 0.346 121 48 31 0 0
-2.6271 1.0670 -12.3988 -0.679 0.094 0.728 122 49 32 0 0
-2.6418 1.0645 -12.4225 -0.716 -0.068 0.695 121 48 31 0 0
-3.6469 0.7902 -12.8334 -0.189 -0.777 0.601 100 57 50 0 0
-3.3586 0.9511 -13.7032 0.086 0.014 0.996 40 10 7 0 0
-3.4169 0.9348 -13.7221 -0.173 -0.247 0.954 34 6 3 0 0
-3.8693 0.8161 -13.9640 -0.767 -0.616 0.180 105 56 43 0 0
-3.8344 0.8845 -14.6568 0.011 -0.823 0.569 88 37 23 0 0
-4.4301 0.7966 -15.7966 -0.982 -0.153 0.112 122 114 112 0 0
-4.3652 0.8656 -16.3849 -0.754 -0.123 0.645 15 10 9 0 0
-2.2435 1.2160 -12.4221 -0.668 0.124 0.734 124 52 35 0 0
-3.6907 0.7822 -12.5638 -0.804 -0.031 0.594 98 38 13 0 0
-3.6954 0.8030 -12.8273 -0.420 -0.703 0.574 97 60 52 0 0
-3.3650 0.9787 -13.7031 0.086 0.014 0.996 54 26 22 0 0
-3.7942 0.8658 -13.9313 -0.488 -0.822 0.294 84 34 27 0 0
-3.8296 0.9135 -14.6259 0.421 -0.490 0.764 93 44 28 0 0
-3.8679 0.9015 -14.6239 0.052 -0.817 0.575 105 51 35 0 0
-4.4368 0.8252 -15.7963 -0.830 -0.548 0.106 127 122 118 0 0
-4.5308 0.8613 -16.5662 -0.711 -0.301 0.635 51 27 23 0 0
-4.5477 0.8584 -16.5933 -0.646 -0.337 0.685 47 23 18 0 0
-2.2280 1.2519 -12.4418 -0.435 -0.213 0.875 122 50 34 0 0
-2.6719 1.1116 -12.4054 -0.155 -0.373 0.915 121 48 31 0 0
-2.7859 1.0799 -12.4476 -0.684 0.099 0.723 119 45 28 0 0
-3.7023 0.8093 -12.5959 -0.447 -0.596 0.667 87 25 7 0 0
-3.7440 0.8157 -12.8210 0.079 0.077 0.994 82 50 44 0 0
-3.4428 0.9846 -13.7072 -0.024 -0.120 0.992 39 7 3 0 0
-3.7100 0.9049 -13.7410 -0.677 -0.323 0.661 147 100 62 0 0
-3.7287 0.9009 -13.7616 -0.722 -0.397 0.566 118 77 50 0 0
-3.7429 0.8986 -13.7871 -0.791 -0.324 0.519 75 37 24 0 0
-3.9007 0.8631 -13.9418 -0.484 -0.628 0.609 102 50 40 0 0
-3.8098 0.9260 -14.3491 -0.540 -0.832 -0.129 134 69 49 0 0
-4.5048 0.7631 -14.9566 -0.650 -0.739 0.175 74 47 41 0 0
-4.4718 0.8502 -15.8548 -0.774 -0.607 0.179 128 124 120 0 0
-4.5583 0.9084 -16.8485 -0.716 -0.683 0.143 68 44 42 0 0
-4.5617 0.9114 -16.8962 -0.700 -0.712 0.055 70 47 45 0 0
-4.6994 0.8785 -17.0084 -0.207 -0.135 0.969 162 160 164 0 0
-4.8249 0.8370 -16.9776 -0.699 -0.252 0.670 174 174 177 0 0
-2.1857 1.2918 -12.4107 -0.416 -0.229 0.880 122 51 33 0 0
-2.2116 1.2850 -12.4247 -0.416 -0.229 0.880 122 51 33 0 0
-2.6799 1.1411 -12.4411 -0.243 0.017 0.970 122 49 32 0 0
-2.7546 1.1183 -12.4455 -0.575 -0.108 0.811 121 48 31 0 0
-2.7861 1.1092 -12.4531 -0.691 0.111 0.715 122 49 32 0 0
-3.7269 0.8280 -12.5765 -0.348 -0.272 0.897 125 60 28 0 0
-3.7393 0.8463 -12.8322 -0.321 -0.263 0.910 99 61 51 0 0
-3.4203 1.0238 -13.7388 -0.358 -0.441 0.823 40 11 6 0 0
-3.4498 1.0154 -13.7477 -0.130 -0.149 0.980 37 7 3 0 0
-3.7207 0.9304 -13.7359 -0.598 -0.404 0.692 149 97 63 0 0
-3.7397 0.9262 -13.7561 -0.617 -0.314 0.722 136 93 60 0 0
-3.7517 0.9249 -13.7841 -0.791 -0.324 0.519 97 59 36 0 0
-3.8466 0.9006 -13.8430 -0.426 -0.531 0.732 129 80 49 0 0
-3.9115 0.8886 -13.9364 -0.329 0.046 0.943 86 34 26 0 0
-4.5262 0.7845 -14.9367 -0.857 -0.268 0.440 82 49 43 0 0
-4.5291 0.7873 -14.9789 -0.917 -0.292 0.273 87 57 53 0 0
-4.4373 0.9355 -16.3617 -0.652 -0.442 0.616 29 16 17 0 0
-4.7730 0.8786 -16.9070 -0.348 -0.561 0.751 158 156 159 0 0
-4.8131 0.8701 -16.9525 -0.260 -0.205 0.944 169 168 171 0 0
-4.8775 0.8462 -16.9074 -0.747 -0.473 0.467 172 172 174 0 0
-4.8978 0.8465 -16.9830 0.270 -0.596 0.756 178 178 180 0 0
-2.1947 1.3182 -12.4081 -0.416 -0.229 0.880 121 50 32 0 0
-2.2206 1.3114 -12.4221 -0.416 -0.229 0.880 121 50 32 0 0
-3.7337 0.8538 -12.5755 -0.034 -0.122 0.992 155 90 47 0 0
-3.7606 0.8463 -12.5856 -0.525 -0.839 0.144 108 42 12 0 0
-3.7870 0.8592 -12.8266 0.191 0.379 0.906 86 53 46 0 0
-3.4563 1.0429 -13.7474 -0.297 -0.295 0.908 41 10 6 0 0
-3.7723 0.9463 -13.7677 -0.701 -0.519 0.489 120 81 53 0 0
-3.7892 0.9431 -13.7902 -0.636 -0.542 0.550 78 35 22 0 0
-3.8038 0.9407 -13.8153 -0.500 -0.319 0.805 100 57 48 0 0
-3.8605 0.9247 -13.8342 -0.559 -0.008 0.829 137 99 68 0 0
-3.9150 0.9170 -13.9395 -0.608 -0.494 0.621 77 27 21 0 0
-3.8185 0.9988 -14.5293 -0.770 -0.638 -0.031 79 14 4 0 0
-4.4814 0.8260 -14.9120 -0.304 0.263 0.915 89 51 42 0 0
-4.4965 0.8236 -14.9382 -0.641 0.514 0.570 63 26 20 0 0
-4.5343 0.8115 -14.9344 -0.820 -0.197 0.537 74 38 34 0 0
-4.5377 0.8141 -14.9759 -0.926 -0.181 0.331 78 47 43 0 0
-4.4256 0.9640 -16.2864 -0.764 -0.370 0.529 28 15 14 0 0
-4.4347 0.9644 -16.3240 -0.891 -0.177 0.418 34 20 20 0 0
-4.6050 0.9302 -16.5388 -0.673 0.207 0.711 71 39 32 0 0
-4.6448 0.9310 -16.6880 -0.967 -0.082 0.242 46 33 32 0 0
-4.7307 0.9206 -16.8751 -0.017 -0.056 0.998 130 125 124 0 0
-4.7752 0.9102 -16.9140 -0.523 -0.529 0.669 155 153 156 0 0
-4.7772 0.9140 -16.9642 -0.240 -0.407 0.882 161 160 162 0 0
-2.4093 1.2803 -12.4046 -0.161 -0.083 0.983 124 51 36 0 0
-3.0202 1.0982 -12.5029 -0.412 -0.305 0.859 120 43 25 0 0
-3.7792 0.8911 -12.8411 -0.070 0.218 0.973 102 61 51 0 0
-3.4686 1.0681 -13.7407 -0.143 -0.329 0.934 60 29 23 0 0
-3.8237 0.9624 -13.7996 -0.662 -0.547 0.513 75 33 21 0 0
-3.8613 0.9542 -13.8402 -0.487 -0.345 0.802 114 72 49 0 0
-3.8895 0.9463 -13.8498 -0.490 -0.210 0.846 141 98 64 0 0
-3.9179 0.9457 -13.9433 -0.446 -0.563 0.696 81 32 24 0 0
-3.8970 0.9888 -14.3548 -0.662 -0.728 -0.179 126 56 36 0 0
-3.8264 1.0301 -14.5716 0.055 -0.203 0.978 74 14 4 0 0
-3.9091 1.0231 -14.7836 -0.355 -0.926 0.126 34 5 1 0 0
-4.5033 0.8471 -14.8917 -0.283 -0.226 0.932 90 53 44 0 0
-4.5189 0.8444 -14.9170 -0.637 -0.150 0.757 82 44 37 0 0
-4.4912 0.9149 -15.6119 -0.764 -0.461 0.452 16 10 10 0 0
-4.4974 0.9164 -15.6516 -0.580 -0.690 0.432 16 10 10 0 0
-4.4193 0.9989 -16.3048 -0.752 -0.467 0.465 42 25 24 0 0
-4.4376 0.9953 -16.3294 -0.940 -0.205 0.274 42 26 26 0 0
-4.6318 0.9599 -16.6130 -0.972 -0.093 0.217 52 24 19 0 0
-4.6406 0.9606 -16.6520 -0.972 -0.093 0.217 48 25 22 0 0
-4.6729 0.9509 -16.6563 -0.991 -0.135 0.023 44 29 26 0 0
-4.7113 0.9385 -16.6515 -0.955 -0.007 0.297 53 40 38 0 0
-4.6482 0.9806 -16.9034 -0.712 -0.676 -0.188 71 51 46 0 0
-4.7702 0.9402 -16.8787 -0.197 -0.179 0.964 138 133 133 0 0
-4.7887 0.9367 -16.9037 -0.523 -0.529 0.669 150 148 148 0 0
-4.7959 0.9382 -16.9459 -0.373 -0.224 0.900 158 158 160 0 0
-4.8225 0.9310 -16.9587 -0.373 -0.224 0.900 165 164 167 0 0
-4.8505 0.9232 -16.9693 -0.264 -0.361 0.895 170 168 171 0 0
-4.8799 0.9148 -16.9777 -0.189 -0.382 0.905 174 172 175 0 0
-2.7023 1.2173 -12.3994 -0.373 0.148 0.916 122 49 32 0 0
-2.7312 1.2091 -12.4096 -0.582 -0.158 0.797 126 53 36 0 0
-3.5358 0.9638 -12.4873 -0.606 0.166 0.778 115 42 26 0 0
-3.4571 1.0955 -13.6772 -0.644 -0.677 0.356 7 0 0 0 0
-3.4683 1.0946 -13.7063 -0.781 -0.509 0.363 23 9 7 0 0
-3.4815 1.0929 -13.7332 -0.728 -0.459 0.509 47 22 18 0 0
-3.5046 1.0871 -13.7491 -0.047 -0.121 0.992 38 8 4 0 0
-3.7046 1.0230 -13.7333 -0.008 0.278 0.961 57 11 2 0 0
-3.8866 0.9698 -13.7763 -0.751 -0.511 0.418 91 45 38 0 0
-3.9030 0.9667 -13.7993 -0.569 -0.603 0.559 115 69 52 0 0
-3.9218 0.9740 -13.9459 -0.645 -0.336 0.687 81 27 20 0 0
-3.9433 0.9726 -14.0056 -0.676 -0.026 0.737 92 39 31 0 0
-3.9482 0.9744 -14.0425 -0.990 -0.054 0.127 106 52 41 0 0
-3.9357 1.0307 -14.6243 -0.793 -0.607 -0.051 94 40 23 0 0
-4.0121 1.0144 -14.7091 0.331 -0.133 0.934 38 7 2 0 0
-4.4926 0.9455 -15.6188 -0.893 0.132 0.430 14 8 8 0 0
-4.4877 0.9520 -15.6739 -0.338 -0.206 0.918 14 8 8 0 0
-4.5130 0.9453 -15.6876 -0.365 -0.558 0.745 14 8 8 0 0
-4.4388 1.0225 -16.2865 -0.948 -0.236 0.215 42 26 25 0 0
-4.4578 1.0232 -16.3609 -0.704 -0.358 0.613 21 7 6 0 0
-4.7488 0.9776 -16.8681 0.115 0.007 0.993 109 98 96 0 0
-4.7991 0.9645 -16.8981 -0.432 -0.498 0.752 145 141 142 0 0
-4.8150 0.9622 -16.9272 -0.605 -0.595 0.528 155 153 156 0 0
-4.8268 0.9616 -16.9625 -0.265 -0.188 0.946 163 161 164 0 0
-4.8637 0.9498 -16.9595 -0.345 -0.295 0.891 168 166 169 0 0
-4.9498 0.9253 -16.9875 -0.217 -0.472 0.854 178 177 180 0 0
-2.2356 1.3920 -12.3875 -0.455 -0.285 0.843 121 50 32 0 0
-2.3897 1.3443 -12.3964 -0.090 -0.069 0.994 125 52 37 0 0
-3.0068 1.1552 -12.4520 -0.421 -0.092 0.903 122 47 28 0 0
-3.8779 0.8872 -12.5194 -0.634 -0.769 0.086 134 66 29 0 0
-3.4695 1.1243 -13.7118 -0.629 -0.098 0.771 8 1 1 0 0
-3.4944 1.1177 -13.7257 -0.859 -0.331 0.392 33 15 12 0 0
-3.5097 1.1152 -13.7503 -0.678 -0.165 0.716 39 12 8 0 0
-3.8638 1.0092 -13.8096 -0.704 -0.631 0.324 79 32 22 0 0
-3.9194 0.9896 -13.7875 -0.550 -0.695 0.463 115 68 56 0 0
-3.9469 1.0011 -14.0087 -0.588 -0.538 0.605 82 29 24 0 0
-3.9606 0.9992 -14.0352 -0.928 -0.244 0.282 98 45 38 0 0
-3.9487 1.0318 -14.3514 -0.668 -0.724 -0.173 119 49 25 0 0
-3.9374 1.0486 -14.4969 -0.051 -0.069 0.996 68 13 5 0 0
-3.9277 1.0567 -14.5528 -0.488 -0.529 0.694 60 11 4 0 0
-3.9504 1.0511 -14.5695 -0.554 -0.459 0.694 81 34 22 0 0
-3.9645 1.0492 -14.5968 -0.654 -0.715 0.249 84 30 17 0 0
-4.4925 0.9858 -15.7248 -0.216 0.293 0.931 14 8 8 0 0
-4.5329 0.9724 -15.7176 -0.663 -0.088 0.744 16 10 10 0 0
-4.5498 0.9694 -15.7429 -0.772 -0.083 0.631 16 10 10 0 0
-4.4459 1.0515 -16.2858 -0.948 -0.236 0.215 41 25 22 0 0
-4.4358 1.0607 -16.3510 -0.607 0.067 0.792 19 6 5 0 0
-4.4592 1.0549 -16.3684 -0.607 0.067 0.792 18 5 4 0 0
-4.7670 0.9828 -16.6407 -0.834 -0.474 0.281 59 42 45 0 0
-4.8120 0.9912 -16.8887 -0.424 -0.537 0.729 137 132 133 0 0
-4.8384 0.9841 -16.9018 -0.367 -0.562 0.741 150 146 150 0 0
-4.9235 0.9649 -16.9850 -0.058 -0.659 0.750 175 173 176 0 0
-2.2753 1.4061 -12.3568 -0.400 -0.524 0.752 122 51 33 0 0
-2.3708 1.3782 -12.3818 -0.159 -0.348 0.924 122 49 34 0 0
-2.4026 1.3689 -12.3900 -0.118 -0.291 0.949 121 48 33 0 0
-2.9008 1.2134 -12.4096 -0.494 -0.056 0.868 121 46 27 0 0
-3.1355 1.1426 -12.4454 -0.460 -0.123 0.879 120 43 25 0 0
-3.5525 1.0178 -12.5201 -0.593 -0.453 0.666 117 42 26 0 0
-3.8635 0.9498 -12.8478 -0.539 -0.769 0.344 98 62 56 0 0
-3.4869 1.1473 -13.6994 -0.415 -0.395 0.819 6 0 0 0 0
-3.5202 1.1371 -13.7040 -0.660 -0.649 0.378 17 5 5 0 0
-3.5332 1.1356 -13.7312 -0.611 -0.577 0.542 41 17 14 0 0
-3.9891 1.0016 -13.8396 -0.585 -0.650 0.485 132 82 42 0 0
-3.9952 1.0029 -13.8746 -0.701 -0.703 0.123 85 26 7 0 0
-3.9825 1.0200 -14.0167 -0.382 -0.820 0.426 88 36 25 0 0
-3.9486 1.0826 -14.5794 -0.299 -0.676 0.674 69 21 12 0 0
-3.9721 1.0766 -14.5952 -0.309 -0.821 0.480 89 37 23 0 0
-4.1210 1.0456 -14.7693 -0.122 -0.357 0.926 67 18 7 0 0
-4.2462 0.9999 -14.7019 -0.250 -0.070 0.966 79 26 13 0 0
-4.5242 1.0032 -15.6900 -0.868 -0.007 0.496 17 9 10 0 0
-4.4622 1.0859 -16.3737 -0.759 0.189 0.623 20 8 5 0 0
-4.6225 1.0375 -16.3981 -0.238 -0.806 0.542 37 13 9 0 0
-4.6299 1.0388 -16.4385 -0.065 -0.694 0.717 43 14 11 0 0
-4.7967 1.0016 -16.6062 -0.580 -0.795 0.179 56 41 43 0 0
-4.7989 1.0055 -16.6551 -0.791 -0.594 0.149 66 45 44 0 0
-4.7150 1.0533 -16.8864 -0.695 -0.707 -0.131 73 50 44 0 0
-4.8012 1.0239 -16.8623 -0.338 -0.661 0.670 110 100 99 0 0
-4.8671 1.0085 -16.9214 -0.020 -0.294 0.956 153 151 154 0 0
-2.6624 1.3183 -12.4164 -0.387 -0.247 0.888 122 49 33 0 0
-3.1418 1.1691 -12.4450 -0.460 -0.123 0.879 122 45 27 0 0
-3.5501 1.1586 -13.7192 -0.660 -0.649 0.378 38 18 16 0 0
-3.5656 1.1560 -13.7435 -0.526 -0.533 0.663 48 14 11 0 0
-3.7406 1.0977 -13.7134 -0.234 -0.340 0.911 36 6 2 0 0
-3.7662 1.0908 -13.7261 -0.472 0.061 0.880 41 6 2 0 0
-3.9947 1.0730 -14.3112 -0.476 -0.847 -0.239 115 50 21 0 0
-3.9670 1.1054 -14.5647 -0.299 -0.676 0.674 51 8 2 0 0
-4.1216 1.0762 -14.7765 -0.177 -0.206 0.963 64 17 8 0 0
-4.1830 1.0537 -14.7445 0.166 -0.170 0.971 71 20 9 0 0
-4.2544 1.0269 -14.6995 -0.416 -0.113 0.903 77 25 12 0 0
-4.4877 1.1020 -16.2960 -0.705 -0.355 0.614 41 23 20 0 0
-4.5060 1.0984 -16.3206 -0.550 -0.456 0.700 28 12 8 0 0
-4.6255 1.0635 -16.3522 -0.419 -0.906 -0.057 37 12 7 0 0
-4.6426 1.0653 -16.4298 -0.596 -0.254 0.762 42 14 10 0 0
-4.7414 1.0789 -16.9100 -0.700 -0.618 -0.357 80 60 55 0 0
-4.8643 1.0374 -16.8829 -0.357 -0.701 0.617 137 132 132 0 0
-4.8893 1.0308 -16.8978 0.001 -0.422 0.907 149 147 150 0 0
-4.9291 1.0175 -16.8900 0.012 -0.597 0.802 159 157 160 0 0
-4.9770 1.0154 -17.0303 -0.229 -0.928 0.294 179 179 181 0 0
-2.0940 1.5249 -12.3821 -0.079 -0.153 0.985 121 50 32 0 0
-2.1360 1.5115 -12.3818 -0.015 -0.045 0.999 122 51 33 0 0
-2.1685 1.5020 -12.3899 0.021 -0.081 0.996 121 50 32 0 0
-2.6403 1.3534 -12.4053 -0.402 -0.688 0.604 121 47 33 0 0
-3.1483 1.1955 -12.4445 -0.370 -0.087 0.925 120 43 25 0 0
-3.3085 1.1474 -12.4748 -0.104 -0.011 0.995 119 42 25 0 0
-3.9039 0.9941 -12.8560 -0.595 -0.419 0.686 100 62 52 0 0
-3.7944 1.1087 -13.7010 -0.740 -0.381 0.553 36 6 2 0 0
-4.0383 1.0602 -14.0080 -0.643 -0.751 0.152 90 35 24 0 0
-4.0148 1.1196 -14.5584 -0.165 -0.780 0.604 64 21 12 0 0
-4.2610 1.0546 -14.6991 -0.416 -0.113 0.903 74 23 10 0 0
-4.5441 1.0618 -15.7291 -0.851 -0.129 0.510 23 13 14 0 0
-4.5615 1.0586 -15.7538 -0.778 0.002 0.628 25 16 17 0 0
-4.5801 1.0549 -15.7768 -0.778 0.002 0.628 18 8 10 0 0
-4.6018 1.0498 -15.7955 -0.929 0.004 0.370 18 8 10 0 0
-4.6225 1.0497 -15.8648 -0.972 0.059 0.228 50 40 42 0 0
-4.5744 1.0855 -16.0814 -0.865 -0.483 -0.132 62 43 42 0 0
-4.5534 1.0997 -16.1614 -0.623 -0.781 -0.051 66 43 41 0 0
-4.6657 1.0774 -16.3037 -0.343 -0.920 -0.187 41 14 10 0 0
-4.7210 1.0715 -16.4276 -0.753 -0.628 0.198 55 19 13 0 0
-4.7333 1.0708 -16.4609 -0.762 -0.612 0.212 68 32 26 0 0
-4.9066 1.0554 -16.8816 -0.277 -0.838 0.470 144 141 142 0 0
-4.9389 1.0455 -16.8854 0.017 -0.621 0.784 156 154 157 0 0
-5.0041 1.0354 -16.9987 -0.222 -0.935 0.277 177 177 179 0 0
-2.0203 1.5778 -12.3788 -0.313 0.317 0.895 121 49 34 0 0
-3.1543 1.2221 -12.4444 -0.370 -0.087 0.925 128 51 33 0 0
-3.3090 1.1762 -12.4802 -0.036 -0.174 0.984 121 44 27 0 0
-3.5821 1.0917 -12.5077 -0.303 -0.065 0.951 115 38 22 0 0
-3.6016 1.0872 -12.5257 -0.487 -0.055 0.872 117 40 26 0 0
-3.9256 1.0137 -12.8390 -0.656 -0.723 0.218 96 57 45 0 0
-3.9486 1.0077 -12.8532 0.005 0.090 0.996 89 58 49 0 0
-3.8053 1.1340 -13.6957 -0.732 -0.468 0.496 38 6 2 0 0
-3.8256 1.1292 -13.7141 -0.426 -0.364 0.828 46 9 4 0 0
-4.0459 1.0747 -13.8790 -0.396 -0.806 0.439 109 51 22 0 0
-4.0301 1.1394 -14.5030 -0.439 -0.828 0.348 62 14 7 0 0
-4.0373 1.1405 -14.5385 -0.587 -0.414 0.696 58 13 7 0 0
-4.7175 1.0907 -16.2889 -0.367 -0.914 0.172 39 13 10 0 0
-4.7243 1.0924 -16.3300 -0.134 -0.948 0.290 42 14 10 0 0
-4.6986 1.1091 -16.4187 -0.299 -0.710 0.638 47 14 10 0 0
-4.7723 1.0851 -16.4134 -0.789 -0.582 -0.198 65 29 23 0 0
-4.8539 1.0972 -16.8130 -0.246 -0.736 0.631 89 69 66 0 0
-4.9832 1.0675 -16.9343 -0.200 -0.743 0.639 167 165 168 0 0
-5.0079 1.0611 -16.9495 -0.200 -0.743 0.639 171 171 173 0 0
-0.0110 2.2684 -12.5592 0.148 -0.267 0.952 111 51 40 0 0
-2.5866 1.4238 -12.3543 -0.565 -0.368 0.739 121 48 31 0 0
-2.6232 1.4124 -12.3576 -0.670 -0.365 0.647 121 48 31 0 0
-3.1347 1.2558 -12.4317 -0.185 -0.550 0.814 120 44 24 0 0
-3.2499 1.2225 -12.4692 -0.099 -0.171 0.980 119 42 24 0 0
-3.9565 1.0331 -12.8510 -0.481 -0.589 0.649 98 66 55 0 0
-3.7850 1.1726 -13.7256 -0.875 0.283 0.393 39 7 4 0 0
-4.0511 1.1651 -14.5292 -0.670 -0.244 0.701 61 15 9 0 0
-4.2435 1.1192 -14.6920 -0.424 0.225 0.877 59 15 8 0 0
-4.7465 1.1094 -16.2564 -0.377 -0.925 0.051 41 12 8 0 0
-4.7958 1.1014 -16.3373 -0.460 -0.887 -0.037 52 16 11 0 0
-5.0010 1.0917 -16.9170 -0.305 -0.784 0.540 164 164 167 0 0
-5.0216 1.0872 -16.9388 -0.296 -0.751 0.590 170 169 173 0 0
-5.0443 1.0817 -16.9571 -0.296 -0.751 0.590 176 176 178 0 0
-2.2987 1.5500 -12.4007 -0.452 0.137 0.881 120 47 30 0 0
-2.6225 1.4423 -12.3638 -0.433 -0.404 0.806 122 49 32 0 0
-3.1663 1.2754 -12.4442 -0.370 -0.087 0.925 120 43 25 0 0
-3.3950 1.2056 -12.4817 -0.638 0.181 0.748 122 45 25 0 0
-3.6432 1.1271 -12.4952 -0.321 -0.514 0.796 116 39 23 0 0
-3.9714 1.0555 -12.8413 -0.576 -0.681 0.453 95 57 44 0 0
-3.7994 1.1964 -13.7163 -0.443 0.107 0.890 37 8 4 0 0
-4.0905 1.1150 -13.8410 -0.358 -0.548 0.756 128 81 52 0 0
-4.1012 1.1228 -13.9554 -0.675 -0.661 0.327 78 24 12 0 0
-4.1845 1.1805 -14.8197 -0.797 -0.469 0.381 62 16 8 0 0
-4.1658 1.1933 -14.8890 -0.945 -0.302 0.124 68 20 11 0 0
-4.2655 1.1667 -14.9446 -0.436 -0.598 0.673 77 27 16 0 0
-4.7117 1.1426 -16.1644 -0.691 -0.642 0.332 50 35 30 0 0
-4.8338 1.1158 -16.2911 -0.123 -0.981 0.146 51 14 9 0 0
-5.0472 1.1076 -16.9093 0.018 -0.462 0.887 169 169 171 0 0
0.2479 2.4147 -12.5426 0.335 0.240 0.911 107 74 69 0 0
-2.6347 1.4669 -12.3580 -0.433 -0.404 0.806 122 49 32 0 0
-2.7182 1.4433 -12.3921 -0.123 -0.191 0.974 120 47 31 0 0
-2.7500 1.4338 -12.3996 -0.165 -0.219 0.962 120 44 30 0 0
-3.1445 1.3100 -12.4337 -0.239 -0.197 0.951 119 44 23 0 0
-3.3579 1.2464 -12.4869 -0.638 0.327 0.697 121 42 25 0 0
-3.6576 1.1497 -12.4864 -0.321 -0.514 0.796 116 40 24 0 0
-4.0066 1.0501 -12.6168 -0.646 -0.692 0.322 101 35 11 0 0
-4.0145 1.0505 -12.6467 -0.671 -0.684 0.286 75 15 3 0 0
-4.0012 1.0753 -12.8543 -0.376 -0.650 0.660 96 56 46 0 0
-3.8179 1.2183 -13.7022 -0.437 0.217 0.873 35 6 3 0 0
-4.0990 1.1369 -13.7961 -0.608 -0.217 0.764 101 58 50 0 0
-4.1405 1.1271 -13.8315 -0.621 0.069 0.781 117 59 27 0 0
-4.1223 1.1434 -13.9376 -0.781 -0.545 0.306 81 27 15 0 0
-4.1506 1.1436 -14.0318 -0.648 -0.739 0.183 99 48 37 0 0
-4.1745 1.1458 -14.1320 -0.719 -0.687 -0.105 71 16 8 0 0
-4.1666 1.1665 -14.3152 -0.585 -0.811 -0.011 97 28 14 0 0
-4.1893 1.1782 -14.5074 -0.750 -0.494 0.441 78 30 19 0 0
-4.7379 1.0206 -14.7032 -0.571 -0.432 0.698 77 24 12 0 0
-4.6611 1.1683 -15.9459 -0.702 -0.425 0.572 33 15 13 0 0
-5.0617 1.1332 -16.8972 -0.035 -0.337 0.941 166 166 167 0 0
-2.2129 1.6344 -12.3773 0.334 -0.330 0.883 124 51 36 0 0
-2.8233 1.4403 -12.4109 -0.267 -0.438 0.858 120 44 28 0 0
