ply
format ascii 1.0
element vertex 840
property float x
property float y
property float z
property float nx
property float ny
property float nz
property uchar diffuse_red
property uchar diffuse_green
property uchar diffuse_blue
property uchar class
property uchar detection
end_header
-3.1097 0.5429 -15.3706 -0.619 -0.785 -0.016 90 53 44 0 0
-3.1345 0.6174 -15.6431 -0.857 -0.504 0.103 49 35 35 0 0
-3.1394 0.6372 -15.7030 -0.741 -0.668 0.072 45 34 34 0 0
-3.1441 0.6677 -15.7736 -0.419 -0.908 0.020 43 34 33 0 0
-2.5921 1.4541 -12.3457 -0.082 -0.097 0.992 125 50 30 0 0
-2.7819 0.3820 -12.5274 -0.069 -0.190 0.979 130 62 51 0 0
-2.8176 0.1753 -12.5559 -0.470 -0.579 0.667 132 70 29 0 0
-2.8377 0.2071 -12.7414 -0.311 -0.857 0.411 76 18 9 0 0
-2.9041 0.3168 -13.3613 -0.778 -0.600 0.187 92 50 40 0 0
-2.9088 0.3133 -13.3923 -0.778 -0.600 0.187 92 51 41 0 0
-2.9131 0.3207 -13.4327 -0.723 -0.682 0.110 94 52 41 0 0
-2.9902 0.2641 -13.9417 -0.445 -0.888 0.114 72 21 12 0 0
-3.0900 0.3966 -14.8355 -0.009 -0.782 0.623 82 20 11 0 0
-3.1089 0.4598 -15.0487 -0.745 -0.667 -0.015 63 14 9 0 0
-3.1218 0.5656 -15.2662 -0.468 -0.867 0.172 67 27 19 0 0
-3.1271 0.5670 -15.3070 -0.445 -0.895 0.040 89 51 42 0 0
-3.1626 0.6526 -15.6697 -0.839 -0.506 0.202 48 37 38 0 0
-3.1673 0.6848 -15.7417 -0.161 -0.977 0.139 45 36 36 0 0
-3.1776 0.7189 -15.8571 -0.191 -0.930 0.315 39 33 32 0 0
-2.6189 1.5238 -12.4216 0.313 -0.713 0.628 124 49 30 0 0
-2.7663 0.6090 -12.4747 0.329 -0.315 0.890 127 46 27 0 0
-2.8127 0.3618 -12.5378 0.050 -0.076 0.996 148 91 79 0 0
-2.9102 0.3627 -13.2582 -0.696 -0.718 0.031 94 57 43 0 0
-2.9155 0.3446 -13.2768 -0.865 -0.477 0.156 89 51 36 0 0
-2.9250 0.3380 -13.3389 -0.857 -0.485 0.176 90 48 32 0 0
-2.9341 0.3409 -13.4094 -0.740 -0.650 0.174 87 42 30 0 0
-2.9388 0.3378 -13.4410 -0.740 -0.650 0.174 87 43 31 0 0
-2.9434 0.3402 -13.4772 -0.598 -0.795 0.101 88 46 33 0 0
-2.9616 0.3517 -13.6249 0.113 -0.864 0.491 100 60 47 0 0
-2.9670 0.3347 -13.6451 0.371 -0.756 0.540 97 56 45 0 0
-3.0069 0.2802 -13.8784 -0.287 -0.888 0.359 92 45 31 0 0
-3.1120 0.4205 -14.8126 0.133 -0.401 0.907 92 26 12 0 0
-3.1411 0.5062 -15.1241 -0.725 -0.688 0.005 57 11 6 0 0
-3.1910 0.6776 -15.6863 0.452 -0.851 0.268 40 28 26 0 0
-3.2110 0.7866 -15.9569 -0.501 -0.833 0.233 33 20 18 0 0
-3.2173 0.7500 -15.9621 0.414 -0.850 0.326 33 19 17 0 0
-3.2232 0.7373 -15.9910 0.353 -0.887 0.298 31 16 15 0 0
-2.7982 0.5696 -12.4708 0.316 -0.100 0.944 126 45 26 0 0
-2.8381 0.3661 -12.5356 0.036 -0.140 0.989 151 94 84 0 0
-2.8881 0.2253 -12.7445 -0.634 -0.712 0.303 89 36 23 0 0
-2.9215 0.3944 -13.1775 -0.665 -0.720 0.199 91 50 37 0 0
-2.9357 0.3815 -13.2676 -0.036 -0.999 0.004 88 51 38 0 0
-2.9407 0.3720 -13.2935 -0.796 -0.578 0.178 81 46 33 0 0
-2.9455 0.3673 -13.3234 -0.826 -0.528 0.196 70 38 26 0 0
-2.9506 0.3570 -13.3487 -0.856 -0.474 0.206 65 33 22 0 0
-2.9879 0.3625 -13.6278 -0.567 -0.757 0.324 115 75 53 0 0
-2.9992 0.3108 -13.6529 -0.090 -0.558 0.825 104 68 48 0 0
-3.0619 0.3138 -14.1158 -0.212 -0.977 0.024 93 32 17 0 0
-3.1174 0.4902 -14.7185 0.575 -0.712 0.403 74 16 5 0 0
-3.1232 0.4666 -14.7344 0.503 -0.341 0.794 90 30 14 0 0
-3.2143 0.6871 -15.6473 -0.336 -0.912 0.234 27 10 7 0 0
-3.2201 0.6748 -15.6757 0.451 -0.866 0.215 26 7 4 0 0
-3.2315 0.6606 -15.7432 -0.048 -0.909 0.414 27 9 5 0 0
-2.6667 1.5424 -12.3925 0.034 -0.248 0.968 125 50 31 0 0
-2.6725 1.5141 -12.4039 0.124 -0.517 0.847 126 51 32 0 0
-2.6787 1.4802 -12.4113 0.189 -0.338 0.922 125 50 31 0 0
-2.6910 1.4115 -12.4253 0.116 -0.196 0.974 127 50 32 0 0
-2.6969 1.3818 -12.4355 0.212 -0.296 0.931 126 49 31 0 0
-2.7271 1.1331 -12.3813 0.197 -0.736 0.647 126 48 28 0 0
-2.7458 1.0198 -12.3928 -0.276 -0.809 0.519 128 50 28 0 0
-2.7508 1.0051 -12.4134 -0.380 -0.706 0.597 128 50 28 0 0
-2.7622 0.9518 -12.4371 -0.330 -0.310 0.892 128 50 28 0 0
-2.8217 0.6173 -12.5017 0.272 -0.751 0.602 124 45 27 0 0
-2.8268 0.6004 -12.5204 0.272 -0.751 0.602 124 45 28 0 0
-2.8872 0.2261 -12.5473 -0.112 -0.643 0.758 147 78 31 0 0
-2.9580 0.3662 -13.2152 0.336 -0.934 -0.124 34 14 11 0 0
-2.9619 0.3834 -13.2631 0.111 -0.989 -0.095 27 10 7 0 0
-2.9663 0.3904 -13.3027 0.072 -0.997 0.009 20 5 3 0 0
-2.9708 0.3953 -13.3406 -0.714 -0.686 0.139 15 1 1 0 0
-2.9755 0.3938 -13.3733 -0.755 -0.642 0.136 14 1 1 0 0
-2.9942 0.3993 -13.5146 -0.481 -0.876 0.036 27 6 2 0 0
-3.0039 0.3936 -13.5787 -0.547 -0.810 0.211 40 5 3 0 0
-3.0089 0.3869 -13.6076 -0.567 -0.757 0.324 63 16 3 0 0
-3.0139 0.3788 -13.6354 -0.567 -0.757 0.324 102 53 24 0 0
-3.0255 0.3169 -13.6518 -0.421 -0.363 0.831 114 72 47 0 0
-3.0787 0.3269 -14.0489 -0.446 -0.876 0.183 111 51 32 0 0
-3.1400 0.4935 -14.6767 0.120 -0.884 0.452 77 18 7 0 0
-3.1455 0.4789 -14.7009 -0.051 -0.857 0.512 78 20 6 0 0
-3.1511 0.4629 -14.7239 0.075 -0.508 0.858 105 44 25 0 0
-3.1813 0.5197 -15.0058 -0.575 -0.815 -0.073 61 12 5 0 0
-3.1862 0.5403 -15.0638 -0.491 -0.867 -0.084 58 12 6 0 0
-3.1914 0.5480 -15.1099 -0.471 -0.882 -0.024 58 15 8 0 0
-3.2433 0.6862 -15.6386 -0.200 -0.960 0.194 26 7 2 0 0
-3.2494 0.6514 -15.6452 0.470 -0.833 0.291 28 8 3 0 0
-3.2552 0.6381 -15.6726 0.568 -0.787 0.241 30 8 3 0 0
-2.7532 1.1328 -12.3758 0.241 -0.836 0.493 126 48 28 0 0
-2.7644 1.0825 -12.4019 0.219 -0.654 0.724 126 48 28 0 0
-2.7763 1.0164 -12.4163 -0.380 -0.706 0.597 128 50 31 0 0
-2.7820 0.9897 -12.4281 -0.322 -0.614 0.721 126 48 27 0 0
-2.7872 0.9716 -12.4463 -0.086 -0.400 0.912 128 50 28 0 0
-2.8373 0.6466 -12.4551 0.079 -0.347 0.935 126 45 26 0 0
-2.8428 0.6232 -12.4689 0.095 -0.419 0.903 124 46 27 0 0
-2.8886 0.3767 -12.5327 -0.120 -0.014 0.993 149 89 80 0 0
-2.9282 0.2790 -12.7114 -0.395 -0.683 0.614 74 14 4 0 0
-2.9318 0.3001 -12.7605 -0.473 -0.361 0.803 85 26 15 0 0
-3.0258 0.3903 -13.5352 -0.071 -0.985 0.159 34 7 2 0 0
-3.0307 0.3861 -13.5661 -0.175 -0.962 0.209 42 8 2 0 0
-3.0357 0.3786 -13.5942 -0.185 -0.941 0.284 62 12 1 0 0
-3.0516 0.3326 -13.6589 -0.450 -0.324 0.832 114 69 44 0 0
-3.1104 0.3355 -14.0857 -0.569 -0.739 0.362 100 43 25 0 0
-3.1156 0.3303 -14.1171 -0.470 -0.571 0.673 95 35 16 0 0
-3.1267 0.4819 -14.3617 -0.804 -0.594 0.006 122 61 44 0 0
-3.1569 0.5124 -14.6119 -0.065 -0.995 0.076 79 21 9 0 0
-3.1838 0.4785 -14.7690 -0.655 -0.756 0.020 88 26 13 0 0
-3.2090 0.5403 -15.0178 -0.575 -0.815 -0.073 59 11 4 0 0
-3.2142 0.5518 -15.0673 -0.488 -0.871 -0.059 59 14 6 0 0
-2.7496 1.3824 -12.4252 0.142 -0.226 0.964 128 51 33 0 0
-2.7785 1.1488 -12.3820 -0.127 -0.488 0.863 124 47 27 0 0
-2.7905 1.0811 -12.3954 0.259 -0.465 0.847 129 51 31 0 0
-2.8018 1.0277 -12.4192 -0.380 -0.706 0.597 122 44 24 0 0
-2.8072 1.0061 -12.4348 -0.065 -0.732 0.678 123 45 24 0 0
-2.8131 0.9743 -12.4428 0.042 -0.379 0.924 128 50 28 0 0
-2.8325 0.8388 -12.4367 -0.408 -0.190 0.893 127 50 30 0 0
-3.0621 0.3842 -13.5927 -0.185 -0.941 0.284 68 14 0 0 0
-3.1267 0.3644 -14.0329 -0.702 -0.649 0.295 95 37 23 0 0
-3.1534 0.5114 -14.3814 -0.825 -0.560 0.072 122 59 43 0 0
-3.2059 0.4966 -14.7407 -0.518 -0.774 0.365 87 25 10 0 0
-3.3470 0.6609 -15.9246 0.056 -0.995 0.083 42 13 10 0 0
-3.6915 -0.8669 -16.7555 0.359 -0.066 0.931 198 198 200 0 0
-3.6966 -0.9409 -16.7132 0.654 0.167 0.738 199 199 201 0 0
-2.8278 1.0275 -12.4136 0.087 -0.784 0.615 122 44 24 0 0
-2.8386 0.9837 -12.4444 0.145 -0.523 0.840 125 47 27 0 0
-2.8519 0.8836 -12.4331 -0.330 -0.263 0.906 126 49 29 0 0
-2.8576 0.8550 -12.4433 -0.227 -0.242 0.943 132 54 34 0 0
-2.8969 0.6640 -12.5206 0.254 -0.572 0.780 124 45 28 0 0
-2.9783 0.3076 -12.7227 -0.626 -0.531 0.571 77 18 7 0 0
-3.0378 0.6239 -13.4780 -0.907 -0.421 0.025 6 1 0 0 0
-3.0819 0.4484 -13.6063 -0.019 -0.624 0.781 51 10 2 0 0
-3.0873 0.4323 -13.6273 -0.429 -0.614 0.663 76 18 1 0 0
-3.1616 0.4544 -14.1779 -0.638 -0.634 0.436 89 28 10 0 0
-3.1849 0.5651 -14.4597 -0.571 -0.799 -0.190 105 51 39 0 0
-3.2281 0.5141 -14.7121 -0.514 -0.824 0.236 87 24 10 0 0
-3.2332 0.5269 -14.7616 -0.696 -0.711 0.102 80 22 12 0 0
-3.2440 0.5213 -14.8323 -0.559 -0.817 0.142 61 14 6 0 0
-3.2492 0.5311 -14.8795 -0.512 -0.756 0.408 63 13 7 0 0
-3.2922 0.5667 -15.2225 0.190 -0.942 0.276 22 2 2 0 0
-3.3156 0.4812 -15.2979 0.586 -0.663 0.466 28 8 4 0 0
-2.8240 1.1994 -12.3766 0.379 -0.104 0.920 125 48 30 0 0
-2.8588 1.0142 -12.4299 -0.055 -0.826 0.561 123 45 25 0 0
-2.8647 0.9829 -12.4383 0.072 -0.505 0.860 125 47 27 0 0
-2.9072 0.7116 -12.4563 -0.088 -0.095 0.992 127 49 27 0 0
-2.9174 0.6806 -12.4961 0.161 -0.381 0.910 120 42 22 0 0
-2.9228 0.6582 -12.5107 0.323 -0.594 0.737 126 47 29 0 0
-3.0076 0.3303 -12.7673 -0.409 -0.457 0.790 94 42 31 0 0
-3.0550 0.6154 -13.3965 -0.724 -0.677 -0.134 7 1 1 0 0
-3.1005 0.5629 -13.6623 -0.192 -0.732 0.654 33 4 0 0 0
-3.1060 0.5434 -13.6805 -0.389 -0.812 0.434 51 9 1 0 0
-3.1168 0.5096 -13.7215 -0.284 -0.764 0.580 111 52 19 0 0
-3.1221 0.4947 -13.7438 -0.479 -0.808 0.342 112 63 30 0 0
-3.1499 0.3826 -13.8228 0.037 -0.508 0.861 118 80 42 0 0
-3.1884 0.4720 -14.1867 -0.545 -0.810 0.214 89 25 8 0 0
-3.2073 0.5629 -14.4139 -0.441 -0.887 -0.136 113 53 38 0 0
-3.2120 0.5889 -14.4741 -0.257 -0.943 -0.210 110 54 42 0 0
-3.2285 0.5539 -14.5539 -0.093 -0.920 0.381 91 30 24 0 0
-3.2504 0.5202 -14.6729 -0.231 -0.972 0.038 87 26 14 0 0
-3.2662 0.5402 -14.8047 -0.391 -0.920 0.011 60 13 4 0 0
-2.8628 1.1101 -12.3690 -0.050 -0.518 0.854 124 47 28 0 0
-2.8680 1.0930 -12.3879 0.057 -0.383 0.922 124 47 26 0 0
-2.8737 1.0653 -12.3991 0.057 -0.383 0.922 125 47 27 0 0
-2.8905 0.9854 -12.4347 0.072 -0.505 0.860 127 49 29 0 0
-2.9431 0.6814 -12.4912 0.161 -0.381 0.910 121 43 23 0 0
-2.9487 0.6545 -12.5023 0.323 -0.594 0.737 120 42 23 0 0
-2.9669 0.5288 -12.5011 -0.017 -0.563 0.826 125 49 32 0 0
-2.9847 0.4129 -12.5067 -0.182 -0.301 0.936 146 86 72 0 0
-3.1027 0.7389 -13.6647 0.024 -0.095 0.995 24 6 3 0 0
-3.1091 0.6861 -13.6554 0.156 -0.185 0.970 24 5 1 0 0
-3.1147 0.6642 -13.6718 -0.256 -0.328 0.909 25 3 1 0 0
-3.1227 0.5475 -13.6083 -0.278 -0.850 0.447 25 3 0 0 0
-3.1324 0.5545 -13.6836 -0.389 -0.812 0.434 51 11 3 0 0
-3.1377 0.5432 -13.7088 -0.412 -0.707 0.575 82 24 4 0 0
-3.1431 0.5273 -13.7303 -0.432 -0.569 0.700 114 61 26 0 0
-3.2152 0.4941 -14.1996 -0.577 -0.805 0.137 86 23 5 0 0
-3.2302 0.5260 -14.3373 -0.846 -0.506 0.167 123 67 49 0 0
-3.2343 0.5886 -14.4301 0.080 -0.995 -0.057 109 53 40 0 0
-3.2561 0.5565 -14.5494 0.172 -0.775 0.607 78 19 15 0 0
-3.3376 0.5764 -15.1387 0.017 -0.883 0.470 25 2 0 0 0
-3.3606 0.5146 -15.2362 0.277 -0.825 0.492 30 8 4 0 0
-3.6279 0.1762 -16.7573 0.286 0.520 0.805 130 128 128 0 0
-2.8889 1.1079 -12.3620 -0.466 -0.496 0.733 125 48 29 0 0
-2.8937 1.1014 -12.3887 0.052 -0.091 0.994 123 46 26 0 0
-2.9056 1.0304 -12.3995 0.015 -0.319 0.948 126 48 28 0 0
-2.9109 1.0117 -12.4172 -0.140 -0.498 0.856 124 46 26 0 0
-3.0272 0.3126 -12.5181 -0.261 -0.491 0.831 153 81 36 0 0
-3.1234 0.7874 -13.6641 0.345 0.061 0.936 21 6 6 0 0
-3.1491 0.5558 -13.6090 -0.278 -0.850 0.447 26 3 0 0 0
-3.1592 0.5524 -13.6755 -0.058 -0.637 0.769 52 10 3 0 0
-3.1642 0.5553 -13.7128 -0.412 -0.707 0.575 82 25 5 0 0
-3.2368 0.5151 -14.1753 -0.663 -0.747 0.052 88 32 19 0 0
-3.2420 0.5168 -14.2130 -0.639 -0.767 0.063 87 26 8 0 0
-3.2571 0.5547 -14.3561 -0.831 -0.526 0.183 123 66 49 0 0
-3.2619 0.5868 -14.4216 0.389 -0.867 0.311 105 52 38 0 0
-3.3599 0.5993 -15.1140 -0.188 -0.920 0.343 24 2 1 0 0
-3.3657 0.5786 -15.1334 0.017 -0.883 0.470 22 4 2 0 0
-3.3715 0.5618 -15.1565 0.182 -0.864 0.470 21 5 2 0 0
-3.3773 0.5470 -15.1815 0.182 -0.864 0.470 25 7 2 0 0
-3.6521 0.2780 -16.8149 -0.000 0.539 0.842 122 119 116 0 0
-2.8769 1.3748 -12.3613 -0.457 -0.012 0.889 125 48 30 0 0
-2.9764 0.8058 -12.4792 -0.214 -0.406 0.888 129 52 32 0 0
-3.0124 0.5598 -12.4822 0.030 -0.463 0.886 123 45 31 0 0
-3.0522 0.3224 -12.5202 -0.261 -0.491 0.831 140 72 23 0 0
-3.1563 0.7495 -13.6610 0.230 0.186 0.955 23 5 2 0 0
-3.1753 0.5776 -13.6210 -0.398 -0.698 0.596 27 5 2 0 0
-3.1794 0.6189 -13.6906 0.325 -0.569 0.755 37 7 2 0 0
-3.1859 0.5548 -13.6711 -0.113 -0.755 0.646 59 13 5 0 0
-3.2784 0.6048 -14.3573 -0.906 -0.417 0.067 102 55 40 0 0
-3.2993 0.6425 -14.5388 -0.146 -0.815 -0.561 114 50 29 0 0
-3.3881 0.6056 -15.1126 -0.188 -0.920 0.343 21 3 2 0 0
-3.3997 0.5565 -15.1441 0.023 -0.868 0.496 27 7 3 0 0
-3.4054 0.5596 -15.1860 -0.321 -0.741 0.590 32 7 3 0 0
-3.4166 0.5942 -15.2973 0.316 -0.806 0.501 45 11 6 0 0
-3.6869 0.1951 -16.7603 0.064 0.593 0.803 128 126 126 0 0
-3.7052 0.1264 -16.8175 0.138 -0.091 0.986 150 150 150 0 0
-2.9741 0.9499 -12.4236 0.240 -0.361 0.901 126 48 28 0 0
-2.9797 0.9204 -12.4332 -0.041 -0.272 0.962 130 52 32 0 0
-2.9913 0.8532 -12.4462 -0.041 -0.219 0.975 125 46 28 0 0
-3.0202 0.6794 -12.4731 -0.028 -0.191 0.981 114 39 19 0 0
-3.0536 0.5022 -12.5274 -0.331 -0.107 0.938 149 92 77 0 0
-3.0773 0.3321 -12.5222 -0.332 -0.534 0.778 130 57 9 0 0
-3.0865 0.3348 -12.5877 0.407 -0.285 0.867 57 8 0 0 0
-3.1705 0.8604 -13.6774 0.232 0.453 0.861 13 2 2 0 0
-3.1831 0.7509 -13.6559 0.140 0.159 0.977 22 6 3 0 0
-3.2071 0.5742 -13.6465 -0.394 -0.774 0.496 41 7 1 0 0
-3.4160 0.6414 -15.1390 0.071 -0.955 0.287 21 5 1 0 0
-3.4449 0.5876 -15.2835 0.098 -0.850 0.518 48 14 5 0 0
-3.4507 0.5690 -15.3051 -0.085 -0.961 0.262 51 15 7 0 0
-3.4565 0.5818 -15.3568 0.192 -0.908 0.373 54 16 9 0 0
-3.5446 0.3478 -15.7288 0.420 -0.587 0.692 54 17 9 0 0
-3.5505 0.3204 -15.7421 0.695 -0.454 0.558 53 17 9 0 0
-2.8658 1.8195 -12.3504 0.045 -0.525 0.850 122 49 32 0 0
-2.8717 1.7898 -12.3611 0.006 -0.487 0.873 124 49 33 0 0
-3.0332 0.7858 -12.4848 -0.043 -0.507 0.861 124 47 26 0 0
-3.0683 0.5503 -12.4955 0.218 -0.346 0.913 135 69 52 0 0
-3.0732 0.5456 -12.5236 -0.461 -0.804 0.375 141 81 69 0 0
-3.0789 0.5099 -12.5278 -0.181 -0.413 0.893 141 80 63 0 0
-3.1023 0.3409 -12.5235 -0.337 -0.412 0.847 124 52 10 0 0
-3.1975 0.8601 -13.6709 0.247 0.443 0.862 15 4 3 0 0
-3.2281 0.6070 -13.6331 -0.221 -0.662 0.716 28 4 2 0 0
-3.3175 0.5747 -14.2078 -0.462 -0.886 -0.040 78 20 8 0 0
-3.3381 0.6518 -14.4223 -0.336 -0.095 0.937 114 55 39 0 0
-3.3668 0.5107 -14.4802 -0.545 -0.789 0.284 65 14 6 0 0
-3.5666 0.2474 -15.5803 0.588 -0.778 0.221 55 16 9 0 0
-3.6262 0.1692 -15.9084 -0.814 -0.581 -0.013 73 51 47 0 0
-3.7622 0.0357 -16.7010 -0.056 0.316 0.947 151 151 152 0 0
-2.8984 1.7850 -12.3525 -0.169 -0.087 0.982 123 49 32 0 0
-2.9710 1.3316 -12.4085 -0.141 -0.010 0.990 123 46 26 0 0
-2.9789 1.2393 -12.3732 0.186 -0.238 0.953 125 48 28 0 0
-3.0367 0.8981 -12.4372 -0.012 -0.208 0.978 123 44 24 0 0
-3.0431 0.8435 -12.4280 0.173 -0.473 0.864 128 47 28 0 0
-3.0484 0.8221 -12.4435 0.138 -0.585 0.800 131 52 32 0 0
-3.0712 0.6879 -12.4685 0.205 -0.224 0.953 114 39 19 0 0
-3.1045 0.5052 -12.5186 -0.037 -0.626 0.779 138 74 54 0 0
-3.1275 0.3490 -12.5241 -0.568 -0.489 0.662 95 30 4 0 0
-3.2176 0.9533 -13.7070 0.168 0.419 0.893 8 0 0 0 0
-3.2647 0.6303 -13.7160 -0.610 -0.690 0.389 82 23 4 0 0
-3.3654 0.6720 -14.4334 -0.246 -0.054 0.968 111 50 38 0 0
-3.3711 0.6453 -14.4465 0.263 -0.686 0.678 109 52 36 0 0
-3.4724 0.6300 -15.1136 0.164 -0.910 0.381 31 7 4 0 0
-3.4840 0.6292 -15.1906 0.231 -0.863 0.449 49 14 8 0 0
-3.5074 0.7102 -15.4250 -0.608 -0.786 0.113 55 16 9 0 0
-3.5829 0.2426 -15.4877 0.424 -0.888 0.179 55 16 9 0 0
-3.5890 0.2551 -15.5400 0.394 -0.910 0.129 56 17 10 0 0
-3.7932 0.1291 -16.7941 0.143 0.450 0.881 151 151 152 0 0
-3.0049 1.2389 -12.3676 0.174 -0.327 0.929 122 45 27 0 0
-3.0516 0.9483 -12.4061 -0.079 -0.125 0.989 124 45 27 0 0
-3.0624 0.9022 -12.4349 0.074 -0.244 0.967 125 47 26 0 0
-3.0684 0.8565 -12.4323 0.222 -0.387 0.895 126 48 26 0 0
-3.0736 0.8402 -12.4515 0.262 -0.668 0.697 128 50 28 0 0
-3.1192 0.5551 -12.4882 0.211 -0.208 0.955 137 74 59 0 0
-3.1298 0.5121 -12.5183 -0.214 -0.761 0.612 142 74 53 0 0
-3.1525 0.3591 -12.5265 -0.463 -0.457 0.759 78 15 1 0 0
-3.2330 1.0230 -13.6884 0.488 -0.680 0.547 7 1 2 0 0
-3.3125 0.6271 -13.8471 -0.280 -0.377 0.883 64 13 4 0 0
-3.3236 0.5842 -13.8809 -0.273 -0.634 0.723 127 83 55 0 0
-3.3662 0.6020 -14.1822 -0.279 -0.960 0.014 81 24 14 0 0
-3.3989 0.6137 -14.4114 0.056 -0.640 0.766 107 48 32 0 0
-3.4047 0.5653 -14.4049 -0.490 -0.867 0.092 109 42 31 0 0
-3.4264 0.6431 -14.6233 -0.247 -0.969 -0.009 57 12 5 0 0
-3.4890 0.6383 -15.0366 0.252 -0.844 0.474 21 7 2 0 0
-3.5064 0.6455 -15.1596 0.184 -0.934 0.306 48 13 6 0 0
-3.5993 0.2647 -15.4221 0.234 -0.900 0.367 57 17 9 0 0
-3.8096 0.4539 -17.0052 0.257 0.597 0.760 125 122 123 0 0
-2.9633 1.7187 -12.3584 -0.378 -0.733 0.566 120 44 28 0 0
-2.9685 1.7045 -12.3799 -0.200 -0.670 0.715 119 43 27 0 0
-3.0880 0.9057 -12.4320 0.074 -0.244 0.967 124 46 24 0 0
-3.0941 0.8575 -12.4276 -0.002 -0.423 0.906 127 49 27 0 0
-3.0995 0.8316 -12.4397 -0.002 -0.423 0.906 125 48 25 0 0
-3.1048 0.8141 -12.4580 -0.022 -0.664 0.747 120 44 21 0 0
-3.1221 0.6975 -12.4648 0.526 -0.487 0.698 120 42 23 0 0
-3.1444 0.5663 -12.4912 0.055 -0.493 0.868 145 82 67 0 0
-3.1550 0.5232 -12.5213 -0.348 -0.711 0.611 144 72 51 0 0
-3.1669 0.4196 -12.5046 -0.429 -0.458 0.779 144 66 21 0 0
-3.1724 0.3880 -12.5118 -0.243 -0.341 0.908 123 46 8 0 0
-3.1777 0.3659 -12.5262 -0.434 -0.611 0.662 80 17 3 0 0
-3.2608 0.9824 -13.6488 -0.336 -0.905 0.260 6 0 0 0 0
-3.2662 0.9673 -13.6711 -0.372 -0.912 0.173 8 0 0 0 0
-3.3135 0.5890 -13.6338 0.128 -0.837 0.531 63 15 2 0 0
-3.3933 0.6114 -14.1838 -0.241 -0.970 -0.022 78 20 12 0 0
-3.4144 0.7480 -14.4505 -0.093 -0.154 0.984 122 60 41 0 0
-3.4261 0.6403 -14.4283 0.441 -0.620 0.648 106 45 24 0 0
-3.4541 0.6501 -14.6226 -0.247 -0.969 -0.009 57 13 4 0 0
-3.4597 0.6501 -14.6601 -0.231 -0.973 0.011 57 13 6 0 0
-3.4997 0.6773 -14.9503 0.002 -0.939 0.344 25 3 1 0 0
-3.6563 0.1554 -15.5053 -0.050 -0.983 0.177 60 16 8 0 0
-2.9886 1.7541 -12.3779 0.122 -0.309 0.943 118 43 26 0 0
-2.9944 1.7203 -12.3857 0.044 -0.444 0.895 119 43 27 0 0
-3.0061 1.6544 -12.4023 0.262 -0.490 0.831 123 47 31 0 0
-3.0239 1.5441 -12.4187 -0.303 -0.376 0.876 125 49 33 0 0
-3.1421 0.7278 -12.4507 -0.260 -0.359 0.896 120 41 23 0 0
-3.1474 0.7074 -12.4668 -0.112 -0.299 0.948 120 42 23 0 0
-3.1695 0.5809 -12.4968 -0.142 -0.164 0.976 146 81 67 0 0
-3.1804 0.5261 -12.5180 0.095 -0.412 0.906 143 69 48 0 0
-3.2208 0.4429 -12.7084 -0.613 -0.751 0.246 72 19 13 0 0
-3.3217 0.8153 -13.7129 -0.017 -0.428 0.904 21 6 3 0 0
-3.3771 0.6075 -13.8880 -0.134 -0.626 0.768 112 67 38 0 0
-3.3827 0.5858 -13.9046 -0.109 -0.552 0.826 79 30 13 0 0
-3.3882 0.5631 -13.9205 -0.109 -0.552 0.826 71 27 18 0 0
-3.4098 0.5693 -14.0683 -0.331 -0.943 0.027 107 55 39 0 0
-3.4150 0.6158 -14.1449 -0.251 -0.961 0.119 93 34 21 0 0
-3.4205 0.6131 -14.1786 -0.251 -0.961 0.119 76 16 8 0 0
-3.4424 0.6588 -14.3644 -0.568 -0.823 0.030 119 54 38 0 0
-3.4536 0.6365 -14.4180 -0.292 -0.829 0.477 110 46 23 0 0
-3.5451 0.6528 -15.0356 0.014 -0.961 0.276 35 12 6 0 0
-2.9940 1.9641 -12.4243 0.004 0.274 0.962 117 46 30 0 0
-3.0001 1.9235 -12.4278 -0.322 0.049 0.946 117 45 27 0 0
-3.0208 1.7239 -12.3829 0.084 -0.373 0.924 120 44 28 0 0
-3.0326 1.6521 -12.3953 0.276 -0.501 0.820 122 46 30 0 0
-3.1000 1.1371 -12.3716 -0.158 -0.259 0.953 128 51 33 0 0
-3.1168 1.0434 -12.3972 -0.280 -0.532 0.799 119 40 23 0 0
-3.1726 0.7221 -12.4724 -0.130 -0.555 0.822 119 41 23 0 0
-3.2004 0.5547 -12.5029 0.095 -0.412 0.906 141 76 61 0 0
-3.2057 0.5284 -12.5143 0.095 -0.412 0.906 149 74 52 0 0
-3.3093 0.9964 -13.6132 -0.354 -0.909 -0.219 6 0 0 0 0
-3.3485 0.8251 -13.7148 -0.026 -0.429 0.903 21 6 3 0 0
-3.3928 0.6559 -13.8524 -0.007 -0.311 0.951 89 38 21 0 0
-3.3985 0.6241 -13.8604 0.039 -0.318 0.947 122 81 49 0 0
-3.4039 0.6142 -13.8872 -0.134 -0.626 0.768 108 61 33 0 0
-3.4095 0.5923 -13.9038 -0.109 -0.552 0.826 73 23 11 0 0
-3.4151 0.5610 -13.9122 -0.251 -0.845 0.473 64 23 15 0 0
-3.4475 0.6360 -14.1920 -0.614 -0.777 0.136 73 13 5 0 0
-3.5498 0.6977 -14.9165 -0.084 -0.934 0.346 16 1 0 0 0
-3.5673 0.6629 -14.9992 0.014 -0.961 0.276 35 9 4 0 0
-3.5733 0.6807 -15.0543 0.269 -0.709 0.652 44 13 7 0 0
-3.6720 0.3277 -15.3817 0.537 -0.671 0.511 62 17 11 0 0
-3.6777 0.2939 -15.3882 0.372 -0.652 0.661 62 17 11 0 0
-3.7437 0.1923 -15.7284 -0.475 -0.879 0.040 83 50 45 0 0
-3.9013 0.2970 -16.8533 0.245 0.596 0.765 141 139 142 0 0
-3.0473 1.7229 -12.3769 -0.433 -0.671 0.603 121 45 29 0 0
-3.0579 1.6900 -12.4168 -0.377 -0.505 0.777 120 44 28 0 0
-3.1426 1.0452 -12.3931 -0.290 -0.380 0.878 122 43 26 0 0
-3.1645 0.9337 -12.4364 -0.075 -0.199 0.977 127 49 29 0 0
-3.1759 0.8591 -12.4438 -0.294 -0.287 0.912 121 43 23 0 0
-3.1813 0.8315 -12.4547 -0.228 -0.288 0.930 117 38 21 0 0
-3.1925 0.7647 -12.4676 -0.294 -0.628 0.721 121 42 24 0 0
-3.2367 0.4913 -12.5118 -0.276 -0.436 0.857 164 91 53 0 0
-3.2530 0.3970 -12.5336 -0.039 0.182 0.982 58 10 5 0 0
-3.3414 1.0112 -13.6537 0.179 -0.583 0.792 6 0 0 0 0
-3.3470 0.9933 -13.6737 0.228 -0.375 0.899 10 1 1 0 0
-3.3526 0.9641 -13.6844 0.228 -0.375 0.899 19 8 7 0 0
-3.4141 0.6790 -13.8304 0.100 -0.724 0.682 63 14 6 0 0
-3.4197 0.6590 -13.8486 0.183 -0.366 0.912 91 44 25 0 0
-3.4253 0.6300 -13.8591 0.183 -0.366 0.912 125 83 53 0 0
-3.4307 0.6209 -13.8865 -0.138 -0.720 0.680 98 49 27 0 0
-3.4363 0.5998 -13.9037 -0.211 -0.553 0.806 70 23 11 0 0
-3.5777 0.6937 -14.9056 0.123 -0.922 0.368 18 3 1 0 0
-3.5836 0.6819 -14.9329 0.123 -0.922 0.368 23 6 1 0 0
-3.6994 0.2816 -15.3290 0.123 -0.691 0.712 62 19 10 0 0
-3.7052 0.2614 -15.3487 0.083 -0.580 0.810 62 19 10 0 0
-3.8113 0.2644 -16.0404 -0.034 -0.986 -0.161 84 56 51 0 0
-3.8179 0.2735 -16.0914 -0.054 -0.984 -0.168 84 56 51 0 0
-3.9368 0.2729 -16.8624 0.177 0.456 0.872 150 150 152 0 0
-3.1900 0.9446 -12.4391 -0.261 -0.155 0.953 124 46 26 0 0
-3.1958 0.8999 -12.4374 -0.294 -0.287 0.912 123 45 25 0 0
-3.2013 0.8719 -12.4480 -0.294 -0.287 0.912 122 44 25 0 0
-3.2067 0.8439 -12.4585 -0.294 -0.287 0.912 119 42 24 0 0
-3.2123 0.8080 -12.4632 -0.114 -0.022 0.993 117 40 22 0 0
-3.2176 0.7859 -12.4781 0.241 -0.128 0.962 120 42 25 0 0
-3.2619 0.5014 -12.5140 -0.452 -0.474 0.756 163 89 51 0 0
-3.3575 1.0348 -13.5975 -0.711 -0.704 0.011 5 1 0 0 0
-3.3621 1.1169 -13.6991 0.136 0.280 0.950 6 0 0 0 0
-3.3850 0.9580 -13.7079 0.008 -0.699 0.715 17 6 4 0 0
-3.4078 0.8029 -13.7185 0.036 -0.261 0.965 36 7 2 0 0
-3.4409 0.6855 -13.8295 0.060 -0.794 0.605 67 17 9 0 0
-3.4465 0.6714 -13.8528 0.049 -0.530 0.847 114 70 49 0 0
-3.4520 0.6420 -13.8629 0.035 -0.581 0.813 122 79 48 0 0
-3.4575 0.6357 -13.8928 -0.333 -0.722 0.607 86 34 15 0 0
-3.4630 0.6238 -13.9179 -0.377 -0.521 0.766 70 22 11 0 0
-3.5590 0.7335 -14.6326 -0.635 -0.724 0.268 51 11 6 0 0
-3.6058 0.7100 -14.9135 -0.055 -0.866 0.496 21 5 2 0 0
-3.6115 0.6870 -14.9305 -0.311 -0.722 0.618 30 8 3 0 0
-3.6241 0.7678 -15.0822 -0.442 -0.846 0.299 49 16 8 0 0
-3.7208 0.2547 -15.2559 0.514 -0.740 0.435 63 19 10 0 0
-3.7271 0.2683 -15.3085 0.363 -0.754 0.547 63 19 10 0 0
-3.8597 0.2799 -16.1735 -0.161 -0.982 -0.101 84 56 52 0 0
-3.9584 0.4590 -16.9664 0.247 0.589 0.769 129 125 127 0 0
-3.9607 0.3155 -16.8558 0.247 0.589 0.769 142 140 143 0 0
-3.9663 0.2752 -16.8562 0.166 0.481 0.861 151 151 153 0 0
-3.1239 1.5564 -12.3746 -0.567 -0.543 0.620 120 42 26 0 0
-3.1293 1.5360 -12.3915 -0.563 -0.791 0.238 121 43 27 0 0
-3.1343 1.5335 -12.4212 -0.651 -0.395 0.648 121 44 28 0 0
-3.1646 1.2821 -12.3980 -0.049 -0.425 0.904 121 43 26 0 0
-3.1702 1.2510 -12.4069 -0.109 -0.481 0.870 120 43 25 0 0
-3.2218 0.8813 -12.4181 -0.650 -0.437 0.621 122 43 25 0 0
-3.2599 0.6773 -12.4851 -0.184 -0.550 0.815 137 66 54 0 0
-3.2975 0.4801 -12.5553 -0.250 -0.331 0.910 72 17 3 0 0
-3.4065 0.9739 -13.6800 -0.164 -0.097 0.982 20 9 8 0 0
-3.4121 0.9453 -13.6912 -0.240 -0.352 0.905 17 6 4 0 0
-3.4177 0.9100 -13.6968 -0.169 -0.263 0.950 18 6 3 0 0
-3.4233 0.8814 -13.7079 -0.518 -0.594 0.616 21 5 2 0 0
-3.4401 0.7968 -13.7419 0.061 -0.334 0.941 76 19 2 0 0
-3.4844 0.6455 -13.8947 -0.388 -0.691 0.610 81 30 11 0 0
-3.4899 0.6313 -13.9179 -0.271 -0.732 0.625 74 26 16 0 0
-3.5868 0.7536 -14.6438 -0.635 -0.724 0.268 42 7 2 0 0
-3.7484 0.2453 -15.2392 0.514 -0.740 0.435 66 19 11 0 0
-3.9848 0.5737 -17.0366 0.231 0.541 0.809 112 108 107 0 0
-3.1606 1.5294 -12.4129 -0.523 -0.190 0.831 119 42 26 0 0
-3.1851 1.3065 -12.3789 -0.029 -0.624 0.781 122 43 26 0 0
-3.1905 1.2860 -12.3955 -0.029 -0.624 0.781 121 41 24 0 0
-3.1959 1.2655 -12.4121 -0.029 -0.624 0.781 119 40 23 0 0
-3.2014 1.2336 -12.4203 -0.145 -0.372 0.917 120 41 24 0 0
-3.2524 0.8844 -12.4464 -0.191 -0.242 0.951 115 36 19 0 0
-3.2801 0.6988 -12.4644 0.231 -0.136 0.963 125 52 39 0 0
-3.2853 0.6804 -12.4820 0.240 -0.371 0.897 133 64 51 0 0
-3.3227 0.4883 -12.5561 -0.256 -0.387 0.886 75 20 4 0 0
-3.4501 0.8975 -13.7150 -0.417 -0.424 0.804 21 5 2 0 0
-3.4669 0.8006 -13.7388 0.061 -0.334 0.941 81 23 4 0 0
-3.4726 0.7081 -13.6961 -0.469 -0.332 0.819 115 61 25 0 0
-3.5112 0.6580 -13.8990 -0.433 -0.717 0.546 77 29 9 0 0
-3.5167 0.6438 -13.9221 -0.433 -0.717 0.546 69 24 15 0 0
-3.6629 0.8404 -15.0191 -0.513 -0.496 0.701 41 15 8 0 0
-3.9366 0.2705 -16.2733 0.307 -0.828 0.469 81 54 50 0 0
-3.2218 1.2697 -12.4097 -0.029 -0.624 0.781 121 42 25 0 0
-3.2779 0.8901 -12.4452 0.049 -0.287 0.957 121 43 25 0 0
-3.4770 0.9111 -13.7199 -0.424 -0.526 0.738 22 5 3 0 0
-3.4937 0.8045 -13.7357 0.061 -0.334 0.941 90 29 8 0 0
-3.6963 0.7791 -14.9938 -0.200 -0.843 0.500 52 16 8 0 0
-3.7267 0.7654 -15.1743 -0.047 -0.696 0.717 60 18 11 0 0
-3.7828 0.4301 -15.2465 -0.376 -0.596 0.709 65 19 11 0 0
-3.8998 0.2807 -15.8598 -0.305 -0.945 0.115 41 24 23 0 0
-3.3034 0.9007 -12.4476 -0.073 -0.222 0.972 124 45 28 0 0
-3.3630 0.5243 -12.5095 -0.256 -0.510 0.821 134 52 10 0 0
-3.5039 0.9252 -13.7253 -0.424 -0.526 0.738 23 6 4 0 0
-3.5819 0.6834 -14.0142 -0.688 -0.560 0.462 89 41 27 0 0
-3.6288 0.7989 -14.4042 -0.112 -0.625 0.773 85 22 14 0 0
-3.7183 0.7878 -14.9563 0.016 -0.870 0.493 52 15 7 0 0
-3.9225 0.3091 -15.8396 -0.299 -0.950 -0.089 49 35 34 0 0
-3.9501 0.3540 -16.0500 -0.520 -0.833 0.189 53 43 42 0 0
-3.3121 1.0439 -12.4540 -0.240 -0.014 0.971 120 41 24 0 0
-3.3290 0.9048 -12.4452 -0.171 -0.234 0.957 121 42 25 0 0
-3.3347 0.8464 -12.4332 -0.223 -0.253 0.941 121 44 25 0 0
-3.3400 0.8225 -12.4466 -0.011 -0.685 0.728 116 38 23 0 0
-3.3508 0.7542 -12.4583 0.106 -0.220 0.970 125 51 35 0 0
-3.3882 0.5348 -12.5120 -0.414 -0.752 0.513 132 45 4 0 0
-3.4029 0.6257 -12.6775 -0.337 -0.822 0.459 48 7 3 0 0
-3.4082 0.6031 -12.6920 -0.136 -0.408 0.903 56 10 5 0 0
-3.6263 0.7173 -14.1444 0.107 -0.961 0.254 75 21 10 0 0
-3.6563 0.8047 -14.4025 0.021 -0.277 0.961 71 17 10 0 0
-3.6619 0.7779 -14.4155 -0.247 -0.704 0.666 58 14 8 0 0
-3.6682 0.8155 -14.4856 -0.345 -0.425 0.837 56 14 9 0 0
-3.7344 0.8085 -14.8918 -0.228 -0.914 0.336 42 13 5 0 0
-3.7455 0.7375 -14.9029 -0.541 -0.416 0.731 60 20 12 0 0
-3.9790 0.3635 -16.0516 -0.075 -0.422 0.903 56 46 45 0 0
-3.9852 0.3509 -16.0804 -0.132 -0.425 0.896 57 47 48 0 0
-4.1027 0.5455 -16.9710 0.295 0.544 0.786 123 120 122 0 0
-3.3045 1.2818 -12.4338 -0.011 -0.430 0.903 121 42 25 0 0
-3.3099 1.2585 -12.4484 -0.017 -0.419 0.908 120 42 24 0 0
-3.3490 0.9517 -12.4432 0.266 -0.242 0.933 117 38 21 0 0
-3.3545 0.9123 -12.4454 0.353 -0.597 0.721 118 39 22 0 0
-3.3603 0.8364 -12.4202 -0.267 -0.488 0.831 119 40 23 0 0
-3.3761 0.7780 -12.4707 0.053 -0.392 0.918 125 52 35 0 0
-3.4283 0.6402 -12.6831 -0.335 -0.560 0.758 51 9 2 0 0
-3.4336 0.6256 -12.7039 -0.526 -0.410 0.745 57 10 4 0 0
-3.6838 0.8080 -14.3985 0.131 -0.686 0.715 64 14 7 0 0
-3.6895 0.7889 -14.4184 -0.337 -0.839 0.428 54 13 7 0 0
-3.6959 0.8268 -14.4888 -0.038 -0.542 0.839 54 13 7 0 0
-3.7015 0.8026 -14.5043 -0.443 -0.748 0.494 52 12 7 0 0
-3.7623 0.8135 -14.8892 -0.329 -0.761 0.559 51 16 8 0 0
-3.7680 0.7847 -14.9010 -0.232 -0.844 0.483 57 17 7 0 0
-3.8169 0.4488 -14.9329 -0.772 0.026 0.635 62 18 10 0 0
-4.1319 0.5351 -16.9510 0.312 0.565 0.764 126 123 127 0 0
-3.3746 0.9565 -12.4413 -0.212 -0.316 0.925 117 38 21 0 0
-3.4386 0.5884 -12.5421 -0.411 -0.648 0.642 122 42 4 0 0
-3.4591 0.6478 -12.7155 -0.641 -0.425 0.639 62 12 8 0 0
-3.7907 0.8378 -14.9042 -0.403 -0.547 0.734 55 16 8 0 0
-3.7959 0.7889 -14.8977 -0.518 -0.652 0.554 59 16 9 0 0
-3.8457 0.5036 -14.9770 -0.250 -0.789 0.562 64 18 10 0 0
-4.0319 0.4337 -16.0655 -0.718 -0.659 0.226 46 36 37 0 0
-4.0793 0.2520 -16.2127 -0.370 -0.651 0.663 62 46 46 0 0
-3.3458 1.3044 -12.3766 0.325 -0.100 0.941 117 40 22 0 0
-3.3947 1.0018 -12.4380 -0.184 -0.238 0.954 118 39 22 0 0
-3.6850 0.7884 -14.0427 -0.672 -0.423 0.608 91 46 34 0 0
-3.7275 0.8737 -14.3695 -0.719 -0.694 0.032 110 44 26 0 0
-3.7570 0.8352 -14.5195 -0.278 -0.950 0.141 42 10 5 0 0
-3.8010 0.8935 -14.8337 -0.587 -0.741 0.326 26 5 2 0 0
-3.8067 0.8639 -14.8449 -0.429 -0.641 0.637 40 11 4 0 0
-3.8122 0.8303 -14.8523 -0.309 -0.424 0.852 51 14 6 0 0
-3.8189 0.8534 -14.9113 -0.523 -0.644 0.558 59 16 8 0 0
-3.9011 0.3634 -15.0293 -0.099 -0.744 0.661 73 21 10 0 0
-3.9070 0.3497 -15.0547 -0.325 -0.842 0.430 89 38 25 0 0
-4.1084 0.2641 -16.2170 -0.370 -0.651 0.663 60 46 46 0 0
-3.3766 1.3330 -12.4232 -0.696 -0.210 0.687 119 42 24 0 0
-3.3932 1.2060 -12.4254 0.233 -0.267 0.935 118 42 23 0 0
-3.4203 1.0122 -12.4404 -0.184 -0.238 0.954 119 40 23 0 0
-3.4573 0.9097 -12.5851 0.138 -0.961 0.242 132 70 57 0 0
-3.4625 0.9007 -12.6101 -0.116 -0.898 0.424 134 70 55 0 0
-3.5050 0.6525 -12.6758 -0.177 -0.274 0.945 60 11 5 0 0
-3.6218 1.0347 -13.6799 -0.138 -0.520 0.843 18 6 5 0 0
-3.6274 1.0112 -13.6954 -0.138 -0.520 0.843 19 6 5 0 0
-3.6782 0.8980 -13.9164 -0.015 -0.583 0.812 121 77 53 0 0
-3.6837 0.8700 -13.9281 0.047 -0.575 0.817 111 63 29 0 0
-3.7550 0.8809 -14.3690 -0.320 -0.660 0.679 103 37 21 0 0
-3.8356 0.9132 -14.8825 -0.748 -0.564 0.351 48 14 7 0 0
-3.8404 0.8495 -14.8626 -0.432 -0.302 0.850 57 17 8 0 0
-3.8467 0.8487 -14.8999 -0.698 -0.301 0.650 62 18 9 0 0
-3.8614 0.9374 -15.0575 -0.629 -0.380 0.679 66 20 11 0 0
-3.8688 0.9813 -15.1364 -0.765 -0.573 0.295 66 19 11 0 0
-3.8958 0.5477 -14.9655 0.254 -0.497 0.830 66 18 10 0 0
-3.8987 0.4192 -14.8834 -0.331 -0.827 0.455 67 18 11 0 0
-3.9409 0.3486 -15.0849 -0.531 -0.698 0.481 84 36 26 0 0
-3.9722 0.3255 -15.2571 -0.372 -0.918 0.137 49 21 20 0 0
-4.1281 0.3790 -16.2438 -0.572 0.125 0.811 41 27 29 0 0
-4.1375 0.2762 -16.2213 -0.370 -0.651 0.663 56 45 44 0 0
-4.2378 0.3005 -16.8486 0.510 0.424 0.748 164 163 165 0 0
-3.3866 1.3836 -12.3602 -0.130 -0.723 0.678 117 42 23 0 0
-3.4190 1.2050 -12.4193 0.233 -0.267 0.935 119 44 25 0 0
-3.5305 0.6895 -12.6987 -0.174 -0.578 0.797 65 14 9 0 0
-3.5359 0.7052 -12.7430 -0.575 -0.469 0.671 74 24 17 0 0
-3.6489 1.0529 -13.6887 -0.237 -0.380 0.894 18 6 5 0 0
-3.6542 1.0076 -13.6862 -0.292 -0.490 0.822 17 5 4 0 0
-3.6997 0.9241 -13.8966 -0.010 -0.673 0.740 94 42 29 0 0
-3.7053 0.9019 -13.9133 0.027 -0.617 0.786 118 72 46 0 0
-3.7107 0.8716 -13.9230 0.019 -0.442 0.897 102 50 21 0 0
-3.7826 0.8916 -14.3716 -0.320 -0.660 0.679 91 28 14 0 0
-3.8003 0.8618 -14.4556 -0.399 -0.632 0.664 53 15 9 0 0
-3.8706 0.9452 -14.9425 -0.842 -0.353 0.407 60 19 10 0 0
-3.9199 0.4224 -14.8413 0.069 -0.889 0.453 66 19 11 0 0
-3.9446 0.4025 -14.9750 -0.476 -0.779 0.408 74 22 11 0 0
-3.9690 0.3655 -15.0937 -0.533 -0.739 0.411 88 43 33 0 0
-3.9942 0.3484 -15.2327 -0.559 -0.819 0.125 48 19 17 0 0
-4.0003 0.3361 -15.2599 -0.240 -0.943 0.230 43 17 16 0 0
-4.0372 0.4521 -15.5709 -0.777 -0.623 0.085 58 48 47 0 0
-4.1107 0.5989 -16.1255 -0.856 -0.176 0.486 17 8 9 0 0
-4.2113 0.4855 -16.6451 -0.670 0.105 0.735 71 47 43 0 0
-4.2580 0.2689 -16.7620 0.443 0.412 0.796 161 160 165 0 0
-4.2636 0.2367 -16.7709 0.478 0.426 0.768 164 164 167 0 0
-3.4822 0.9301 -12.4314 -0.354 -0.023 0.935 118 42 24 0 0
-3.5033 0.9276 -12.5558 0.074 -0.389 0.918 128 61 46 0 0
-3.5139 0.9157 -12.6104 0.035 -0.920 0.391 128 57 36 0 0
-3.5562 0.7175 -12.7148 -0.543 -0.613 0.575 65 15 10 0 0
-3.5616 0.7216 -12.7501 -0.478 -0.706 0.523 79 30 24 0 0
-3.6759 1.0637 -13.6912 -0.237 -0.380 0.894 17 5 3 0 0
-3.6814 1.0377 -13.7047 -0.284 -0.428 0.858 20 5 3 0 0
-3.7323 0.9069 -13.9111 -0.015 -0.583 0.812 119 72 43 0 0
-3.7376 0.8695 -13.9148 -0.099 -0.401 0.911 87 34 13 0 0
-3.8100 0.8896 -14.3631 -0.040 -0.574 0.818 78 21 7 0 0
-3.8220 0.8786 -14.4268 -0.117 -0.903 0.413 55 16 8 0 0
-3.9787 0.4099 -15.0130 -0.464 -0.810 0.358 86 35 23 0 0
-3.9848 0.4000 -15.0421 -0.596 -0.733 0.328 82 33 21 0 0
-3.9970 0.3805 -15.1007 -0.553 -0.739 0.385 92 50 43 0 0
-4.1290 0.6792 -16.1151 -0.771 -0.632 0.070 16 6 5 0 0
-4.1361 0.6829 -16.1604 -0.771 -0.632 0.070 16 5 4 0 0
-4.1429 0.6793 -16.1986 -0.806 -0.570 0.163 17 7 8 0 0
-4.1559 0.6547 -16.2576 -0.798 -0.202 0.567 25 15 13 0 0
-4.1610 0.6130 -16.2572 -0.735 -0.336 0.589 22 11 9 0 0
-4.2892 0.3076 -16.7949 0.614 -0.777 0.140 161 160 165 0 0
-4.2961 0.3011 -16.8317 0.388 -0.909 0.152 165 165 167 0 0
-3.5025 1.0051 -12.4503 -0.300 -0.290 0.909 118 42 25 0 0
-3.5077 0.9698 -12.4555 -0.491 -0.225 0.842 120 45 29 0 0
-3.5236 0.9427 -12.5299 -0.356 -0.754 0.552 121 47 32 0 0
-3.5289 0.9360 -12.5566 -0.545 -0.630 0.554 131 65 48 0 0
-3.5602 0.6894 -12.5600 -0.355 -0.302 0.885 114 48 13 0 0
-3.5764 0.7064 -12.6686 0.101 -0.881 0.463 59 10 5 0 0
-3.5819 0.7311 -12.7196 -0.454 -0.614 0.646 65 16 11 0 0
-3.7027 1.0640 -13.6852 0.089 -0.578 0.811 20 6 4 0 0
-3.7086 1.0643 -13.7202 -0.015 -0.190 0.982 25 6 3 0 0
-3.7140 1.0305 -13.7272 -0.049 -0.193 0.980 45 10 4 0 0
-3.7466 0.8604 -13.7954 0.058 -0.314 0.948 89 41 31 0 0
-3.7646 0.8762 -13.9141 -0.168 -0.475 0.864 70 17 4 0 0
-3.8499 0.9009 -14.4396 -0.125 -0.792 0.598 56 17 9 0 0
-3.8615 0.8681 -14.4843 -0.654 -0.734 0.181 39 10 6 0 0
-4.0252 0.3985 -15.1104 -0.591 -0.753 0.288 89 52 44 0 0
-4.1798 0.6997 -16.2530 -0.679 -0.439 0.589 21 10 10 0 0
-4.1867 0.6964 -16.2917 -0.674 -0.204 0.710 20 9 9 0 0
-4.2771 0.6300 -16.7801 -0.387 0.256 0.886 71 47 43 0 0
-3.4855 1.3817 -12.4684 -0.260 -0.653 0.711 118 42 26 0 0
-3.5016 1.1915 -12.4247 -0.153 -0.480 0.864 118 42 26 0 0
-3.5228 1.0384 -12.4380 -0.087 -0.162 0.983 117 41 25 0 0
-3.5440 0.9850 -12.5244 0.039 -0.429 0.903 121 43 28 0 0
-3.5857 0.7036 -12.5653 -0.355 -0.302 0.885 96 36 8 0 0
-3.6019 0.7122 -12.6674 -0.145 -0.797 0.587 59 11 6 0 0
-3.6075 0.7334 -12.7157 -0.410 -0.430 0.804 69 19 15 0 0
-3.7296 1.0661 -13.6808 0.089 -0.578 0.811 20 6 3 0 0
-3.7355 1.0688 -13.7177 -0.025 -0.290 0.957 27 5 4 0 0
-3.7409 1.0350 -13.7247 0.048 -0.163 0.986 51 9 6 0 0
-3.7918 0.8911 -13.9202 -0.202 -0.394 0.896 65 12 3 0 0
-3.9651 1.0854 -15.0868 -0.334 -0.862 0.381 71 23 12 0 0
-3.9756 0.7937 -14.9354 0.001 0.502 0.865 68 20 10 0 0
-4.0471 0.4205 -15.0854 -0.543 -0.802 0.250 92 54 47 0 0
-4.0538 0.4264 -15.1297 -0.581 -0.754 0.305 58 25 19 0 0
-4.0968 0.5087 -15.4439 -0.859 -0.510 -0.052 63 48 50 0 0
-4.1889 0.7304 -16.1503 -0.760 -0.610 0.226 15 5 4 0 0
-4.3094 0.6838 -16.8281 -0.450 0.189 0.873 71 46 42 0 0
-4.3260 0.7160 -16.9498 -0.413 -0.505 0.758 91 80 76 0 0
-3.5061 1.4041 -12.4477 -0.322 -0.869 0.376 118 44 28 0 0
-3.5115 1.3907 -12.4696 -0.260 -0.653 0.711 117 41 26 0 0
-3.5273 1.1955 -12.4222 -0.000 -0.400 0.916 118 42 26 0 0
-3.5538 1.0451 -12.4690 -0.044 -0.253 0.967 118 42 26 0 0
-3.5591 1.0286 -12.4883 0.082 -0.379 0.922 113 37 21 0 0
-3.5697 0.9901 -12.5228 0.227 -0.400 0.888 117 40 24 0 0
-3.6111 0.7040 -12.5601 -0.429 -0.558 0.711 79 24 5 0 0
-3.6331 0.7456 -12.7195 -0.459 -0.612 0.644 72 22 18 0 0
-3.7508 1.0829 -13.6536 -0.285 -0.327 0.901 16 5 4 0 0
-3.7625 1.0750 -13.7165 -0.025 -0.290 0.957 30 6 3 0 0
-3.7732 1.0110 -13.7334 -0.088 -0.290 0.953 95 36 16 0 0
-3.8189 0.9037 -13.9244 -0.402 -0.395 0.826 60 10 2 0 0
-3.8249 0.9021 -13.9584 -0.705 -0.492 0.510 58 11 5 0 0
-3.9816 1.1274 -15.0407 -0.022 -0.080 0.997 71 25 13 0 0
-3.9872 1.0974 -15.0519 -0.479 -0.677 0.558 77 30 18 0 0
-3.9929 1.0715 -15.0670 -0.321 -0.579 0.749 71 23 11 0 0
-4.0163 0.6061 -14.8695 0.177 -0.392 0.903 69 20 10 0 0
-4.1187 0.5236 -15.4111 -0.760 -0.622 -0.188 62 49 48 0 0
-4.3402 0.7088 -16.8458 -0.515 0.079 0.854 68 43 41 0 0
-4.3507 0.7617 -16.9454 -0.477 -0.572 0.667 73 55 49 0 0
-4.3565 0.7317 -16.9577 -0.323 -0.406 0.855 95 85 82 0 0
-3.5320 1.4008 -12.4400 -0.543 -0.689 0.480 117 44 29 0 0
-3.5374 1.3873 -12.4617 -0.631 -0.543 0.554 115 39 25 0 0
-3.5688 1.1003 -12.4413 -0.349 -0.264 0.899 115 41 25 0 0
-3.5794 1.0494 -12.4667 -0.040 -0.368 0.929 119 43 27 0 0
-3.5847 1.0314 -12.4849 0.082 -0.379 0.922 114 37 21 0 0
-3.5953 0.9892 -12.5166 0.227 -0.400 0.888 116 39 23 0 0
-3.6060 0.9715 -12.5667 -0.186 -0.828 0.529 128 58 38 0 0
-3.6532 0.7470 -12.6830 -0.625 -0.641 0.445 61 13 7 0 0
-3.6589 0.7669 -12.7303 -0.403 -0.849 0.342 79 30 26 0 0
-3.7842 1.1154 -13.7086 -0.416 -0.601 0.682 23 5 1 0 0
-3.7895 1.0803 -13.7146 -0.169 -0.456 0.874 43 10 3 0 0
-3.8459 0.9095 -13.9229 -0.461 -0.369 0.807 58 11 2 0 0
-3.8958 0.9470 -14.2407 -0.622 -0.718 0.312 97 40 21 0 0
-3.9022 0.9536 -14.2827 -0.249 -0.842 0.479 101 42 19 0 0
-3.9150 0.9631 -14.3638 -0.429 -0.893 0.138 78 16 8 0 0
-4.0158 1.1124 -15.0584 -0.479 -0.677 0.558 80 32 20 0 0
-4.0214 1.0829 -15.0701 -0.126 -0.553 0.824 70 22 11 0 0
-4.0436 0.5987 -14.8556 0.316 -0.574 0.755 71 21 10 0 0
-4.0529 0.4999 -14.8398 -0.626 -0.683 0.377 77 22 10 0 0
-4.2802 0.8242 -16.3966 -0.185 -0.908 0.376 23 11 11 0 0
-4.2993 0.7716 -16.4706 -0.058 -0.468 0.882 32 17 17 0 0
-4.3813 0.7776 -16.9535 -0.567 -0.795 0.215 77 60 57 0 0
-3.5580 1.4206 -12.4488 -0.217 -0.409 0.886 115 41 26 0 0
-3.5633 1.3870 -12.4561 -0.126 -0.688 0.715 115 41 26 0 0
-3.5788 1.2059 -12.4190 0.050 -0.724 0.688 117 44 27 0 0
-3.5946 1.1127 -12.4451 -0.279 -0.484 0.830 116 43 26 0 0
-3.6051 1.0654 -12.4731 0.017 -0.211 0.977 110 34 18 0 0
-3.6103 1.0306 -12.4788 0.158 -0.327 0.932 112 36 18 0 0
-3.6156 1.0175 -12.5007 0.259 -0.668 0.697 109 35 16 0 0
-3.6209 0.9964 -12.5166 0.037 -0.739 0.672 114 38 19 0 0
-3.6318 0.9960 -12.5795 0.200 -0.770 0.606 123 48 29 0 0
-3.6570 0.7611 -12.5608 -0.361 -0.177 0.915 97 36 11 0 0
-3.8107 1.1016 -13.6910 0.180 -0.362 0.915 27 7 1 0 0
-3.8164 1.0838 -13.7112 -0.210 -0.441 0.873 54 13 3 0 0
-3.8218 1.0590 -13.7256 -0.044 -0.361 0.931 82 23 5 0 0
-3.9173 0.9650 -14.2135 -0.532 -0.846 0.029 81 26 13 0 0
-3.9241 0.9834 -14.2655 -0.654 -0.651 0.385 97 39 20 0 0
-3.9299 0.9694 -14.2897 -0.571 -0.552 0.607 103 44 23 0 0
-3.9428 0.9800 -14.3717 -0.628 -0.732 0.265 70 14 8 0 0
-4.0235 1.0917 -14.9178 -0.695 -0.719 0.013 63 19 9 0 0
-4.0328 1.1704 -15.0268 -0.014 -0.354 0.935 71 25 11 0 0
-4.0500 1.0952 -15.0741 0.330 -0.812 0.481 71 21 11 0 0
-4.0625 0.8931 -15.0049 -0.084 0.407 0.909 70 20 9 0 0
-4.0662 0.8176 -14.9739 -0.350 0.406 0.844 70 20 9 0 0
-4.1061 0.4917 -14.9772 -0.345 -0.794 0.500 91 46 36 0 0
-4.1311 0.4549 -15.0961 0.322 -0.730 0.603 49 19 16 0 0
-4.1375 0.4488 -15.1289 0.290 -0.846 0.448 53 26 23 0 0
-4.3091 0.8205 -16.3846 -0.045 -0.891 0.453 24 12 13 0 0
-4.3158 0.8084 -16.4147 0.236 -0.578 0.781 25 13 14 0 0
-4.3219 0.7855 -16.4339 -0.496 -0.446 0.745 26 13 13 0 0
-4.3278 0.7599 -16.4502 -0.312 -0.507 0.803 27 13 13 0 0
-4.4048 0.8018 -16.9261 -0.567 -0.795 0.215 66 46 41 0 0
-4.4169 0.7518 -16.9616 -0.205 -0.180 0.962 107 101 101 0 0
-4.4483 0.1765 -16.7409 0.168 -0.885 -0.435 175 176 178 0 0
-4.4576 0.2023 -16.8125 0.319 -0.868 -0.381 179 180 182 0 0
-3.5840 1.4305 -12.4506 -0.217 -0.409 0.886 114 41 26 0 0
-3.5893 1.4024 -12.4618 -0.143 -0.596 0.790 115 42 27 0 0
-3.6097 1.1708 -12.4194 -0.359 -0.606 0.709 115 42 25 0 0
-3.6150 1.1527 -12.4376 -0.359 -0.606 0.709 118 45 28 0 0
-3.6203 1.1238 -12.4478 -0.137 -0.422 0.896 122 49 32 0 0
-3.6308 1.0706 -12.4715 -0.178 -0.217 0.960 110 34 18 0 0
-3.6360 1.0431 -12.4827 -0.214 -0.451 0.867 112 36 19 0 0
-3.6826 0.7788 -12.5688 -0.475 -0.217 0.853 71 16 1 0 0
-3.9451 0.9852 -14.2242 -0.699 -0.705 0.119 91 35 18 0 0
-3.9577 0.9879 -14.2991 -0.571 -0.552 0.607 104 43 24 0 0
-3.9641 0.9898 -14.3370 -0.682 -0.726 0.089 80 21 12 0 0
-3.9707 0.9988 -14.3813 -0.538 -0.814 0.220 64 14 9 0 0
-4.0541 1.1657 -14.9772 -0.287 -0.672 0.683 69 22 13 0 0
-4.0603 1.1533 -15.0043 0.117 -0.752 0.649 78 31 17 0 0
-4.0724 1.1211 -15.0519 0.173 -0.891 0.420 75 25 14 0 0
-4.0774 1.0770 -15.0503 0.475 -0.602 0.641 72 22 12 0 0
-4.0975 0.5750 -14.8195 -0.461 -0.749 0.476 77 22 11 0 0
-4.1033 0.5563 -14.8400 -0.460 -0.555 0.693 79 23 10 0 0
-4.1092 0.5395 -14.8622 -0.654 -0.518 0.551 85 31 15 0 0
-4.2581 0.8072 -15.9056 -0.314 -0.945 -0.094 58 53 55 0 0
-4.2911 0.8907 -16.1530 -0.680 -0.536 0.500 21 9 10 0 0
-4.2973 0.8725 -16.1766 -0.700 -0.446 0.558 20 9 9 0 0
-4.4359 0.8263 -16.9432 -0.520 -0.792 0.321 66 48 42 0 0
-4.4479 0.7733 -16.9756 -0.258 -0.144 0.955 115 111 111 0 0
-4.4532 0.7375 -16.9819 -0.251 -0.164 0.954 134 133 137 0 0
-4.4669 0.3631 -16.8025 -0.787 -0.347 0.511 167 167 169 0 0
-3.3066 4.2622 -12.6353 -0.295 0.232 0.927 209 208 207 0 0
-3.6100 1.4327 -12.4468 0.302 -0.448 0.842 115 42 27 0 0
-3.6152 1.4004 -12.4550 0.390 -0.426 0.816 116 43 28 0 0
-3.6355 1.1844 -12.4239 -0.405 -0.599 0.691 117 44 27 0 0
-3.6408 1.1671 -12.4427 -0.430 -0.615 0.661 115 42 25 0 0
-3.6457 1.1086 -12.4312 -0.225 -0.395 0.891 112 40 23 0 0
-3.6511 1.0926 -12.4509 -0.433 -0.447 0.783 108 36 19 0 0
-3.6563 1.0667 -12.4632 0.213 -0.219 0.952 109 35 18 0 0
-3.8589 1.1254 -13.6634 -0.151 -0.861 0.486 24 7 6 0 0
-3.8648 1.1200 -13.6937 -0.120 -0.338 0.933 35 10 4 0 0
-3.9731 1.0115 -14.2402 -0.725 -0.687 0.035 97 40 19 0 0
-3.9796 1.0180 -14.2820 -0.661 -0.553 0.507 102 41 18 0 0
-4.0826 1.1755 -14.9788 -0.160 -0.626 0.763 72 24 16 0 0
-4.0996 1.0978 -15.0237 0.456 -0.605 0.653 74 24 13 0 0
-4.1817 0.5048 -15.0902 -0.648 -0.707 0.282 57 29 24 0 0
-4.2662 0.8215 -15.7895 -0.216 -0.936 0.278 37 34 37 0 0
-4.2727 0.8103 -15.8192 -0.016 -0.942 0.336 26 24 26 0 0
-4.3279 0.9022 -16.1980 -0.678 -0.435 0.593 17 9 7 0 0
-4.3342 0.8837 -16.2214 -0.709 -0.495 0.501 18 8 9 0 0
-4.3956 0.7968 -16.5139 -0.047 -0.252 0.967 19 9 10 0 0
-4.4092 0.7749 -16.5771 -0.040 -0.057 0.998 22 11 10 0 0
-4.4153 0.7519 -16.5964 -0.195 -0.144 0.970 21 11 12 0 0
-4.4206 0.7164 -16.6027 -0.195 -0.144 0.970 19 15 16 0 0
-4.4798 0.8099 -17.0054 -0.499 -0.676 0.542 120 119 119 0 0
-4.4984 0.3983 -16.8315 -0.850 -0.326 0.414 167 167 169 0 0
-4.5065 0.4054 -16.8830 -0.749 -0.095 0.656 170 170 172 0 0
-3.6044 1.6573 -12.4129 0.006 -0.025 1.000 113 42 27 0 0
-3.6097 1.6238 -12.4207 0.115 -0.117 0.986 114 42 27 0 0
-3.6149 1.5852 -12.4247 -0.132 -0.221 0.966 112 42 26 0 0
-3.6201 1.5399 -12.4238 -0.391 -0.245 0.887 112 41 26 0 0
-3.6255 1.5134 -12.4364 -0.353 -0.400 0.846 115 43 28 0 0
-3.6305 1.4538 -12.4251 0.165 -0.338 0.927 115 43 28 0 0
-3.6358 1.4313 -12.4404 0.203 -0.462 0.863 115 42 27 0 0
-3.6463 1.3599 -12.4519 0.239 -0.131 0.962 116 43 28 0 0
-3.6767 1.0977 -12.4492 -0.120 -0.789 0.602 107 35 18 0 0
-3.6822 1.0974 -12.4805 -0.396 -0.422 0.816 108 35 18 0 0
-3.8858 1.1329 -13.6633 -0.180 -0.832 0.524 25 7 6 0 0
-3.8972 1.1022 -13.7076 -0.293 -0.741 0.604 53 12 5 0 0
-4.0077 1.0423 -14.2962 -0.670 -0.693 0.268 104 41 22 0 0
-4.0658 1.0428 -14.6276 -0.543 -0.823 0.167 23 3 1 0 0
-4.0723 1.0400 -14.6623 -0.543 -0.823 0.167 20 3 1 0 0
-4.1047 1.1948 -14.9508 -0.480 -0.624 0.616 69 20 13 0 0
-4.1110 1.1840 -14.9793 -0.011 -0.493 0.870 75 26 17 0 0
-4.2101 0.5226 -15.0997 -0.679 -0.690 0.252 62 40 37 0 0
-4.2808 0.8272 -15.7063 -0.025 -0.989 0.146 23 14 17 0 0
-4.3552 1.0021 -16.2474 -0.342 -0.896 -0.283 17 7 7 0 0
-4.3727 0.9215 -16.2930 0.005 -0.908 0.420 17 7 10 0 0
-4.4504 0.7263 -16.6044 0.019 -0.556 0.831 27 24 25 0 0
-4.5105 0.8259 -17.0136 -0.499 -0.676 0.542 127 128 128 0 0
-4.5142 0.7647 -16.9932 -0.251 -0.164 0.954 141 141 144 0 0
-4.5374 0.4298 -16.9005 -0.698 -0.269 0.664 171 171 173 0 0
-3.6410 1.5944 -12.4259 -0.026 -0.237 0.971 112 44 27 0 0
-3.6463 1.5589 -12.4320 -0.290 -0.507 0.812 113 44 28 0 0
-3.6516 1.5368 -12.4477 -0.290 -0.507 0.812 116 46 31 0 0
-3.6570 1.5174 -12.4654 -0.487 -0.457 0.744 116 44 29 0 0
-3.6617 1.4321 -12.4356 -0.055 -0.473 0.879 115 42 27 0 0
-3.6670 1.4031 -12.4462 0.000 -0.698 0.716 115 42 27 0 0
-3.6721 1.3627 -12.4484 -0.015 -0.294 0.956 115 42 27 0 0
-3.7549 0.8821 -12.5988 -0.409 -0.262 0.874 109 40 8 0 0
-3.7714 0.8621 -12.6792 -0.385 -0.682 0.622 54 10 6 0 0
-3.7773 0.8744 -12.7206 -0.282 -0.354 0.892 62 16 12 0 0
-3.8797 1.5264 -13.7312 0.291 -0.490 0.822 9 1 0 0 0
-3.9186 1.1270 -13.6869 -0.164 -0.852 0.497 36 9 4 0 0
-3.9288 1.0540 -13.6966 -0.008 -0.515 0.857 102 53 24 0 0
-3.9837 1.0248 -13.9878 -0.503 -0.819 0.274 56 9 3 0 0
-4.0879 1.0700 -14.6074 -0.526 -0.827 0.200 41 13 8 0 0
-4.1393 1.1891 -14.9768 -0.011 -0.493 0.870 76 26 16 0 0
-4.2389 0.5476 -15.1159 -0.797 -0.547 0.256 50 32 30 0 0
-4.2927 0.7846 -15.5774 -0.733 -0.643 0.220 21 13 14 0 0
-4.2997 0.7834 -15.6162 0.190 -0.965 0.184 15 10 9 0 0
-4.4029 0.9405 -16.3038 0.111 -0.854 0.508 15 6 9 0 0
-4.4094 0.9251 -16.3304 0.130 -0.856 0.501 15 6 9 0 0
-4.4497 0.8494 -16.5083 -0.197 -0.873 0.446 12 7 7 0 0
-4.4563 0.8346 -16.5359 -0.109 -0.660 0.743 12 7 7 0 0
-4.4620 0.8053 -16.5487 0.297 -0.638 0.710 13 9 9 0 0
-4.4737 0.7525 -16.5801 0.252 -0.402 0.880 16 9 10 0 0
-4.4810 0.7481 -16.6186 -0.147 -0.862 0.485 34 28 28 0 0
-3.4111 4.1500 -12.6478 -0.296 0.263 0.918 207 206 204 0 0
-3.6566 1.6625 -12.4060 -0.075 -0.150 0.986 113 46 30 0 0
-3.6671 1.6003 -12.4247 -0.176 -0.345 0.922 111 44 27 0 0
-3.6724 1.5722 -12.4362 -0.176 -0.345 0.922 114 45 29 0 0
-3.6777 1.5477 -12.4502 -0.290 -0.507 0.812 114 44 28 0 0
-3.6832 1.5383 -12.4750 -0.467 -0.767 0.440 114 42 27 0 0
-3.6879 1.4548 -12.4466 -0.414 -0.503 0.759 113 40 25 0 0
-3.6932 1.4340 -12.4631 -0.457 -0.531 0.713 113 40 25 0 0
-3.7065 1.1655 -12.3628 -0.329 -0.731 0.598 113 41 26 0 0
-3.7807 0.9027 -12.6088 -0.303 -0.536 0.788 99 36 8 0 0
-3.7973 0.8801 -12.6873 -0.465 -0.523 0.714 56 12 7 0 0
-4.2681 0.5794 -15.1387 -0.797 -0.547 0.256 60 44 43 0 0
-4.3174 0.8496 -15.5922 -0.827 -0.562 0.011 29 22 23 0 0
-4.3202 0.7712 -15.5569 -0.233 -0.805 0.546 11 6 6 0 0
-4.4373 0.9070 -16.3041 -0.409 -0.803 0.434 17 10 10 0 0
-4.4442 0.8967 -16.3359 -0.314 -0.853 0.417 14 6 7 0 0
-4.4856 0.8374 -16.5304 -0.055 -0.827 0.560 12 8 11 0 0
-4.5656 0.8769 -17.0056 -0.456 -0.771 0.445 120 118 116 0 0
-4.5784 0.8362 -17.0512 -0.430 -0.599 0.676 147 147 150 0 0
-4.5758 0.5840 -16.8722 -0.282 -0.225 0.933 158 159 161 0 0
-4.5772 0.4965 -16.8229 -0.829 -0.294 0.476 163 164 166 0 0
-4.5835 0.4770 -16.8459 -0.829 -0.294 0.476 167 167 169 0 0
-4.5927 0.4950 -16.9090 -0.574 -0.112 0.811 169 169 171 0 0
-3.6933 1.6132 -12.4286 -0.516 -0.416 0.749 113 46 29 0 0
-3.6985 1.5831 -12.4386 -0.338 -0.520 0.785 115 47 31 0 0
-3.7193 1.4481 -12.4678 -0.515 -0.411 0.753 112 39 24 0 0
-3.7594 1.1225 -12.4827 -0.525 -0.544 0.654 108 35 18 0 0
-3.8228 0.8750 -12.6778 -0.007 -0.428 0.904 58 12 7 0 0
-3.8288 0.8876 -12.7194 0.106 -0.458 0.883 71 24 22 0 0
-3.8417 0.9498 -12.8315 -0.335 0.148 0.931 92 59 52 0 0
-3.9561 1.2125 -13.6402 -0.363 -0.694 0.622 20 4 3 0 0
-3.9660 1.1318 -13.6438 -0.471 -0.621 0.626 43 10 4 0 0
-3.9718 1.1163 -13.6658 -0.577 -0.448 0.683 63 17 3 0 0
-4.0266 1.0732 -13.9448 -0.060 -0.570 0.819 57 12 5 0 0
-4.0512 1.0491 -14.0665 -0.392 -0.859 0.331 108 58 40 0 0
-4.0574 1.0437 -14.0976 -0.513 -0.827 0.229 78 24 10 0 0
-4.3436 0.8120 -15.5486 -0.176 -0.831 0.527 12 8 9 0 0
-4.3481 0.7663 -15.5446 0.428 -0.682 0.594 10 6 7 0 0
-4.3821 0.8579 -15.7937 0.203 -0.742 0.639 12 7 7 0 0
-4.4737 0.9036 -16.3347 -0.540 -0.742 0.397 31 20 20 0 0
-4.4805 0.8922 -16.3654 -0.540 -0.742 0.397 29 18 19 0 0
-4.5090 0.8651 -16.5077 -0.254 -0.903 0.347 26 17 17 0 0
-4.5164 0.8604 -16.5455 -0.439 -0.727 0.528 26 18 17 0 0
-4.5961 0.8895 -17.0101 -0.393 -0.704 0.591 127 126 127 0 0
-4.6028 0.8734 -17.0374 -0.340 -0.630 0.698 142 141 146 0 0
-4.6064 0.6020 -16.8827 -0.478 -0.490 0.729 160 161 163 0 0
-4.6241 0.5246 -16.9320 -0.440 0.047 0.897 170 171 173 0 0
-3.7357 1.5708 -12.4875 -0.605 -0.722 0.335 112 42 24 0 0
-3.7403 1.5002 -12.4684 -0.441 -0.384 0.811 111 40 22 0 0
-3.7453 1.4548 -12.4673 -0.406 -0.299 0.864 112 39 22 0 0
-3.8485 0.8821 -12.6776 -0.312 -0.201 0.928 62 16 11 0 0
-3.9872 1.1537 -13.6210 -0.389 -0.655 0.648 30 7 3 0 0
-3.9989 1.1290 -13.6699 -0.444 -0.699 0.560 85 29 5 0 0
-4.0046 1.1146 -13.6928 -0.401 -0.417 0.816 111 62 30 0 0
-4.0213 1.0538 -13.7471 -0.596 -0.473 0.649 53 8 3 0 0
-4.0342 1.0625 -13.8241 -0.416 -0.615 0.670 124 77 41 0 0
-4.0724 1.0664 -14.0390 -0.408 -0.910 0.080 98 53 38 0 0
-4.1728 1.1190 -14.6299 -0.691 -0.497 0.525 17 1 1 0 0
-4.2339 0.7009 -14.7043 -0.632 -0.640 0.437 77 23 13 0 0
