ply
format ascii 1.0
element vertex 832
property float x
property float y
property float z
property float nx
property float ny
property float nz
property uchar diffuse_red
property uchar diffuse_green
property uchar diffuse_blue
property uchar class
property uchar detection
end_header
3.2211 -2.8166 -15.2470 0.311 -0.928 0.208 49 47 50 0 0
3.1155 -2.9236 -15.3705 -0.210 -0.938 0.277 31 31 31 0 0
3.1646 -2.8995 -15.4671 -0.245 -0.960 0.136 29 29 31 0 0
3.1656 -2.9057 -15.5091 -0.245 -0.960 0.136 24 24 26 0 0
3.1175 -2.9495 -15.5359 -0.318 -0.616 0.721 15 14 18 0 0
3.1406 -2.9487 -15.6448 -0.429 -0.897 0.109 12 10 13 0 0
3.1257 -2.9649 -15.6688 -0.328 -0.944 -0.031 11 9 12 0 0
1.8764 -3.9883 -15.6752 -0.457 -0.770 0.445 26 15 16 0 0
1.8946 -4.0397 -16.0730 -0.107 -0.469 0.876 21 6 6 0 0
3.0984 -2.6903 -14.1244 -0.631 -0.205 0.748 107 57 44 0 0
3.0881 -2.7094 -14.1892 -0.666 -0.485 0.567 98 51 39 0 0
1.6720 -4.0050 -15.0027 -0.059 -0.778 0.625 85 42 34 0 0
1.6630 -4.0171 -15.0310 -0.099 -0.713 0.694 63 25 19 0 0
1.8541 -3.9669 -15.6752 -0.697 -0.630 0.341 30 18 20 0 0
1.8748 -4.0164 -16.0767 -0.404 -0.439 0.803 20 6 6 0 0
1.8780 -4.0214 -16.1231 -0.533 -0.588 0.608 21 8 7 0 0
1.8814 -4.0264 -16.1698 -0.235 -0.899 0.370 24 10 8 0 0
3.7179 -2.1316 -14.0639 0.561 -0.461 0.688 204 200 198 0 0
3.1111 -2.6337 -14.0857 -0.358 -0.241 0.902 101 46 36 0 0
1.8379 -3.9351 -15.6418 -0.575 -0.685 0.448 26 17 18 0 0
3.3428 -2.3846 -13.9719 0.169 -0.330 0.929 94 53 45 0 0
3.2199 -2.4897 -13.9961 0.124 -0.299 0.946 98 48 41 0 0
3.0644 -2.6281 -14.0602 -0.294 -0.414 0.862 100 46 36 0 0
2.9289 -2.7967 -14.4101 0.000 -0.701 0.714 96 65 60 0 0
1.5690 -3.9687 -14.7330 -0.707 -0.549 0.446 110 57 41 0 0
1.6696 -3.9189 -14.9351 -0.555 0.525 0.645 113 55 38 0 0
3.2844 -2.3927 -13.9727 0.183 -0.197 0.963 94 48 43 0 0
3.2462 -2.4239 -13.9711 0.218 -0.287 0.933 95 48 41 0 0
3.1475 -2.5071 -13.9819 -0.178 -0.398 0.900 94 44 37 0 0
1.6832 -3.8761 -14.9788 0.225 -0.328 0.918 116 58 42 0 0
3.4197 -2.2424 -13.9831 0.081 -0.393 0.916 94 50 44 0 0
2.9091 -2.8704 -15.2667 -0.225 -0.961 0.160 97 68 64 0 0
1.5343 -3.9540 -14.9390 -0.455 -0.681 0.574 117 78 67 0 0
1.5025 -3.9929 -15.0176 -0.008 -0.767 0.642 68 49 46 0 0
1.7231 -4.0292 -16.3792 -0.569 -0.358 0.740 16 10 11 0 0
1.6479 -4.0958 -16.4069 -0.589 -0.521 0.619 36 32 33 0 0
1.6302 -4.1204 -16.4693 -0.436 -0.775 0.459 67 46 42 0 0
3.4689 -2.1548 -13.9428 0.034 -0.286 0.958 92 50 44 0 0
1.5204 -3.9285 -14.9485 -0.315 -0.600 0.735 100 61 48 0 0
1.5050 -3.9444 -14.9687 -0.141 -0.560 0.816 67 34 23 0 0
1.4861 -3.9626 -14.9845 -0.141 -0.560 0.816 97 71 64 0 0
1.6028 -4.1016 -16.4629 -0.447 -0.755 0.479 65 44 43 0 0
3.6879 -1.9350 -13.9587 0.310 -0.167 0.936 102 72 66 0 0
2.9325 -2.7748 -15.3059 -0.698 -0.043 0.714 96 65 57 0 0
1.5537 -3.8420 -14.8201 0.387 -0.225 0.894 111 53 39 0 0
1.5845 -4.0703 -16.4257 -0.226 -0.759 0.610 42 35 36 0 0
1.5761 -4.0823 -16.4575 -0.447 -0.755 0.479 61 42 42 0 0
1.5956 -4.0772 -16.5276 -0.632 -0.729 0.261 67 47 42 0 0
3.7445 -1.8534 -13.9998 0.227 -0.104 0.968 102 71 64 0 0
1.5510 -3.8093 -14.8435 0.092 0.300 0.950 111 53 39 0 0
3.5409 -1.9713 -13.9329 0.286 -0.266 0.921 99 52 43 0 0
2.8004 -2.8118 -15.3696 -0.238 -0.626 0.743 101 61 47 0 0
2.7874 -2.8267 -15.3953 -0.381 -0.381 0.842 100 56 42 0 0
2.7655 -2.8473 -15.4106 -0.363 -0.047 0.930 102 55 39 0 0
2.7517 -2.8626 -15.4355 -0.423 -0.216 0.880 118 64 42 0 0
1.7267 -3.8497 -16.2911 -0.602 -0.450 0.659 24 14 15 0 0
1.6917 -3.8849 -16.3304 -0.456 -0.235 0.858 27 16 14 0 0
2.6897 -2.6888 -14.2433 -0.723 -0.640 0.261 118 77 62 0 0
2.6719 -2.6644 -14.2481 -0.818 -0.535 0.213 113 65 50 0 0
2.6677 -2.6731 -14.2818 -0.741 -0.617 0.265 108 67 53 0 0
2.6712 -2.6766 -14.3240 -0.776 -0.613 0.145 105 63 48 0 0
1.5700 -3.8437 -15.9296 -0.787 -0.614 0.053 36 23 23 0 0
2.6429 -2.6534 -14.2790 -0.614 -0.637 0.465 105 61 47 0 0
2.6292 -2.6684 -14.3023 -0.533 -0.832 0.154 96 53 41 0 0
2.6720 -2.7535 -15.0977 -0.643 -0.691 0.330 69 37 21 0 0
1.5768 -3.7590 -15.6749 -0.623 -0.555 0.551 53 48 48 0 0
1.5902 -3.7631 -15.7759 -0.793 -0.549 0.263 129 125 121 0 0
1.5852 -3.7727 -15.8111 -0.793 -0.549 0.263 128 122 118 0 0
2.8013 -2.4182 -13.8667 0.163 -0.378 0.912 133 50 23 0 0
1.5208 -3.8680 -16.3517 0.309 -0.695 0.649 74 44 41 0 0
2.4049 -2.7190 -13.9155 -0.476 -0.631 0.613 95 28 11 0 0
2.5386 -2.6857 -14.4441 -0.602 -0.643 0.474 97 53 43 0 0
1.3757 -3.7507 -15.0241 -0.732 -0.406 0.547 98 45 32 0 0
1.5687 -3.7497 -16.1029 0.027 -0.764 0.644 43 24 23 0 0
2.5646 -2.6257 -14.4592 -0.076 -0.028 0.997 93 46 31 0 0
1.5436 -3.7297 -16.0996 -0.435 -0.518 0.736 45 26 26 0 0
3.0939 -2.0453 -13.8278 -0.158 -0.253 0.954 120 59 40 0 0
2.4700 -2.6647 -14.4560 -0.178 -0.860 0.479 106 54 31 0 0
2.5430 -2.7209 -15.2567 -0.746 -0.261 0.613 72 22 7 0 0
1.5528 -3.4994 -14.8635 0.303 -0.198 0.932 108 50 36 0 0
1.3881 -3.8507 -16.3062 -0.570 -0.722 0.393 72 42 37 0 0
1.4203 -3.8622 -16.5693 -0.333 -0.906 -0.263 63 38 36 0 0
3.1021 -2.0025 -13.8592 -0.425 -0.087 0.901 117 60 42 0 0
2.5694 -2.6124 -14.9501 0.072 -0.857 0.510 60 13 5 0 0
1.3327 -3.6506 -14.8925 0.334 -0.706 0.624 104 45 29 0 0
1.2633 -3.7255 -15.0034 -0.646 -0.704 0.295 96 44 33 0 0
1.3745 -3.8169 -16.2754 -0.317 -0.744 0.588 74 43 35 0 0
1.3375 -3.8534 -16.3110 -0.517 -0.798 0.309 56 29 25 0 0
1.3318 -3.8634 -16.3465 -0.517 -0.798 0.309 46 28 25 0 0
1.2586 -3.6705 -14.8656 -0.619 -0.750 0.234 106 51 35 0 0
1.2427 -3.6926 -14.9248 -0.412 -0.551 0.725 102 47 28 0 0
1.4128 -3.6997 -15.9719 -0.721 -0.167 0.672 44 30 29 0 0
1.3205 -3.8345 -16.3622 0.264 -0.675 0.689 44 28 24 0 0
3.5147 -1.5719 -13.8701 0.370 -0.222 0.902 136 75 54 0 0
2.6645 -2.2878 -13.8247 -0.470 -0.643 0.605 130 61 40 0 0
2.4582 -2.6657 -15.2377 -0.248 -0.762 0.598 61 12 5 0 0
1.4379 -3.6105 -15.7816 -0.525 -0.848 0.069 47 39 41 0 0
1.3270 -3.7689 -16.2289 -0.584 -0.798 0.149 59 27 21 0 0
3.4584 -1.5735 -13.8365 -0.114 0.249 0.962 121 62 48 0 0
2.8372 -2.0819 -13.6922 -0.502 -0.656 0.564 110 50 33 0 0
2.8152 -2.1026 -13.7067 -0.184 -0.622 0.762 116 53 36 0 0
2.5491 -2.3425 -13.8004 -0.228 -0.696 0.681 119 41 19 0 0
1.2196 -3.6435 -14.9906 -0.408 -0.672 0.617 100 41 25 0 0
1.2070 -3.6576 -15.0144 -0.408 -0.672 0.617 101 45 32 0 0
2.4981 -2.3417 -13.7693 -0.318 -0.440 0.839 120 41 18 0 0
1.1205 -3.7030 -15.0914 -0.617 -0.431 0.658 55 24 22 0 0
1.3412 -3.6501 -16.0518 -0.387 -0.792 0.472 48 36 39 0 0
1.3956 -3.4201 -15.0304 -0.632 -0.480 0.608 101 42 27 0 0
1.0604 -3.7251 -15.1623 -0.823 0.170 0.542 46 31 31 0 0
1.3139 -3.6257 -16.0024 -0.533 -0.733 0.422 33 23 24 0 0
1.3111 -3.6336 -16.0415 -0.194 -0.877 0.440 35 25 27 0 0
1.3093 -3.6649 -16.2549 -0.536 -0.821 0.198 50 24 21 0 0
1.2672 -3.6988 -16.2400 -0.778 -0.311 0.546 64 34 30 0 0
1.2221 -3.7407 -16.2642 -0.334 -0.803 0.493 47 24 22 0 0
2.3125 -2.4622 -14.0684 -0.535 -0.745 0.398 89 26 6 0 0
1.3741 -3.3989 -15.0308 -0.590 -0.582 0.560 100 40 25 0 0
1.0912 -3.6522 -15.1096 -0.832 -0.298 0.469 57 23 16 0 0
1.0797 -3.6655 -15.1351 -0.827 -0.287 0.484 50 23 19 0 0
1.2781 -3.6190 -16.0271 -0.194 -0.877 0.440 32 22 21 0 0
1.2357 -3.6831 -16.2277 -0.513 0.074 0.855 59 39 35 0 0
1.1908 -3.7309 -16.2957 -0.647 -0.371 0.666 36 25 23 0 0
3.1559 -1.6684 -13.8497 -0.554 -0.394 0.733 114 49 31 0 0
2.4058 -2.3022 -13.7783 -0.323 0.065 0.944 128 47 24 0 0
2.1958 -2.5078 -13.9633 -0.200 -0.698 0.688 98 36 13 0 0
1.6202 -3.1391 -14.9654 -0.219 0.288 0.932 99 37 22 0 0
1.0910 -3.6113 -15.0973 -0.794 -0.138 0.592 96 46 36 0 0
1.2639 -3.5861 -15.9955 -0.283 -0.693 0.663 24 12 11 0 0
1.2509 -3.6007 -16.0206 -0.304 -0.856 0.418 29 18 17 0 0
1.2371 -3.6158 -16.0447 -0.134 -0.936 0.326 34 25 24 0 0
1.2193 -3.6455 -16.1495 -0.309 -0.916 0.257 51 43 41 0 0
1.1747 -3.6931 -16.2176 -0.103 -0.980 0.170 50 37 36 0 0
1.1577 -3.7164 -16.2809 -0.465 -0.742 0.483 42 35 32 0 0
1.1372 -3.7420 -16.3395 -0.517 -0.813 0.270 53 41 41 0 0
2.5786 -2.1113 -13.7616 -0.347 -0.440 0.828 124 50 20 0 0
2.5599 -2.1298 -13.7792 -0.347 -0.440 0.828 138 70 41 0 0
2.5412 -2.1483 -13.7969 -0.347 -0.440 0.828 127 62 39 0 0
2.1974 -2.5118 -14.2963 -0.187 -0.892 0.412 85 23 9 0 0
1.0445 -3.6185 -15.1459 -0.856 -0.462 0.232 69 31 24 0 0
2.4384 -2.2052 -13.8609 -0.231 -0.835 0.500 127 45 20 0 0
2.2604 -2.5489 -15.2751 -0.156 -0.218 0.963 54 10 4 0 0
1.3480 -3.3308 -15.2445 -0.245 0.507 0.826 94 33 15 0 0
1.2903 -3.3760 -15.2107 -0.164 0.344 0.925 95 32 15 0 0
1.0413 -3.6127 -15.3756 -0.815 -0.457 0.356 42 34 35 0 0
1.1611 -3.5938 -16.0019 -0.532 -0.691 0.489 33 18 17 0 0
0.8561 -3.9577 -16.7536 0.158 -0.578 0.801 194 194 194 0 0
2.6770 -1.9357 -13.6869 -0.437 -0.277 0.856 111 51 37 0 0
2.1796 -2.4504 -14.3265 0.289 -0.421 0.860 79 16 3 0 0
2.0986 -2.6081 -14.9855 -0.053 -0.618 0.785 56 12 4 0 0
1.1369 -3.5735 -15.9995 -0.532 -0.691 0.489 47 30 24 0 0
1.1228 -3.5889 -16.0229 -0.390 -0.627 0.674 40 23 17 0 0
0.8365 -3.9340 -16.7582 0.550 -0.380 0.744 195 195 195 0 0
2.6570 -1.9128 -13.6892 -0.406 -0.299 0.864 110 50 36 0 0
2.6082 -1.9581 -13.7129 -0.486 -0.214 0.847 115 57 39 0 0
1.5092 -3.0810 -15.0177 -0.652 0.438 0.619 95 34 16 0 0
1.1112 -3.5543 -15.9950 -0.780 -0.480 0.402 50 35 29 0 0
1.0846 -3.5781 -16.0011 -0.347 -0.586 0.732 45 29 24 0 0
2.5084 -2.0080 -13.7433 -0.177 -0.431 0.885 124 52 25 0 0
2.4857 -2.0295 -13.7566 -0.326 -0.506 0.798 134 63 31 0 0
2.4098 -2.1043 -13.8260 -0.258 -0.621 0.740 123 48 24 0 0
1.0451 -3.5628 -15.9343 -0.312 -0.729 0.609 46 33 30 0 0
1.0394 -3.5723 -15.9694 -0.811 -0.437 0.389 43 31 28 0 0
2.3548 -2.1119 -13.8281 -0.056 -0.553 0.831 124 40 18 0 0
2.0708 -2.4218 -14.3169 -0.621 -0.321 0.715 84 18 4 0 0
2.0857 -2.4162 -14.3730 -0.301 -0.219 0.928 93 25 4 0 0
1.0244 -3.5347 -15.8938 -0.230 -0.917 0.326 44 35 34 0 0
1.0138 -3.5476 -15.9220 -0.176 -0.798 0.577 44 35 33 0 0
1.0005 -3.5623 -15.9464 -0.176 -0.798 0.577 42 33 31 0 0
2.3301 -2.0926 -13.8252 -0.435 -0.055 0.899 129 48 23 0 0
2.0064 -2.4311 -14.2683 -0.301 -0.630 0.716 79 15 3 0 0
2.0159 -2.4292 -14.3181 -0.124 -0.621 0.774 91 24 6 0 0
1.5457 -2.9342 -15.0661 -0.525 -0.848 0.068 84 31 16 0 0
1.4977 -2.9787 -15.0870 -0.581 -0.030 0.813 90 30 14 0 0
0.9910 -3.5210 -15.8784 -0.040 -0.948 0.315 50 41 42 0 0
0.9821 -3.5327 -15.9089 0.097 -0.822 0.561 51 42 43 0 0
0.9703 -3.5464 -15.9355 -0.140 -0.859 0.493 50 41 42 0 0
0.9775 -3.5469 -15.9886 -0.479 -0.717 0.506 49 42 42 0 0
3.2454 -1.2538 -13.8222 0.199 0.182 0.963 110 64 52 0 0
3.1482 -1.3308 -13.7614 0.078 -0.052 0.996 110 65 53 0 0
2.3659 -2.0144 -13.7745 -0.290 -0.600 0.745 152 90 71 0 0
2.3469 -2.0332 -13.7917 -0.379 -0.644 0.665 133 64 45 0 0
3.2333 -1.2236 -13.8332 0.242 0.171 0.955 110 63 52 0 0
2.5180 -1.8314 -13.6970 -0.248 -0.609 0.753 116 52 40 0 0
2.4559 -1.8915 -13.7440 -0.213 -0.589 0.780 145 73 36 0 0
1.4443 -2.9425 -15.0757 -0.817 -0.183 0.547 85 29 12 0 0
1.0874 -3.4636 -16.7402 0.552 0.207 0.808 108 101 97 0 0
2.4928 -1.8122 -13.6938 -0.279 -0.691 0.667 116 51 39 0 0
1.5070 -2.8656 -15.2248 -0.443 -0.105 0.890 86 28 12 0 0
2.8692 -1.4557 -13.8105 -0.741 -0.311 0.595 122 54 36 0 0
1.8459 -2.4088 -14.2623 -0.365 -0.894 0.261 94 26 6 0 0
1.2902 -3.0194 -15.2634 -0.412 0.403 0.817 83 23 12 0 0
1.1834 -3.1265 -15.3725 -0.328 0.465 0.822 79 23 11 0 0
1.2003 -3.1247 -15.4785 -0.486 -0.035 0.873 78 22 10 0 0
1.8133 -2.3954 -14.2500 -0.744 -0.663 0.079 90 24 4 0 0
2.0024 -2.4010 -15.6596 -0.795 -0.542 0.274 20 3 3 0 0
2.9444 -1.2935 -13.7069 -0.316 -0.572 0.756 136 80 62 0 0
1.1752 -3.0731 -15.5467 -0.826 0.540 0.160 74 21 11 0 0
2.7834 -1.4038 -13.7918 -0.306 -0.401 0.863 123 53 36 0 0
1.6681 -2.5921 -15.5048 -0.032 0.622 0.783 12 3 3 0 0
0.8120 -3.3880 -15.8463 -0.594 -0.661 0.457 88 53 45 0 0
0.8517 -3.3648 -15.9455 -0.121 -0.881 0.457 88 53 45 0 0
0.8368 -3.3807 -15.9676 -0.257 -0.920 0.297 88 53 45 0 0
0.8337 -3.4460 -16.4926 -0.047 0.211 0.976 121 117 114 0 0
2.7701 -1.3750 -13.8014 -0.009 -0.670 0.742 124 54 35 0 0
2.7377 -1.4041 -13.8056 -0.163 -0.578 0.800 124 59 40 0 0
2.7018 -1.4359 -13.8060 0.189 -0.513 0.837 123 59 39 0 0
2.6052 -1.5182 -13.7801 -0.226 -0.123 0.966 159 87 56 0 0
0.9056 -3.3516 -16.5860 0.406 0.094 0.909 119 115 112 0 0
2.7406 -1.3585 -13.7941 -0.416 -0.240 0.877 123 53 34 0 0
2.6702 -1.4210 -13.7964 0.306 -0.636 0.708 123 58 37 0 0
2.5866 -1.4892 -13.7460 -0.238 -0.324 0.916 151 74 42 0 0
1.1606 -2.9755 -15.6600 -0.940 -0.051 0.338 63 16 8 0 0
1.1116 -3.0262 -15.7217 -0.941 0.335 0.055 61 16 10 0 0
1.0937 -3.0442 -15.7402 -0.918 0.391 0.059 59 17 10 0 0
0.8600 -3.2738 -15.9335 -0.743 -0.150 0.653 89 72 66 0 0
2.7201 -1.3350 -13.7964 -0.447 -0.209 0.870 122 53 34 0 0
2.5599 -1.4708 -13.7415 -0.238 -0.738 0.631 147 72 40 0 0
1.1886 -2.9072 -15.6427 -0.520 -0.011 0.854 59 16 8 0 0
1.1728 -2.9237 -15.6642 -0.946 0.087 0.313 57 17 8 0 0
0.7006 -3.4482 -16.5772 -0.654 -0.538 0.533 170 168 168 0 0
2.7214 -1.2904 -13.7833 -0.429 -0.296 0.853 124 50 29 0 0
2.7013 -1.3103 -13.8003 -0.429 -0.296 0.853 124 54 35 0 0
2.0732 -1.8742 -13.8475 -0.466 -0.368 0.804 131 45 20 0 0
1.9069 -2.0096 -13.7383 -0.200 -0.655 0.728 136 52 25 0 0
1.6163 -2.3626 -14.5675 -0.506 -0.862 0.037 44 9 5 0 0
0.9981 -3.1592 -16.7311 -0.942 0.214 0.260 123 119 118 0 0
0.9717 -3.1446 -16.7723 -0.829 0.358 0.430 134 131 130 0 0
2.4757 -1.4191 -13.7233 -0.075 -0.827 0.558 140 66 38 0 0
1.5964 -2.3331 -14.8802 -0.494 -0.870 0.006 61 20 8 0 0
0.8578 -3.1484 -16.2787 -0.927 0.361 0.107 104 103 101 0 0
0.6586 -3.3689 -16.6621 -0.133 -0.756 0.640 179 179 181 0 0
2.6453 -1.2314 -13.7745 -0.059 -0.594 0.802 129 56 29 0 0
2.6247 -1.2516 -13.7911 -0.059 -0.594 0.802 123 56 36 0 0
1.7977 -1.9927 -13.8033 0.034 -0.649 0.760 134 52 28 0 0
1.5658 -2.2429 -14.1911 -0.385 -0.406 0.829 80 18 3 0 0
1.5722 -2.3219 -14.9599 -0.147 -0.953 0.264 79 31 15 0 0
1.6821 -2.2990 -15.6445 -0.377 -0.362 0.852 3 1 2 0 0
1.6834 -2.3028 -15.6891 -0.321 -0.503 0.803 3 1 2 0 0
1.6656 -2.3209 -15.7089 -0.443 -0.409 0.798 3 1 2 0 0
1.4997 -2.4596 -15.6212 0.216 -0.001 0.976 3 1 2 0 0
1.1780 -2.7808 -15.9239 -0.541 0.392 0.744 46 39 35 0 0
0.6288 -3.3522 -16.6516 -0.338 -0.798 0.499 180 180 182 0 0
2.5937 -1.2364 -13.7821 -0.059 -0.594 0.802 118 50 31 0 0
1.2945 -2.6122 -15.7229 -0.376 0.555 0.742 16 12 13 0 0
1.1981 -2.7221 -15.9391 -0.372 0.279 0.886 37 28 26 0 0
1.1701 -2.7477 -15.9445 -0.373 0.292 0.881 44 40 37 0 0
1.4137 -2.4600 -15.6970 -0.413 -0.655 0.632 10 7 8 0 0
1.1584 -2.7223 -16.0035 -0.595 0.525 0.608 57 54 54 0 0
0.7812 -3.1331 -16.6733 0.588 0.120 0.800 156 155 158 0 0
1.7093 -1.9475 -13.7772 -0.442 -0.760 0.476 136 54 27 0 0
1.4702 -2.2153 -14.2733 -0.441 -0.867 0.234 89 24 4 0 0
1.4613 -2.3571 -15.5327 -0.460 0.088 0.884 7 5 6 0 0
1.4168 -2.4001 -15.5597 -0.160 -0.243 0.957 6 4 5 0 0
1.1299 -2.6814 -15.7779 -0.488 -0.184 0.853 25 16 16 0 0
1.1134 -2.6985 -15.7986 -0.299 -0.651 0.698 27 19 17 0 0
1.1246 -2.6946 -15.8574 -0.320 -0.693 0.646 31 23 21 0 0
2.5136 -1.1808 -13.7688 -0.241 -0.156 0.958 120 52 34 0 0
2.0349 -1.6060 -13.7087 -0.244 -0.337 0.909 172 92 42 0 0
2.0131 -1.6272 -13.7227 -0.231 -0.360 0.904 174 94 46 0 0
1.9895 -1.6497 -13.7349 -0.241 -0.372 0.897 185 117 75 0 0
1.9623 -1.6791 -13.7811 -0.489 -0.666 0.563 153 87 71 0 0
1.6853 -1.9281 -13.7748 -0.437 -0.757 0.486 131 50 23 0 0
1.2718 -2.5721 -16.3581 -0.949 0.296 -0.106 76 76 78 0 0
0.4181 -3.3727 -16.6535 -0.360 0.018 0.933 194 195 197 0 0
2.4887 -1.1608 -13.7664 -0.237 -0.216 0.947 119 51 33 0 0
2.4684 -1.1809 -13.7832 -0.129 -0.356 0.926 122 60 39 0 0
1.9870 -1.6090 -13.7184 -0.461 -0.243 0.854 134 58 25 0 0
1.9671 -1.6287 -13.7345 -0.491 -0.306 0.815 144 72 44 0 0
1.9488 -1.6471 -13.7523 -0.632 -0.604 0.486 162 97 80 0 0
1.9389 -1.6588 -13.7796 -0.632 -0.604 0.486 141 77 60 0 0
1.0153 -2.7039 -15.8132 -0.707 -0.506 0.495 33 25 23 0 0
0.7565 -3.0338 -16.7397 0.079 -0.901 0.425 164 163 165 0 0
0.6920 -3.0916 -16.7354 0.481 -0.431 0.763 174 175 177 0 0
0.4725 -3.2937 -16.7717 -0.910 -0.264 0.320 195 196 198 0 0
2.4424 -1.1618 -13.7795 -0.129 -0.356 0.926 122 57 37 0 0
1.9653 -1.5876 -13.7187 -0.237 -0.225 0.945 124 55 29 0 0
1.9412 -1.6105 -13.7302 -0.237 -0.225 0.945 134 66 39 0 0
1.9172 -1.6334 -13.7416 -0.237 -0.225 0.945 140 79 60 0 0
1.2812 -2.5081 -16.6643 0.482 -0.028 0.876 96 97 100 0 0
2.7781 -0.8146 -13.7738 0.418 -0.765 0.490 118 60 48 0 0
2.6058 -0.9643 -13.7082 -0.191 -0.351 0.917 115 62 49 0 0
2.0077 -1.5073 -13.7137 -0.065 -0.287 0.956 124 64 38 0 0
1.6222 -1.8595 -13.7391 -0.731 -0.570 0.376 130 44 19 0 0
1.3427 -2.2648 -15.2426 0.052 -0.757 0.651 29 9 8 0 0
1.3082 -2.3388 -15.6659 -0.162 0.089 0.983 24 20 19 0 0
1.1789 -2.5227 -16.3260 -0.860 -0.414 -0.299 69 68 66 0 0
1.2008 -2.5106 -16.4017 -0.617 -0.690 -0.378 75 74 72 0 0
0.7613 -2.9557 -16.8626 0.273 -0.508 0.817 171 172 174 0 0
2.4232 -1.0937 -13.7687 -0.147 -0.252 0.956 121 51 31 0 0
1.9821 -1.4887 -13.7098 -0.065 -0.287 0.956 161 97 62 0 0
1.6483 -1.7966 -13.7556 0.065 -0.320 0.945 131 45 20 0 0
1.6153 -1.8266 -13.7562 -0.125 -0.577 0.807 134 48 23 0 0
1.5910 -1.8498 -13.7666 -0.409 -0.770 0.489 136 50 25 0 0
1.3140 -2.1862 -14.6161 -0.597 -0.784 0.169 58 18 5 0 0
1.3010 -2.2622 -15.2599 -0.169 -0.746 0.644 23 8 8 0 0
2.5408 -0.9363 -13.6873 -0.462 -0.255 0.850 120 67 54 0 0
1.8353 -1.5823 -13.7239 -0.073 -0.523 0.849 182 125 107 0 0
1.3287 -2.1042 -14.3407 -0.443 -0.564 0.697 98 34 12 0 0
1.2826 -2.1761 -14.6451 -0.726 -0.653 0.214 63 19 6 0 0
1.2671 -2.3968 -16.7453 0.217 0.443 0.870 90 89 88 0 0
0.3220 -3.2419 -16.5885 0.572 -0.366 0.734 191 192 194 0 0
1.8526 -1.5257 -13.7297 -0.207 -0.240 0.948 130 59 30 0 0
1.2583 -2.1526 -14.6019 -0.631 -0.749 0.201 57 18 5 0 0
1.4381 -2.0964 -15.7138 -0.142 0.060 0.988 7 7 7 0 0
0.8732 -2.6007 -15.5999 0.001 -0.428 0.904 41 35 36 0 0
1.1778 -2.3983 -16.3776 -0.358 -0.782 -0.509 53 49 48 0 0
1.2358 -2.3621 -16.5506 -0.495 0.591 0.636 66 65 66 0 0
0.6234 -2.9411 -16.7598 0.287 -0.134 0.948 175 175 177 0 0
1.8315 -1.5038 -13.7307 -0.235 -0.007 0.972 149 75 38 0 0
1.3295 -2.1415 -15.6004 -0.429 -0.401 0.809 6 5 5 0 0
1.3078 -2.1752 -15.7449 -0.468 -0.879 0.091 11 11 11 0 0
0.8374 -2.5937 -15.6247 -0.026 -0.610 0.792 32 27 26 0 0
0.7377 -2.7910 -16.7345 0.087 -0.651 0.754 147 147 149 0 0
0.7169 -2.8114 -16.7498 0.087 -0.651 0.754 154 154 156 0 0
2.3063 -1.0319 -13.7786 -0.562 -0.142 0.815 125 57 40 0 0
1.7285 -1.5552 -13.7163 -0.144 -0.445 0.884 153 90 66 0 0
1.5046 -1.7652 -13.7675 -0.696 -0.652 0.302 135 49 24 0 0
1.3506 -2.0887 -15.7024 -0.954 -0.098 0.284 6 4 5 0 0
1.2926 -2.1428 -15.7119 -0.686 -0.727 0.033 8 8 8 0 0
1.2896 -2.1492 -15.7515 -0.308 -0.942 0.133 9 9 9 0 0
0.7331 -2.7543 -16.7624 -0.794 -0.561 0.233 148 148 150 0 0
0.6005 -2.8745 -16.7486 0.235 -0.310 0.921 171 170 174 0 0
2.3175 -0.9789 -13.7765 -0.241 -0.540 0.806 121 48 28 0 0
1.5214 -1.7093 -13.7737 -0.045 -0.304 0.952 137 51 26 0 0
1.4890 -1.7391 -13.7747 -0.503 -0.540 0.675 136 50 24 0 0
1.0855 -2.2826 -15.6373 0.135 0.038 0.990 10 10 12 0 0
0.9894 -2.4241 -16.2100 -0.987 0.070 -0.145 43 39 39 0 0
0.5224 -2.8951 -16.6653 0.588 -0.491 0.643 172 171 175 0 0
2.3092 -0.9419 -13.7532 -0.273 -0.572 0.774 131 58 29 0 0
1.8748 -1.3294 -13.6230 -0.616 -0.622 0.484 116 51 32 0 0
1.7678 -1.4380 -13.7335 -0.233 -0.348 0.908 131 60 35 0 0
1.4649 -1.7200 -13.7720 -0.551 -0.765 0.333 144 58 31 0 0
1.1966 -2.1344 -15.6015 -0.840 -0.167 0.516 4 4 5 0 0
0.6917 -2.5987 -15.6022 -0.024 -0.551 0.834 35 31 30 0 0
0.5121 -2.8673 -16.7311 -0.227 -0.196 0.954 176 176 178 0 0
2.2537 -0.9507 -13.7561 -0.431 -0.364 0.826 128 54 30 0 0
2.2035 -0.9990 -13.7789 -0.683 -0.483 0.548 125 58 36 0 0
1.4061 -1.6938 -13.7930 -0.355 -0.784 0.509 134 47 22 0 0
1.0958 -2.1004 -15.1436 -0.458 -0.878 0.139 68 26 12 0 0
1.0917 -2.1113 -15.2226 -0.275 -0.931 0.239 40 14 11 0 0
1.3446 -1.7122 -13.8239 -0.022 -0.891 0.453 135 52 26 0 0
1.0428 -2.0636 -14.6474 -0.566 -0.805 0.177 76 28 11 0 0
0.7733 -2.4343 -16.0336 0.117 -0.993 -0.004 29 28 26 0 0
2.5289 -0.5693 -13.7763 -0.284 -0.492 0.823 119 58 47 0 0
1.3622 -1.6554 -13.8314 -0.620 -0.035 0.784 139 55 29 0 0
1.0519 -1.9853 -14.3227 -0.594 -0.673 0.440 109 45 26 0 0
0.6229 -2.4997 -15.6754 -0.338 -0.635 0.695 24 22 23 0 0
2.4915 -0.5593 -13.7608 0.097 -0.631 0.770 121 59 48 0 0
1.7810 -1.2090 -13.6416 -0.418 -0.532 0.737 114 47 28 0 0
1.5377 -1.4443 -13.7510 -0.371 -0.497 0.784 129 50 26 0 0
1.3268 -1.6456 -13.8155 0.008 -0.007 1.000 133 48 22 0 0
1.1686 -1.9503 -15.6749 -0.235 -0.892 0.387 5 3 4 0 0
2.4936 -0.5161 -13.7876 0.479 -0.719 0.503 121 59 46 0 0
1.4132 -1.5215 -13.7871 -0.494 -0.377 0.783 137 50 24 0 0
0.8291 -2.2230 -15.6784 -0.316 0.133 0.939 18 17 20 0 0
0.5434 -2.4918 -15.7140 -0.268 -0.483 0.833 39 37 38 0 0
0.9693 -2.1733 -16.6447 0.129 0.694 0.708 48 43 41 0 0
0.5252 -2.5741 -16.4974 -0.113 0.654 0.748 110 109 107 0 0
1.6953 -1.2075 -13.6720 -0.312 -0.493 0.812 123 55 32 0 0
0.9839 -2.0234 -15.5304 -0.223 -0.697 0.682 7 5 6 0 0
0.4996 -2.4912 -15.7275 -0.332 -0.541 0.773 34 32 33 0 0
0.5624 -2.4510 -15.9509 -0.061 -0.990 -0.130 33 29 28 0 0
2.5411 -0.3928 -13.8879 0.324 0.031 0.946 121 59 46 0 0
1.6710 -1.1880 -13.6695 -0.312 -0.493 0.812 121 53 33 0 0
0.9431 -2.0164 -15.5059 -0.287 -0.329 0.900 7 5 6 0 0
0.5207 -2.4234 -15.6581 -0.168 -0.426 0.889 22 20 24 0 0
0.4725 -2.4734 -15.7209 -0.409 -0.552 0.726 40 38 39 0 0
0.4748 -2.4786 -15.8125 -0.273 -0.957 0.095 32 28 27 0 0
0.9186 -1.9960 -15.5036 -0.189 -0.393 0.900 7 4 5 0 0
0.4494 -2.4524 -15.7200 -0.497 -0.473 0.727 45 44 45 0 0
0.4383 -2.4650 -15.7481 -0.438 -0.883 0.167 45 43 43 0 0
0.8932 -1.9763 -15.5000 0.078 -0.455 0.887 6 3 4 0 0
0.5157 -2.3369 -15.5838 -0.538 -0.575 0.616 26 26 27 0 0
1.6088 -1.1205 -13.6742 -0.325 -0.418 0.849 122 58 35 0 0
1.1814 -1.5228 -13.6817 -0.193 -0.163 0.968 135 48 21 0 0
1.1649 -1.5397 -13.7010 -0.228 -0.761 0.607 136 49 22 0 0
1.0852 -1.6193 -13.7612 0.046 -0.734 0.677 134 50 24 0 0
0.8431 -1.8783 -14.1728 -0.183 -0.906 0.381 111 40 16 0 0
0.8064 -1.9277 -14.3671 -0.458 -0.865 0.206 100 58 39 0 0
0.7720 -2.0267 -15.2363 -0.161 -0.446 0.880 23 9 8 0 0
0.3855 -2.4317 -15.7811 -0.411 -0.853 0.323 24 23 21 0 0
0.7782 -1.9120 -14.3590 -0.524 -0.826 0.208 104 75 63 0 0
0.9097 -1.8905 -15.7171 0.330 -0.575 0.748 8 6 7 0 0
0.6241 -2.1526 -15.6261 -0.033 0.081 0.996 16 14 17 0 0
1.4253 -1.2089 -13.6693 -0.059 -0.299 0.953 122 54 31 0 0
1.2729 -1.3625 -13.8026 -0.264 -0.618 0.741 135 46 22 0 0
1.0615 -1.5636 -13.8238 -0.198 -0.837 0.510 137 59 34 0 0
0.8595 -1.8946 -15.7235 -0.215 0.020 0.976 7 7 9 0 0
2.1417 -0.4878 -13.6434 -0.219 -0.093 0.971 120 59 47 0 0
2.1140 -0.5145 -13.6522 -0.219 -0.093 0.971 119 59 46 0 0
2.0865 -0.5413 -13.6610 -0.219 -0.093 0.971 114 60 46 0 0
1.1180 -1.4669 -13.8007 -0.479 -0.444 0.757 138 55 25 0 0
1.0433 -1.5396 -13.8281 -0.345 -0.386 0.855 136 56 31 0 0
0.7185 -1.8836 -14.3385 -0.231 -0.929 0.288 100 62 46 0 0
0.8095 -1.8953 -15.6859 0.411 -0.773 0.484 6 6 8 0 0
0.4002 -2.2723 -15.5472 -0.179 -0.859 0.480 15 15 17 0 0
2.1496 -0.4392 -13.6768 -0.222 0.124 0.967 120 61 48 0 0
2.1151 -0.4721 -13.6781 -0.084 -0.086 0.993 122 65 52 0 0
1.0153 -1.5240 -13.8206 -0.330 -0.654 0.681 132 51 26 0 0
0.6871 -1.8708 -14.3261 -0.282 -0.898 0.336 94 45 28 0 0
0.6807 -1.8821 -14.3989 -0.341 -0.921 0.189 103 51 31 0 0
0.3900 -2.2404 -15.5649 -0.436 -0.513 0.739 12 12 14 0 0
0.3741 -2.2570 -15.5859 -0.436 -0.513 0.739 17 17 20 0 0
0.3269 -2.3062 -15.6499 -0.512 -0.597 0.617 20 19 20 0 0
1.4275 -1.0807 -13.6706 -0.313 -0.469 0.826 175 103 52 0 0
1.3539 -1.1528 -13.7019 -0.267 -0.325 0.907 171 118 90 0 0
0.4200 -2.1713 -15.5962 -0.068 -0.106 0.992 9 9 11 0 0
0.2998 -2.2887 -15.6430 -0.360 -0.619 0.698 16 15 16 0 0
0.2902 -2.2999 -15.6732 -0.328 -0.742 0.585 25 24 25 0 0
1.8442 -0.6496 -13.7804 -0.411 -0.724 0.554 133 64 42 0 0
1.4037 -1.0610 -13.6685 -0.313 -0.469 0.826 132 64 32 0 0
1.3392 -1.1252 -13.7104 -0.330 -0.442 0.834 142 81 61 0 0
1.3206 -1.1440 -13.7277 -0.330 -0.442 0.834 158 102 89 0 0
0.6358 -1.8495 -14.5200 -0.613 -0.599 0.515 95 48 32 0 0
0.2764 -2.2679 -15.6417 -0.220 -0.782 0.583 11 11 13 0 0
1.8321 -0.6161 -13.7528 -0.295 -0.501 0.813 128 57 34 0 0
0.7679 -1.6435 -13.9511 0.283 -0.250 0.926 139 69 45 0 0
0.6559 -1.7567 -14.0485 -0.729 -0.465 0.502 112 27 5 0 0
0.6391 -1.8779 -15.6195 -0.106 -0.791 0.603 9 7 10 0 0
0.2488 -2.2508 -15.6342 -0.230 -0.695 0.681 12 12 14 0 0
0.2336 -2.2668 -15.6563 -0.220 -0.782 0.583 29 29 31 0 0
0.2145 -2.2891 -15.7169 -0.468 -0.708 0.529 19 17 19 0 0
0.2029 -2.3020 -15.7444 -0.468 -0.708 0.529 20 18 19 0 0
1.7633 -0.6376 -13.7399 -0.327 -0.062 0.943 127 61 41 0 0
0.6301 -1.7606 -14.3655 -0.490 -0.515 0.703 103 56 39 0 0
0.0823 -2.3762 -15.7771 0.131 -0.120 0.984 33 29 28 0 0
0.0521 -2.4050 -15.7766 0.131 -0.120 0.984 35 31 30 0 0
1.5973 -0.7503 -13.6944 -0.568 -0.279 0.775 158 87 57 0 0
1.5822 -0.7662 -13.7163 -0.765 -0.320 0.558 144 89 65 0 0
1.5608 -0.7875 -13.7310 -0.762 -0.582 0.284 144 90 75 0 0
0.8480 -1.4732 -13.7883 0.088 -0.633 0.769 140 62 38 0 0
0.8159 -1.5038 -13.7883 -0.545 -0.211 0.811 133 60 40 0 0
0.5712 -1.7904 -14.6043 -0.609 -0.755 0.244 94 46 31 0 0
0.6209 -1.8076 -15.6139 -0.157 -0.507 0.847 9 7 10 0 0
0.6025 -1.8264 -15.6322 -0.651 -0.447 0.613 11 9 12 0 0
0.2031 -2.2057 -15.5888 -0.271 -0.421 0.866 25 25 27 0 0
0.1938 -2.2166 -15.6194 -0.643 -0.485 0.593 21 21 23 0 0
1.5448 -0.7604 -13.7383 -0.126 -0.913 0.388 136 82 66 0 0
1.4380 -0.8575 -13.6544 -0.182 -0.058 0.982 114 51 33 0 0
1.3932 -0.8997 -13.6416 -0.147 -0.224 0.963 126 52 30 0 0
0.5938 -1.7894 -15.6080 -0.157 -0.507 0.847 9 7 10 0 0
0.1986 -2.1659 -15.5708 -0.078 -0.350 0.933 25 25 27 0 0
0.1791 -2.1856 -15.5865 -0.271 -0.421 0.866 27 27 29 0 0
-0.0089 -2.4282 -16.5798 0.461 -0.561 0.687 148 149 150 0 0
1.5045 -0.7549 -13.7176 0.035 -0.735 0.677 130 76 62 0 0
0.5696 -1.7687 -15.6061 -0.309 -0.410 0.859 9 7 10 0 0
0.5497 -1.7889 -15.6221 -0.710 -0.704 0.014 11 9 12 0 0
0.1743 -2.1460 -15.5681 -0.229 -0.198 0.953 27 27 29 0 0
0.1551 -2.1655 -15.5842 -0.271 -0.421 0.866 28 28 30 0 0
0.1503 -2.1724 -15.6214 -0.615 -0.593 0.519 29 29 31 0 0
1.0411 -1.1620 -13.7877 -0.107 -0.319 0.942 125 45 24 0 0
0.9377 -1.2565 -13.7023 0.037 -0.539 0.842 127 45 24 0 0
0.8331 -1.3589 -13.7320 -0.564 -0.298 0.770 119 42 21 0 0
0.5026 -1.7291 -14.6011 -0.572 -0.804 0.165 105 53 33 0 0
0.5008 -1.7331 -14.6403 -0.600 -0.781 0.172 106 52 33 0 0
0.4797 -1.8031 -15.4668 -0.207 -0.938 0.280 5 5 5 0 0
0.4338 -1.8619 -15.7114 -0.018 -0.101 0.995 16 16 18 0 0
0.2802 -2.0097 -15.7116 0.205 -0.632 0.747 25 25 27 0 0
0.1439 -2.1343 -15.6006 -0.491 -0.217 0.844 27 27 29 0 0
2.0476 -0.1448 -13.7112 -0.212 -0.067 0.975 119 56 44 0 0
0.4841 -1.6879 -14.3175 -0.537 -0.836 0.112 116 69 46 0 0
0.4776 -1.7106 -14.5970 -0.594 -0.768 0.240 111 63 37 0 0
0.4725 -1.7176 -14.6318 -0.594 -0.768 0.240 111 63 37 0 0
0.4639 -1.7779 -15.5206 -0.270 -0.859 0.435 6 6 8 0 0
0.4837 -1.7630 -15.5931 -0.260 -0.924 0.282 7 7 9 0 0
0.5269 -1.7276 -15.6993 0.236 -0.693 0.681 9 9 11 0 0
-0.0019 -2.2419 -15.7743 0.012 -0.706 0.708 28 25 24 0 0
0.0670 -2.1895 -16.0146 -0.847 -0.413 -0.336 37 33 32 0 0
2.0280 -0.1197 -13.7148 -0.186 -0.115 0.976 119 56 44 0 0
0.5165 -1.5933 -13.9441 -0.593 -0.302 0.746 120 50 17 0 0
0.4505 -1.6963 -14.6320 0.019 -0.921 0.389 102 66 42 0 0
0.1078 -2.0810 -15.5691 -0.124 -0.308 0.943 25 25 27 0 0
0.0784 -2.1120 -15.6146 -0.390 -0.251 0.886 26 24 27 0 0
2.0007 -0.1016 -13.7100 -0.223 -0.025 0.974 119 55 45 0 0
0.5137 -1.5534 -13.9283 -0.533 -0.149 0.833 114 65 44 0 0
0.4976 -1.6665 -15.6783 -0.733 0.085 0.675 6 6 8 0 0
0.3037 -1.8510 -15.6219 0.279 -0.562 0.779 11 11 13 0 0
0.0820 -2.0625 -15.5642 -0.190 -0.240 0.952 24 24 26 0 0
0.0638 -2.0811 -15.5818 -0.415 -0.242 0.877 24 24 26 0 0
0.0419 -2.1030 -15.5937 -0.513 -0.504 0.695 25 23 26 0 0
0.0290 -2.1169 -15.6192 -0.354 -0.786 0.507 53 51 54 0 0
-0.0534 -2.2048 -15.7643 -0.315 -0.490 0.812 30 26 25 0 0
0.0367 -2.1613 -16.5503 -0.457 0.189 0.869 98 97 95 0 0
0.4606 -1.5697 -14.0479 -0.685 -0.374 0.626 139 91 61 0 0
0.4029 -1.6731 -14.9225 -0.326 -0.934 0.149 54 26 18 0 0
-0.0038 -2.1046 -15.6037 -0.271 -0.917 0.293 59 58 60 0 0
0.5948 -1.3868 -13.8471 -0.237 -0.456 0.858 154 101 64 0 0
0.5765 -1.4054 -13.8638 -0.303 -0.473 0.827 158 102 60 0 0
0.4595 -1.5303 -14.0745 -0.501 -0.388 0.773 136 75 49 0 0
0.4468 -1.5439 -14.0984 -0.430 -0.514 0.742 102 43 21 0 0
0.4307 -1.5605 -14.1179 -0.312 -0.582 0.751 142 81 56 0 0
0.3038 -1.7076 -14.5646 -0.256 -0.942 0.219 59 39 29 0 0
0.3637 -1.6715 -14.9845 -0.317 -0.877 0.361 84 54 41 0 0
0.3553 -1.6813 -15.0157 -0.317 -0.877 0.361 85 55 41 0 0
0.3216 -1.7486 -15.6692 -0.209 0.173 0.962 7 7 9 0 0
0.6977 -1.2404 -13.7649 0.078 -0.265 0.961 163 105 65 0 0
0.5757 -1.3635 -13.8504 -0.530 -0.315 0.788 151 71 24 0 0
0.5573 -1.3823 -13.8669 -0.598 -0.120 0.793 144 65 20 0 0
0.2717 -1.6957 -14.5508 -0.256 -0.942 0.219 83 50 38 0 0
0.3356 -1.6531 -14.9337 -0.261 -0.927 0.269 28 14 13 0 0
0.1719 -1.8501 -15.6626 -0.005 -0.209 0.978 8 8 10 0 0
0.1454 -1.8762 -15.6683 -0.005 -0.209 0.978 8 8 10 0 0
-0.0390 -2.0671 -15.8889 -0.268 -0.950 0.162 28 24 24 0 0
0.0420 -2.0383 -16.8612 0.624 -0.166 0.764 128 126 129 0 0
0.6444 -1.2503 -13.7652 0.124 -0.255 0.959 154 70 22 0 0
0.5597 -1.3375 -13.8575 -0.770 -0.172 0.615 146 60 24 0 0
0.5456 -1.3524 -13.8795 -0.770 -0.172 0.615 149 65 29 0 0
-0.0926 -2.0711 -15.7962 -0.450 -0.875 0.180 29 25 26 0 0
0.6693 -1.1847 -13.7837 -0.257 0.021 0.966 148 58 22 0 0
0.6041 -1.2503 -13.8214 -0.349 -0.239 0.906 148 59 23 0 0
0.5629 -1.2920 -13.8491 -0.299 -0.335 0.894 148 63 31 0 0
0.5427 -1.3124 -13.8634 -0.299 -0.335 0.894 147 64 33 0 0
0.2626 -1.6260 -14.6821 -0.734 -0.509 0.450 117 60 42 0 0
0.2457 -1.6435 -14.7011 -0.701 -0.553 0.450 104 59 45 0 0
0.2498 -1.6841 -15.6194 -0.483 -0.593 0.644 9 9 11 0 0
-0.0807 -2.0074 -15.6227 -0.422 -0.192 0.886 9 9 11 0 0
1.9761 0.1391 -13.7559 0.234 -0.382 0.894 130 69 49 0 0
0.6522 -1.1576 -13.7499 -0.080 0.029 0.996 143 54 24 0 0
0.5372 -1.2747 -13.8441 0.026 -0.505 0.863 147 66 38 0 0
0.2341 -1.5951 -14.3401 -0.113 -0.767 0.632 112 53 31 0 0
0.2294 -1.6033 -14.4163 0.004 -0.941 0.338 87 49 38 0 0
0.2258 -1.6204 -14.7039 -0.701 -0.553 0.450 118 60 42 0 0
0.3139 -1.5499 -15.0397 -0.324 -0.832 0.450 41 33 34 0 0
0.2749 -1.5897 -15.0713 -0.052 -0.655 0.754 12 8 10 0 0
0.2610 -1.6043 -15.0952 -0.369 -0.475 0.799 11 7 9 0 0
1.9485 0.1570 -13.7507 -0.145 0.002 0.989 143 88 65 0 0
0.2804 -1.5367 -14.9809 -0.087 -0.996 -0.006 44 33 33 0 0
0.2753 -1.5433 -15.0169 -0.106 -0.994 0.023 40 30 31 0 0
-0.1274 -1.9662 -15.6199 -0.622 -0.137 0.771 19 19 21 0 0
1.9070 0.1620 -13.7301 -0.254 -0.130 0.958 143 99 77 0 0
1.8807 0.1357 -13.7406 -0.181 -0.051 0.982 137 94 73 0 0
0.1312 -1.6117 -14.3423 0.168 -0.758 0.630 127 65 40 0 0
0.2574 -1.5178 -15.0231 -0.038 -0.973 -0.227 35 26 26 0 0
-0.1644 -1.9601 -15.6429 -0.471 -0.239 0.849 24 24 26 0 0
0.1744 -1.5183 -14.1425 -0.565 -0.694 0.446 110 36 7 0 0
0.1052 -1.6331 -15.2303 0.248 -0.270 0.931 5 5 7 0 0
-0.1867 -1.9385 -15.6431 -0.364 -0.287 0.886 27 27 29 0 0
0.1155 -1.5759 -15.1459 0.166 -0.300 0.939 6 5 6 0 0
-0.1706 -1.8795 -15.6566 -0.472 -0.006 0.881 27 27 29 0 0
0.0401 -1.5668 -14.1427 -0.407 -0.888 0.213 94 40 27 0 0
-0.3526 -2.0242 -15.8661 -0.662 -0.693 -0.285 54 50 47 0 0
-0.3001 -1.9774 -15.9946 -0.776 -0.523 -0.353 62 58 55 0 0
0.1138 -1.5064 -15.5635 -0.632 -0.080 0.771 4 4 6 0 0
0.0819 -1.5397 -15.6064 -0.671 -0.425 0.607 9 9 11 0 0
-0.3333 -1.9638 -15.9317 -0.756 -0.542 -0.367 55 51 47 0 0
2.0495 0.5241 -13.8574 -0.751 -0.210 0.626 208 206 209 0 0
0.5801 -0.9309 -13.7306 -0.116 -0.710 0.694 132 50 28 0 0
0.5765 -0.9358 -13.7660 -0.110 -0.806 0.582 130 48 26 0 0
0.4163 -1.0919 -13.6839 0.080 -0.611 0.788 131 47 23 0 0
0.3955 -1.1131 -13.6973 0.023 -0.643 0.766 131 47 23 0 0
0.4250 -1.1492 -15.4641 -0.106 0.388 0.915 21 15 15 0 0
0.3624 -1.2097 -15.4196 -0.750 0.302 0.588 13 8 8 0 0
0.3346 -1.2375 -15.4245 -0.464 0.308 0.831 11 8 8 0 0
2.0164 0.5373 -13.8465 -0.939 -0.111 0.326 200 199 201 0 0
0.7611 -0.7071 -13.7029 -0.121 -0.039 0.992 160 90 56 0 0
0.5471 -0.9205 -13.7167 -0.208 -0.324 0.923 134 54 31 0 0
0.5280 -0.9402 -13.7325 -0.238 -0.244 0.940 139 59 36 0 0
0.5072 -0.9613 -13.7463 -0.348 -0.655 0.671 134 52 28 0 0
0.4910 -0.9796 -13.8058 0.113 -0.680 0.724 131 47 23 0 0
0.3786 -1.1493 -15.4307 -0.647 0.382 0.660 25 20 19 0 0
0.3555 -1.1727 -15.4423 -0.864 0.049 0.502 15 9 9 0 0
0.3020 -1.2248 -15.4104 -0.725 0.437 0.532 11 8 9 0 0
0.1047 -1.4269 -15.5722 -0.112 -0.181 0.977 3 3 5 0 0
-0.0505 -1.5812 -15.5672 -0.549 -0.225 0.805 8 8 10 0 0
-0.0610 -1.5927 -15.5966 -0.698 -0.257 0.668 9 9 11 0 0
-0.3681 -1.8963 -15.5365 -0.448 -0.115 0.887 28 28 31 0 0
-0.3651 -1.9334 -16.6647 -0.238 -0.920 0.313 132 130 131 0 0
0.4601 -0.9646 -13.7143 -0.611 -0.407 0.679 133 51 28 0 0
0.4527 -0.9729 -13.7450 -0.259 -0.203 0.944 133 51 27 0 0
0.2864 -1.1384 -13.7327 -0.529 -0.642 0.555 129 48 23 0 0
0.2533 -1.1727 -13.7699 -0.454 -0.570 0.685 131 48 22 0 0
0.2391 -1.1876 -13.7917 -0.454 -0.570 0.685 128 44 18 0 0
-0.0759 -1.5068 -13.9395 0.092 -0.653 0.752 106 34 11 0 0
0.3579 -1.1251 -15.4339 -0.481 -0.543 0.688 33 28 28 0 0
0.3356 -1.1478 -15.4467 -0.605 -0.417 0.679 18 14 13 0 0
-0.0470 -1.5348 -15.6064 -0.180 -0.855 0.487 6 6 8 0 0
-0.5589 -2.0495 -15.7278 0.629 -0.034 0.777 67 63 62 0 0
-0.2834 -1.8076 -16.6911 0.246 -0.166 0.955 114 112 114 0 0
0.6358 -0.7453 -13.6822 -0.306 -0.604 0.736 133 53 30 0 0
0.4549 -0.9278 -13.7352 -0.484 -0.841 0.242 133 51 29 0 0
0.3107 -1.0724 -13.7516 0.183 -0.447 0.875 130 47 21 0 0
-0.0709 -1.4800 -14.5545 -0.667 -0.745 -0.018 109 51 37 0 0
0.3160 -1.1212 -15.4067 -0.205 -0.975 0.080 36 34 33 0 0
0.0001 -1.4336 -15.3060 -0.629 -0.645 -0.433 8 8 10 0 0
-0.4266 -1.8683 -15.5603 -0.419 -0.622 0.662 16 14 15 0 0
-0.4640 -1.9157 -15.8677 -0.424 -0.904 -0.053 58 54 51 0 0
-0.2795 -1.7596 -16.7357 0.275 -0.186 0.943 115 113 114 0 0
0.4418 -0.8985 -13.7462 -0.156 -0.177 0.972 133 51 28 0 0
-0.1889 -1.5256 -13.6050 0.505 0.317 0.803 151 84 67 0 0
0.1358 -1.2469 -15.0934 0.135 -0.944 -0.301 56 43 38 0 0
0.1784 -1.2076 -15.1981 0.061 -0.944 -0.324 41 38 42 0 0
-0.4422 -1.8520 -15.9380 -0.753 -0.622 -0.214 59 55 52 0 0
-0.4135 -1.8547 -16.9459 -0.661 -0.718 0.218 158 158 160 0 0
0.1035 -1.2360 -15.1233 -0.140 -0.891 -0.432 41 38 42 0 0
0.2141 -1.1311 -15.3262 -0.217 -0.903 -0.371 38 39 39 0 0
-0.1439 -1.5000 -15.6537 -0.874 -0.003 0.486 5 3 6 0 0
-0.1477 -1.5050 -15.6937 -0.545 -0.059 0.836 6 4 7 0 0
-0.1664 -1.5242 -15.7109 -0.555 -0.029 0.831 8 6 9 0 0
-0.1901 -1.5484 -15.7204 -0.398 0.068 0.915 8 6 9 0 0
-0.2158 -1.5743 -15.7268 -0.367 0.062 0.928 9 7 10 0 0
-0.2673 -1.6250 -15.6936 -0.623 0.329 0.709 9 7 10 0 0
-0.4457 -1.8094 -15.8755 -0.774 -0.481 -0.412 47 41 37 0 0
-0.3956 -1.7827 -16.6700 0.505 0.086 0.859 124 123 121 0 0
0.1710 -1.1289 -15.2969 -0.437 -0.745 -0.503 39 39 39 0 0
0.2661 -1.0384 -15.4788 -0.874 -0.362 -0.325 37 37 39 0 0
-0.4561 -1.7761 -15.8948 -0.774 -0.481 -0.412 49 44 40 0 0
-0.4937 -1.8350 -16.6434 -0.641 -0.011 0.768 136 136 136 0 0
-0.0877 -1.3020 -13.7042 -0.145 -0.075 0.987 109 39 22 0 0
-0.1332 -1.3484 -13.7238 -0.812 -0.097 0.576 115 47 28 0 0
0.2519 -1.0078 -15.4916 -0.772 -0.502 -0.390 35 35 37 0 0
-0.3049 -1.5756 -15.7513 -0.408 0.390 0.825 22 17 18 0 0
-0.3466 -1.6171 -15.7325 -0.278 0.347 0.896 19 15 16 0 0
-0.5969 -1.8900 -16.5096 -0.240 -0.014 0.971 138 138 139 0 0
0.4444 -0.7219 -13.6595 -0.412 -0.501 0.761 113 50 29 0 0
0.0855 -1.0847 -13.6798 -0.108 -0.340 0.934 107 41 25 0 0
0.0640 -1.1066 -13.6918 -0.218 -0.462 0.860 106 41 24 0 0
-0.1645 -1.3387 -13.7505 -0.846 -0.180 0.501 116 42 23 0 0
-0.1707 -1.3458 -13.7823 -0.947 -0.267 0.179 129 55 33 0 0
-0.2248 -1.4036 -13.9113 0.316 -0.624 0.714 99 26 7 0 0
0.0809 -1.1285 -15.2325 -0.290 -0.823 -0.489 36 37 37 0 0
-0.2219 -1.4502 -15.8689 -0.381 0.229 0.896 28 28 27 0 0
-0.3137 -1.5405 -15.7727 -0.384 0.353 0.853 29 26 26 0 0
-0.5369 -1.7639 -15.6994 -0.701 -0.706 0.096 15 13 16 0 0
-0.5274 -1.7606 -15.9464 -0.308 -0.929 -0.206 60 56 53 0 0
0.4165 -0.7068 -13.6518 -0.160 -0.319 0.934 109 48 32 0 0
-0.2659 -1.4035 -13.9249 -0.485 -0.773 0.409 89 20 4 0 0
-0.1733 -1.3310 -14.8101 -0.561 -0.680 -0.472 46 37 35 0 0
0.0300 -1.1355 -15.2360 0.099 -0.949 -0.301 27 27 29 0 0
-0.1884 -1.3691 -15.7706 -0.561 -0.550 0.619 61 34 29 0 0
-0.1975 -1.3790 -15.8028 -0.544 -0.046 0.838 87 42 36 0 0
-0.3197 -1.5036 -15.8450 -0.535 0.477 0.698 28 24 25 0 0
-0.4608 -1.6422 -15.6706 -0.084 0.158 0.984 26 22 23 0 0
-0.4895 -1.6712 -15.6716 -0.249 0.200 0.948 25 21 22 0 0
-0.5597 -1.7440 -15.7449 -0.235 -0.895 0.380 26 24 27 0 0
-0.5598 -1.7452 -15.7910 -0.257 -0.966 0.026 34 32 31 0 0
-0.5428 -1.7573 -17.0251 0.277 0.233 0.932 168 166 167 0 0
-0.5733 -1.7881 -17.0230 0.284 0.216 0.934 171 169 170 0 0
-0.6201 -1.8347 -16.9928 0.060 0.421 0.905 173 172 173 0 0
0.3282 -0.7541 -13.6876 0.008 -0.384 0.923 114 51 35 0 0
-0.2514 -1.3487 -14.0150 -0.600 -0.545 0.586 84 20 8 0 0
-0.2930 -1.4324 -15.8758 -0.110 0.315 0.943 30 27 28 0 0
-0.3386 -1.4780 -15.8511 -0.386 0.341 0.857 27 25 26 0 0
-0.5849 -1.7251 -15.7407 -0.663 -0.549 0.509 28 27 26 0 0
-0.2720 -1.3273 -14.0161 -0.600 -0.545 0.586 82 18 8 0 0
-0.3874 -1.4818 -15.8104 0.394 -0.176 0.902 28 26 27 0 0
0.6042 -0.3864 -13.6481 -0.259 -0.117 0.959 109 51 37 0 0
-0.2802 -1.3247 -15.6425 -0.139 -0.954 0.267 35 34 36 0 0
-0.2910 -1.3398 -15.8571 -0.734 -0.388 0.558 88 37 30 0 0
-0.4199 -1.4697 -15.7949 0.345 -0.205 0.916 28 26 27 0 0
-1.0129 -2.0900 -16.6791 0.489 -0.696 0.525 187 187 189 0 0
0.7736 -0.1249 -13.5896 -0.140 -0.147 0.979 110 58 40 0 0
0.7474 -0.1518 -13.5977 -0.237 -0.265 0.935 112 55 40 0 0
0.7247 -0.1752 -13.6101 -0.237 -0.265 0.935 113 54 39 0 0
0.6512 -0.2508 -13.6403 -0.147 -0.300 0.942 120 57 43 0 0
-0.3785 -1.3185 -14.6294 -0.685 -0.690 0.232 48 35 29 0 0
-0.3712 -1.3120 -14.6830 -0.515 -0.853 0.084 37 39 41 0 0
-0.3732 -1.3147 -14.7234 -0.388 -0.918 0.079 42 37 37 0 0
-0.3488 -1.2983 -15.2438 -0.281 -0.881 0.381 103 39 16 0 0
-0.3798 -1.3411 -15.9299 -0.537 0.089 0.839 32 28 28 0 0
-0.3812 -1.2720 -14.2326 -0.321 -0.946 0.050 113 63 40 0 0
-0.4005 -1.2977 -14.6291 -0.686 -0.700 0.198 45 36 34 0 0
-0.3976 -1.2954 -14.6765 -0.515 -0.853 0.084 40 37 38 0 0
-0.3854 -1.2858 -14.8683 -0.438 -0.893 -0.100 124 64 40 0 0
-0.4133 -1.2613 -14.1759 -0.258 -0.950 0.177 106 69 43 0 0
-0.4152 -1.2638 -14.2150 -0.283 -0.955 0.094 106 68 44 0 0
-0.4466 -1.2531 -14.2010 -0.283 -0.955 0.094 77 40 23 0 0
-0.4949 -1.3228 -15.9031 0.447 -0.533 0.719 33 29 28 0 0
-0.4815 -1.2477 -14.3503 -0.462 -0.794 0.395 98 44 27 0 0
-0.4742 -1.2424 -14.5744 -0.509 -0.858 0.068 55 42 42 0 0
-0.5245 -1.3079 -15.8922 0.380 -0.620 0.686 34 29 28 0 0
1.2252 0.5621 -13.6591 0.287 -0.336 0.897 119 57 28 0 0
0.1719 -0.5223 -13.4176 0.650 -0.387 0.654 32 22 19 0 0
-0.5050 -1.2287 -14.3477 -0.516 -0.749 0.416 139 69 42 0 0
-0.5224 -1.2469 -14.3649 -0.204 -0.841 0.502 142 72 48 0 0
-0.4989 -1.2240 -14.5271 -0.509 -0.858 0.068 90 53 40 0 0
-0.4956 -1.2211 -14.5749 -0.613 -0.785 0.089 48 38 36 0 0
-0.5459 -1.1857 -14.5221 -0.554 -0.830 0.071 60 32 27 0 0
0.2928 -0.2224 -13.0078 0.662 -0.577 0.478 102 58 48 0 0
0.2613 -0.2552 -13.0081 0.644 -0.573 0.506 107 62 49 0 0
0.0800 -0.4437 -13.0177 0.328 -0.645 0.690 126 73 63 0 0
-0.2320 -0.7677 -12.8967 0.358 -0.500 0.789 120 58 48 0 0
-0.5857 -1.1388 -14.1029 -0.322 -0.893 0.314 90 20 3 0 0
0.1325 -0.3463 -12.9927 0.289 -0.285 0.914 120 63 48 0 0
0.1013 -0.3788 -12.9930 0.289 -0.285 0.914 120 60 46 0 0
-0.2326 -0.7265 -12.8840 0.271 -0.280 0.921 120 54 40 0 0
-0.5301 -1.0367 -13.0788 -0.453 -0.217 0.865 116 44 24 0 0
-0.7006 -1.2163 -14.7368 -0.335 -0.835 0.437 108 50 36 0 0
0.3381 -0.0888 -12.9985 0.116 0.016 0.993 117 62 50 0 0
-0.0382 -0.4816 -13.0397 -0.323 0.277 0.905 118 49 35 0 0
-0.5980 -1.0242 -13.1610 -0.357 -0.866 0.349 93 50 38 0 0
-0.6034 -1.0299 -13.1929 -0.414 -0.848 0.330 99 55 41 0 0
-0.6012 -1.0271 -13.4338 -0.919 -0.357 0.169 58 21 10 0 0
-0.6127 -1.0389 -13.5386 -0.916 -0.343 0.208 57 13 4 0 0
-0.6188 -1.0453 -13.5704 -0.877 -0.423 0.228 64 17 9 0 0
-0.6129 -1.0366 -14.8473 0.357 -0.062 0.932 92 48 41 0 0
0.5554 0.2256 -12.9221 0.783 -0.505 0.363 120 59 46 0 0
0.1068 -0.2446 -12.9238 0.340 -0.583 0.738 119 51 34 0 0
0.1011 -0.2504 -12.9555 0.193 -0.662 0.724 119 50 33 0 0
-0.0176 -0.3748 -12.9634 0.235 -0.483 0.844 121 53 35 0 0
-0.4986 -0.8785 -13.0858 -0.407 0.441 0.800 106 38 25 0 0
-0.6171 -1.0015 -13.4408 -0.872 -0.479 0.106 88 65 54 0 0
-0.6199 -1.0043 -13.4770 -0.872 -0.479 0.106 93 72 61 0 0
-0.6240 -1.0085 -13.5116 -0.896 -0.401 0.192 95 73 61 0 0
-0.6289 -1.0136 -13.5452 -0.896 -0.401 0.192 97 71 60 0 0
1.1509 0.8951 -12.9718 -0.604 -0.017 0.797 181 171 169 0 0
1.1532 0.8977 -13.0135 0.546 -0.562 0.622 166 153 150 0 0
1.1275 0.8708 -13.0237 0.644 -0.585 0.492 152 136 134 0 0
0.4327 0.1405 -12.8799 -0.279 -0.186 0.942 119 52 38 0 0
0.4018 0.1080 -12.8818 -0.057 -0.189 0.980 119 52 37 0 0
0.2838 -0.0161 -12.8562 0.176 -0.266 0.948 118 49 35 0 0
0.2608 -0.0402 -12.8670 0.302 -0.309 0.902 118 49 35 0 0
-0.5047 -0.8440 -12.8725 -0.617 -0.104 0.780 124 51 36 0 0
-0.6276 -0.9722 -13.0595 0.312 -0.404 0.860 104 38 21 0 0
-0.6306 -0.9733 -13.4511 -0.925 -0.377 0.040 77 63 54 0 0
-0.6353 -0.9781 -13.4848 -0.872 -0.479 0.106 75 61 53 0 0
-0.6399 -0.9828 -13.5188 -0.850 -0.508 0.136 69 55 47 0 0
-0.6432 -0.9861 -13.5545 -0.896 -0.401 0.192 63 47 41 0 0
-0.6546 -0.9978 -13.6198 -0.877 -0.423 0.228 25 7 2 0 0
1.1897 0.9812 -12.9624 -0.703 0.266 0.660 159 139 138 0 0
1.1617 0.9518 -12.9701 -0.236 -0.217 0.947 141 116 112 0 0
1.1267 0.9149 -12.9698 0.616 -0.527 0.585 135 101 96 0 0
0.3998 0.1491 -12.8278 0.330 -0.214 0.920 117 49 34 0 0
-0.2914 -0.5784 -12.7882 0.015 -0.215 0.977 123 51 35 0 0
-0.4954 -0.7925 -12.8729 -0.861 -0.052 0.506 124 51 36 0 0
-0.5199 -0.8183 -12.8796 -0.680 -0.260 0.686 132 58 43 0 0
-0.6561 -0.9574 -13.5255 -0.850 -0.508 0.136 22 12 11 0 0
-0.6597 -0.9609 -13.5610 -0.850 -0.508 0.136 24 14 14 0 0
-0.6707 -0.9724 -13.5862 -0.785 -0.580 0.220 17 8 8 0 0
-0.6761 -0.9778 -13.6194 -0.785 -0.580 0.220 10 3 3 0 0
-0.7498 -1.0531 -13.9681 -0.406 -0.813 0.417 95 31 7 0 0
1.2168 1.0554 -12.9787 -0.746 0.424 0.514 119 80 76 0 0
1.1811 1.0177 -12.9779 -0.612 0.198 0.766 120 74 68 0 0
0.7822 0.5960 -12.8366 0.454 -0.402 0.795 116 57 46 0 0
-0.5434 -0.8013 -12.8760 -0.651 -0.369 0.664 122 47 33 0 0
-0.7027 -0.9487 -15.4347 -0.054 -0.603 0.796 95 55 43 0 0
-0.6551 -0.8921 -16.2246 0.516 -0.754 0.406 39 33 33 0 0
1.4134 1.3088 -12.9864 0.068 -0.705 0.706 200 197 195 0 0
-0.3492 -0.5554 -12.7678 -0.495 -0.013 0.869 125 52 35 0 0
-0.3980 -0.6068 -12.7824 -0.281 -0.607 0.743 124 52 37 0 0
-0.7901 -1.0054 -14.3964 -0.163 -0.699 0.696 110 53 31 0 0
-0.8191 -1.0358 -14.4393 -0.237 -0.857 0.458 51 35 36 0 0
0.1024 -0.0351 -12.7788 0.247 -0.027 0.969 121 49 37 0 0
-0.5958 -0.7634 -13.7384 -0.849 -0.056 0.526 8 5 4 0 0
-0.6062 -0.7741 -13.7651 -0.831 -0.185 0.525 17 10 10 0 0
1.3941 1.3802 -12.9368 -0.148 -0.448 0.882 187 180 182 0 0
-0.3527 -0.4760 -12.6631 -0.798 -0.133 0.588 128 55 38 0 0
1.4830 1.5210 -12.9411 -0.034 0.037 0.999 212 213 215 0 0
1.0831 1.0953 -12.8905 -0.134 -0.342 0.930 115 53 43 0 0
1.0605 1.0714 -12.9041 -0.275 -0.301 0.913 116 52 42 0 0
0.3664 0.3328 -12.8394 -0.670 -0.665 0.330 120 51 35 0 0
-0.3652 -0.4470 -12.6736 -0.798 -0.133 0.588 126 52 35 0 0
-0.6668 -0.7511 -13.8228 -0.573 0.027 0.819 33 19 17 0 0
-0.9307 -1.0225 -14.4559 -0.128 -0.869 0.478 131 61 37 0 0
1.1078 1.1668 -12.8652 -0.564 -0.160 0.810 117 54 44 0 0
1.0877 1.1457 -12.8818 -0.728 0.087 0.680 116 54 43 0 0
0.8183 0.8565 -12.7331 0.162 -0.328 0.931 115 51 39 0 0
-0.7547 -0.8008 -13.8530 -0.253 -0.595 0.763 48 10 4 0 0
-0.9665 -1.0246 -13.9643 -0.174 -0.513 0.840 69 12 2 0 0
-0.9539 -1.0034 -14.4536 -0.359 -0.776 0.518 130 58 37 0 0
-0.9760 -1.0268 -14.4635 -0.135 -0.808 0.573 124 52 37 0 0
-1.0085 -1.0602 -14.5448 -0.121 -0.906 0.405 110 60 38 0 0
-1.0174 -1.0691 -14.5750 0.004 -0.919 0.394 67 38 29 0 0
-0.9940 -1.0429 -14.6552 -0.222 -0.814 0.537 74 41 34 0 0
-0.8984 -0.9180 -16.1096 -0.378 -0.916 -0.132 37 35 36 0 0
-0.9821 -0.9898 -14.4436 -0.526 -0.745 0.411 133 55 38 0 0
-1.0040 -1.0130 -14.4538 -0.303 -0.739 0.602 130 53 40 0 0
-1.0333 -1.0435 -14.4962 0.002 -0.629 0.777 121 49 30 0 0
-1.0523 -1.0635 -14.5108 0.079 -0.582 0.810 127 64 42 0 0
-1.0144 -1.0213 -14.6132 -0.192 -0.870 0.454 83 43 28 0 0
0.6998 0.8189 -12.6868 0.255 -0.572 0.779 118 51 40 0 0
0.6064 0.7199 -12.7337 0.157 -0.456 0.876 125 63 50 0 0
0.5832 0.6953 -12.7455 0.119 -0.428 0.896 120 53 40 0 0
0.5570 0.6674 -12.7537 0.141 -0.497 0.856 119 51 38 0 0
0.5190 0.6267 -12.7480 -0.340 -0.084 0.937 119 52 36 0 0
-0.8267 -0.7918 -13.8111 -0.201 -0.799 0.566 43 12 10 0 0
-1.0025 -0.9677 -14.4455 -0.615 -0.566 0.549 132 54 37 0 0
-1.0146 -0.9801 -14.4707 -0.346 -0.066 0.936 128 53 40 0 0
-1.0433 -1.0109 -14.4703 -0.067 -0.413 0.908 125 53 39 0 0
-1.0169 -0.9810 -14.5548 0.039 -0.225 0.973 119 52 37 0 0
-1.0816 -1.0512 -14.4989 -0.206 -0.054 0.977 131 64 43 0 0
-1.0564 -1.0219 -14.6258 -0.115 -0.910 0.398 65 35 26 0 0
0.5032 0.6544 -12.7551 -0.247 -0.552 0.797 120 50 38 0 0
-0.5882 -0.5154 -12.7247 -0.253 -0.674 0.694 125 52 34 0 0
-0.9030 -0.8276 -13.9407 -0.012 -0.853 0.521 77 24 9 0 0
-1.0149 -0.9367 -14.4597 -0.600 -0.378 0.705 130 53 39 0 0
-0.9427 -0.8355 -15.6207 0.133 -0.179 0.975 121 64 46 0 0
-0.9974 -0.8493 -15.5682 0.074 -0.913 0.402 120 62 44 0 0
-1.0316 -0.8756 -16.0400 -0.798 -0.301 0.522 38 36 37 0 0
0.5442 0.7864 -12.6990 0.157 -0.159 0.975 120 50 38 0 0
-0.9456 -0.7894 -13.8150 -0.256 -0.691 0.676 78 16 3 0 0
-1.0516 -0.8991 -13.9957 0.004 -0.671 0.742 79 18 3 0 0
-1.0200 -0.8388 -15.1021 0.275 -0.714 0.643 121 62 43 0 0
-1.0422 -0.8624 -15.1125 0.198 -0.819 0.539 111 68 51 0 0
-0.3974 -0.1843 -12.6641 -0.197 -0.208 0.958 131 55 39 0 0
-0.9502 -0.7503 -13.8393 0.210 -0.366 0.907 89 29 17 0 0
-1.0990 -0.8957 -14.4302 -0.521 -0.741 0.423 126 53 39 0 0
-1.0875 -0.8818 -14.4917 -0.725 -0.630 0.277 115 53 40 0 0
-1.1439 -0.9436 -14.4486 -0.474 -0.394 0.787 108 50 33 0 0
-1.0800 -0.8586 -15.0875 0.112 -0.676 0.729 100 62 47 0 0
-0.5681 -0.3259 -12.6653 -0.048 -0.371 0.928 130 54 38 0 0
-1.0220 -0.8050 -13.0741 -0.061 -0.954 -0.293 51 45 47 0 0
-1.1158 -0.8695 -14.4377 0.025 -0.879 0.476 127 55 39 0 0
-1.0887 -0.8247 -15.0174 -0.661 -0.750 -0.026 111 53 38 0 0
-1.1063 -0.8420 -15.0808 -0.118 -0.108 0.987 91 58 46 0 0
-1.0821 -0.7996 -15.6831 -0.577 -0.718 0.390 96 53 42 0 0
-0.6097 -0.3280 -12.6770 -0.444 -0.041 0.895 129 54 38 0 0
-1.1645 -0.8742 -14.5721 -0.706 -0.350 0.615 107 51 37 0 0
-0.6126 -0.2879 -12.7001 -0.507 -0.039 0.861 126 52 35 0 0
-1.0738 -0.7830 -12.8625 -0.776 -0.342 0.530 103 23 5 0 0
-1.1841 -0.8511 -14.5753 -0.766 -0.510 0.391 101 50 36 0 0
-1.2231 -0.8844 -14.8726 -0.652 -0.744 0.145 112 54 40 0 0
-0.8175 -0.4274 -12.6411 -0.496 -0.638 0.590 126 49 33 0 0
-0.8293 -0.4395 -12.6641 -0.496 -0.638 0.590 127 50 34 0 0
-1.2206 -0.7755 -15.3651 0.611 -0.587 0.532 95 56 48 0 0
-1.2494 -0.8069 -15.3643 0.562 -0.726 0.396 120 63 47 0 0
-0.6134 -0.1618 -12.6638 -0.398 -0.253 0.882 126 50 34 0 0
-0.6562 -0.2077 -12.6857 -0.370 -0.059 0.927 126 50 34 0 0
-0.8393 -0.4090 -12.6395 -0.496 -0.638 0.590 128 51 35 0 0
-0.8629 -0.4331 -12.6855 -0.496 -0.638 0.590 129 53 37 0 0
-0.9888 -0.5416 -13.5103 -0.426 -0.464 0.776 45 45 45 0 0
-0.4660 0.0430 -12.6860 -0.239 0.230 0.943 130 55 39 0 0
-0.6378 -0.1457 -12.6592 -0.466 -0.324 0.824 127 51 35 0 0
-0.8674 -0.3963 -12.6682 -0.285 -0.730 0.621 124 48 32 0 0
-0.9934 -0.5009 -13.5752 -0.610 -0.430 0.665 47 45 45 0 0
-1.0083 -0.5164 -13.5953 -0.636 -0.512 0.577 54 50 49 0 0
-1.1731 -0.5729 -15.7008 0.088 -0.969 -0.229 119 64 45 0 0
-1.2494 -0.6484 -15.9118 0.154 -0.978 0.141 97 49 36 0 0
-1.3662 -0.7156 -15.1207 -0.584 -0.793 0.173 57 42 43 0 0
-1.3722 -0.7206 -15.1575 -0.518 -0.771 0.371 60 44 44 0 0
-1.3767 -0.7239 -15.1968 -0.413 -0.868 0.276 57 43 43 0 0
-1.3882 -0.7355 -15.2244 -0.185 -0.931 0.315 54 45 46 0 0
-1.1580 -0.4940 -13.8789 -0.382 -0.561 0.734 54 12 7 0 0
-1.3818 -0.7349 -14.0105 -0.121 -0.319 0.940 70 13 4 0 0
