ply
format ascii 1.0
element vertex 824
property float x
property float y
property float z
property float nx
property float ny
property float nz
property uchar diffuse_red
property uchar diffuse_green
property uchar diffuse_blue
property uchar class
property uchar detection
end_header
-0.4531 -1.0360 -13.2055 -0.014 -0.846 0.534 98 36 24 0 0
-0.4505 -1.0320 -13.2507 -0.475 -0.263 0.840 84 25 13 0 0
-0.5168 -1.1527 -13.6958 -0.356 -0.744 0.566 98 43 26 0 0
-0.5270 -1.1722 -13.8426 -0.440 -0.811 0.386 95 47 31 0 0
-0.5473 -1.2132 -14.3573 -0.682 -0.679 0.272 108 52 34 0 0
-0.5498 -1.2219 -14.7487 -0.404 -0.739 0.539 121 58 45 0 0
-0.5247 -1.1858 -15.4427 -0.163 -0.979 0.119 110 58 47 0 0
-0.4979 -1.1408 -15.5961 -0.739 -0.662 -0.129 110 64 50 0 0
-0.4617 -1.0831 -16.1098 -0.980 -0.140 0.141 33 32 32 0 0
-0.2714 -0.6556 -12.8322 0.087 -0.577 0.812 120 45 28 0 0
-0.5403 -1.1307 -13.3710 -0.315 -0.947 0.059 100 51 35 0 0
-0.5495 -1.1496 -13.6824 -0.308 -0.895 0.321 92 43 28 0 0
-0.5532 -1.1579 -13.8846 -0.169 -0.877 0.449 94 44 29 0 0
-0.5604 -1.1708 -13.9124 -0.169 -0.877 0.449 94 45 29 0 0
-0.5808 -1.2139 -14.7398 -0.270 -0.858 0.437 120 59 45 0 0
-0.5802 -1.2134 -14.7858 -0.400 -0.894 0.204 110 54 43 0 0
-0.5369 -1.1476 -15.9051 -0.922 -0.005 0.387 63 40 36 0 0
0.4332 0.6408 -12.6670 0.066 -0.350 0.935 123 51 36 0 0
0.4154 0.6096 -12.6774 0.075 -0.414 0.907 124 51 36 0 0
0.1809 0.1981 -12.7210 0.218 -0.389 0.895 126 52 36 0 0
0.1484 0.1408 -12.7446 -0.423 -0.108 0.900 126 52 36 0 0
0.0169 -0.0898 -12.7561 0.003 -0.788 0.616 125 49 33 0 0
-2.4855 -4.5058 -16.7498 0.026 -0.787 0.617 214 214 214 0 0
-0.5421 -1.0254 -15.5887 -0.930 -0.364 0.047 102 56 45 0 0
0.2119 0.3761 -12.5870 -0.024 -0.903 0.430 125 52 35 0 0
-0.6042 -1.0631 -12.9921 -0.074 -0.648 0.758 112 36 13 0 0
-0.6135 -1.0867 -15.6330 -0.761 -0.440 0.477 83 43 33 0 0
0.1819 0.3849 -12.5812 -0.104 -0.853 0.512 127 54 37 0 0
-0.6351 -1.0601 -15.6471 -0.657 -0.737 0.156 86 44 33 0 0
0.1480 0.3866 -12.5686 -0.024 -0.903 0.430 124 53 35 0 0
-0.6334 -0.9957 -13.3580 -0.871 -0.491 -0.028 78 54 48 0 0
-0.7206 -1.1492 -13.8943 -0.352 -0.716 0.603 93 38 22 0 0
-0.6933 -1.1006 -14.1659 -0.049 -0.630 0.775 108 52 34 0 0
-0.7050 -1.1212 -14.1850 -0.535 -0.472 0.701 107 60 43 0 0
-0.7278 -1.1602 -15.1233 -0.596 -0.725 0.346 109 61 46 0 0
-0.6565 -1.0332 -15.6616 -0.261 -0.897 0.356 89 47 33 0 0
-0.6717 -1.0600 -15.7711 -0.432 -0.066 0.899 99 40 29 0 0
0.1346 0.4247 -12.5904 -0.591 -0.500 0.633 127 54 37 0 0
-0.6738 -1.0075 -13.2473 -0.778 -0.569 -0.265 49 43 42 0 0
-0.6533 -0.9707 -13.3695 -0.633 -0.758 -0.159 10 7 5 0 0
-0.7480 -1.1368 -13.9341 -0.699 -0.086 0.710 71 19 10 0 0
-0.7453 -1.1312 -14.1556 0.137 -0.580 0.803 107 59 42 0 0
-0.7379 -1.1144 -15.1616 -0.696 -0.032 0.718 108 63 50 0 0
-0.7484 -1.1331 -15.1844 -0.775 -0.231 0.588 83 48 39 0 0
-0.6864 -1.0213 -15.6568 -0.473 -0.873 0.118 94 52 38 0 0
-0.6966 -1.0390 -15.7780 -0.508 -0.113 0.854 91 35 23 0 0
-0.6712 -0.9416 -13.4678 -0.581 -0.813 -0.046 7 4 5 0 0
-0.6703 -0.9398 -13.5111 -0.581 -0.813 -0.046 10 5 5 0 0
-0.7447 -1.0643 -14.8836 -0.647 -0.538 0.541 99 52 40 0 0
-1.6357 -2.6383 -16.8320 0.335 -0.233 0.913 205 205 207 0 0
0.1538 0.5839 -12.6721 -0.400 -0.519 0.756 126 51 35 0 0
0.0907 0.4710 -12.6056 -0.551 -0.600 0.580 127 51 35 0 0
0.0913 0.4723 -12.6459 -0.492 -0.626 0.605 128 52 36 0 0
-0.3640 -0.3389 -12.7205 -0.529 -0.259 0.808 126 48 31 0 0
-0.7871 -1.0803 -14.3987 -0.289 -0.943 0.166 49 35 34 0 0
-0.7904 -1.0859 -14.4361 -0.321 -0.915 0.243 49 34 34 0 0
-1.6566 -2.6119 -16.7971 0.165 -0.114 0.980 201 201 203 0 0
-0.8100 -1.0617 -14.0984 -0.204 -0.917 0.343 97 31 15 0 0
-0.8321 -1.0977 -14.4480 -0.559 -0.811 0.169 48 35 35 0 0
-0.8002 -1.0332 -15.2055 -0.435 -0.162 0.886 97 59 49 0 0
-1.6807 -2.5910 -16.8058 0.127 -0.868 0.481 204 204 206 0 0
-1.6925 -2.6119 -16.8252 0.044 -0.407 0.912 205 205 207 0 0
-1.6975 -2.6205 -16.8641 -0.042 -0.832 0.553 206 206 208 0 0
0.0635 0.5478 -12.6492 0.067 -0.557 0.828 128 52 36 0 0
-0.1652 0.1380 -12.6514 -0.015 -0.641 0.767 130 53 35 0 0
-0.6363 -0.7048 -12.7497 -0.282 -0.643 0.712 120 43 27 0 0
-0.8334 -1.0417 -14.1045 -0.070 -0.573 0.817 92 28 12 0 0
-0.8447 -1.0590 -14.3446 -0.581 -0.616 0.532 58 33 28 0 0
-0.8499 -1.0674 -14.4223 -0.316 -0.717 0.621 50 36 37 0 0
-0.8250 -1.0131 -15.2113 -0.220 -0.310 0.925 85 53 47 0 0
-0.8298 -1.0208 -15.2947 -0.759 -0.449 0.471 98 59 47 0 0
-0.8108 -0.9815 -15.7229 -0.812 -0.528 0.250 79 33 23 0 0
-1.7189 -2.5951 -16.8276 -0.042 -0.832 0.553 206 206 208 0 0
-0.1950 0.1462 -12.6450 -0.015 -0.641 0.767 129 51 33 0 0
-0.2968 -0.0369 -12.6237 -0.430 -0.191 0.882 134 55 38 0 0
-0.3162 -0.0717 -12.6287 -0.407 -0.291 0.866 131 52 35 0 0
-0.3290 -0.0944 -12.6455 -0.528 -0.387 0.756 129 50 33 0 0
-0.8332 -0.9959 -12.9409 -0.320 -0.768 0.554 105 55 38 0 0
-0.8514 -1.0284 -12.9457 -0.213 -0.792 0.572 65 44 40 0 0
-0.8690 -1.0400 -14.3493 -0.581 -0.616 0.532 56 32 30 0 0
-0.8765 -1.0531 -14.3775 -0.589 -0.770 0.246 51 35 35 0 0
-0.8815 -1.0616 -14.4113 -0.633 -0.710 0.307 58 34 31 0 0
-0.8582 -1.0079 -15.2450 0.029 -0.571 0.820 55 43 46 0 0
-0.8717 -1.0319 -15.2613 0.029 -0.571 0.820 98 59 47 0 0
-0.8221 -0.9391 -15.5191 -0.538 -0.836 -0.108 105 56 41 0 0
-0.8420 -0.9720 -15.7149 -0.251 -0.890 0.380 75 31 21 0 0
-0.3233 -0.0233 -12.6226 -0.454 -0.057 0.889 133 54 34 0 0
-0.3439 -0.0602 -12.6256 -0.256 -0.391 0.884 128 49 29 0 0
-0.3518 -0.0741 -12.6510 -0.528 -0.387 0.756 129 49 29 0 0
-0.7044 -0.7071 -12.7568 0.117 -0.714 0.690 116 41 26 0 0
-0.7262 -0.7464 -12.7552 0.323 -0.649 0.689 116 40 24 0 0
-0.8930 -1.0205 -14.3547 -0.638 -0.626 0.448 53 33 33 0 0
-0.9112 -1.0516 -14.4493 -0.633 -0.710 0.307 127 63 42 0 0
-0.8945 -1.0119 -15.0363 -0.705 -0.673 0.223 115 57 41 0 0
-0.9018 -1.0230 -15.1604 -0.043 -0.764 0.644 61 42 37 0 0
-0.9099 -1.0372 -15.1890 0.000 -0.771 0.637 57 42 43 0 0
-0.8325 -0.8804 -16.2519 0.535 -0.241 0.810 35 34 32 0 0
-0.3442 0.0008 -12.6317 -0.454 -0.057 0.889 130 52 30 0 0
-0.3669 -0.0402 -12.6307 -0.303 -0.580 0.756 129 51 29 0 0
-0.7334 -0.6986 -12.7898 -0.033 -0.979 0.201 120 44 28 0 0
-0.9372 -1.0339 -14.5407 -0.580 -0.813 0.051 118 63 43 0 0
-0.9354 -1.0194 -15.1458 0.027 -0.636 0.772 61 41 37 0 0
-0.9463 -1.0388 -15.1677 0.167 -0.506 0.846 60 42 43 0 0
-0.8843 -0.9197 -15.5514 -0.419 -0.908 -0.005 100 51 35 0 0
-0.8847 -0.9195 -15.5990 -0.562 -0.773 0.294 120 60 47 0 0
-0.3931 -0.0259 -12.6303 -0.303 -0.580 0.756 128 50 28 0 0
-0.7606 -0.6885 -12.7462 -0.123 -0.986 0.109 119 43 27 0 0
-0.7653 -0.6962 -12.7774 -0.173 -0.935 0.310 119 43 25 0 0
-0.9548 -1.0049 -14.4252 -0.573 -0.819 -0.028 132 60 37 0 0
-0.9063 -0.8936 -15.5647 -0.402 -0.913 -0.065 101 52 36 0 0
-0.9124 -0.9039 -15.5990 -0.211 -0.963 0.169 120 60 47 0 0
-0.5197 -0.1926 -12.6860 -0.335 -0.821 0.462 128 49 27 0 0
-0.7973 -0.6923 -12.8450 0.405 -0.783 0.472 142 62 45 0 0
-0.8313 -0.7537 -12.8598 0.574 -0.401 0.714 170 95 65 0 0
-0.8331 -0.7561 -12.8967 0.124 -0.084 0.989 135 56 19 0 0
-0.9345 -0.8776 -15.6124 0.337 -0.911 0.239 119 59 46 0 0
-0.4001 0.0860 -12.6713 -0.661 -0.581 0.475 130 52 30 0 0
-0.8167 -0.6697 -12.7360 0.223 -0.708 0.670 122 46 30 0 0
-0.8544 -0.7339 -12.9049 0.032 -0.880 0.474 140 64 24 0 0
-1.0265 -1.0015 -14.7031 0.151 -0.878 0.454 92 48 38 0 0
-0.9949 -0.9305 -15.2452 -0.520 -0.529 0.670 55 42 41 0 0
-1.0098 -0.9572 -15.2581 0.074 -0.978 0.197 88 52 42 0 0
-1.0115 -0.9432 -15.9393 -0.775 -0.597 0.207 36 35 35 0 0
-1.0042 -0.9271 -16.0576 0.312 -0.939 0.144 36 34 33 0 0
-0.9054 -0.7388 -16.4034 -0.329 -0.895 -0.301 32 31 29 0 0
-0.8492 -0.6688 -12.7221 -0.166 -0.489 0.856 119 43 27 0 0
-0.9126 -0.7822 -12.8000 0.546 -0.066 0.835 173 102 72 0 0
-0.9548 -0.8513 -13.0830 -0.577 -0.737 -0.351 48 43 47 0 0
-0.7601 -0.4788 -13.7307 0.192 0.204 0.960 43 41 46 0 0
-0.8732 -0.6854 -13.7128 -0.267 -0.384 0.884 4 2 3 0 0
-1.0747 -1.0392 -14.2011 -0.718 -0.684 0.133 82 45 31 0 0
-1.0776 -1.0435 -14.2393 -0.718 -0.684 0.133 97 51 37 0 0
-1.0453 -0.9764 -14.5375 -0.064 -0.997 -0.042 124 66 54 0 0
-1.0393 -0.9486 -15.1573 0.053 -0.092 0.994 55 43 45 0 0
-1.0372 -0.9232 -15.9447 -0.929 -0.299 0.219 36 36 35 0 0
-0.8751 -0.6555 -12.7210 -0.297 -0.463 0.835 119 43 27 0 0
-0.9222 -0.7394 -12.7905 0.464 0.006 0.886 170 101 80 0 0
-0.9503 -0.7912 -12.7758 0.358 0.025 0.934 188 115 86 0 0
-0.9741 -0.8253 -13.0954 -0.440 -0.824 -0.358 45 42 46 0 0
-0.8580 -0.5962 -13.6695 -0.178 -0.173 0.969 5 3 5 0 0
-1.0939 -1.0110 -14.2167 -0.737 -0.580 0.346 84 45 29 0 0
-1.1013 -1.0236 -14.2452 -0.744 -0.644 0.180 105 56 39 0 0
-1.0845 -0.9673 -15.1151 -0.699 -0.385 0.602 53 44 43 0 0
-1.0813 -0.9598 -15.1703 -0.832 -0.486 0.267 50 41 42 0 0
-1.0474 -0.8839 -15.6396 -0.364 -0.643 0.674 89 48 38 0 0
-1.0587 -0.8921 -16.0619 -0.672 -0.735 -0.087 36 35 34 0 0
-1.0210 -0.8191 -16.2063 -0.435 -0.811 -0.392 36 35 33 0 0
0.6511 2.1974 -12.6494 -0.913 -0.100 0.395 198 186 184 0 0
0.5954 2.0939 -12.6019 -0.629 0.261 0.733 117 77 73 0 0
-0.3103 0.4371 -12.6525 -0.276 -0.478 0.834 128 53 32 0 0
-0.9056 -0.6510 -12.7109 -0.188 -0.764 0.617 117 40 25 0 0
-1.0399 -0.8899 -12.9318 -0.279 -0.735 0.618 93 61 54 0 0
-0.8826 -0.5797 -13.6299 0.226 -0.676 0.701 9 9 10 0 0
-1.0773 -0.8598 -16.0346 -0.761 -0.639 0.115 37 35 36 0 0
-1.0557 -0.8168 -16.1394 -0.536 -0.820 -0.200 36 35 34 0 0
0.6327 2.2331 -12.7055 -0.848 -0.051 0.528 111 66 60 0 0
-1.0423 -0.8348 -12.8961 -0.448 -0.506 0.737 102 26 8 0 0
-0.9156 -0.5777 -13.6158 0.313 -0.679 0.664 7 7 7 0 0
-1.1392 -0.9747 -14.0102 -0.375 -0.092 0.922 96 28 13 0 0
-1.0881 -0.8426 -15.1392 -0.694 -0.705 -0.150 54 42 43 0 0
-1.0893 -0.8165 -15.9732 -0.737 -0.574 0.357 36 35 34 0 0
-1.0841 -0.8013 -16.1389 -0.809 -0.577 -0.111 38 37 36 0 0
-0.9497 -0.5781 -13.5993 0.206 -0.881 0.426 9 8 9 0 0
-0.9411 -0.5586 -13.7036 -0.607 -0.369 0.704 45 39 39 0 0
-1.1205 -0.8591 -14.5171 -0.574 -0.393 0.719 103 49 34 0 0
-1.1450 -0.9030 -14.5532 -0.415 -0.894 0.170 99 48 35 0 0
-1.1485 -0.8840 -15.2532 -0.052 -0.972 -0.227 67 46 42 0 0
-1.1107 -0.7878 -15.9897 -0.789 -0.596 0.149 36 35 34 0 0
-1.1008 -0.7631 -16.1679 -0.964 -0.212 0.162 40 39 38 0 0
0.5044 2.1297 -12.6311 -0.469 0.013 0.883 107 52 39 0 0
-0.8076 -0.2914 -12.6036 -0.215 -0.576 0.788 126 44 23 0 0
-0.9697 -0.5883 -12.6534 -0.090 -0.663 0.743 118 42 25 0 0
-0.9746 -0.5610 -13.6018 -0.352 -0.913 0.207 24 23 24 0 0
-1.0647 -0.7178 -13.8456 -0.514 -0.504 0.694 95 28 9 0 0
-1.1756 -0.9163 -14.0009 -0.121 -0.470 0.874 71 13 3 0 0
-1.1905 -0.9347 -14.2364 -0.820 -0.569 0.065 99 53 37 0 0
-1.1503 -0.7943 -15.9610 -0.457 -0.885 0.091 36 35 34 0 0
-1.1219 -0.7292 -16.2895 -0.605 -0.784 -0.139 33 32 30 0 0
-1.0736 -0.6992 -13.1528 -0.776 -0.459 -0.432 47 45 48 0 0
-1.1879 -0.7970 -15.9371 -0.047 -0.954 0.295 38 35 33 0 0
-0.9948 -0.4763 -13.4966 -0.482 -0.808 0.341 47 46 48 0 0
-1.2738 -0.9667 -14.1216 -0.554 -0.133 0.822 114 61 43 0 0
-1.2219 -0.7930 -15.9219 0.108 -0.805 0.584 38 35 33 0 0
-1.0586 -0.5691 -12.6679 -0.448 -0.622 0.642 117 41 25 0 0
-1.0095 -0.4393 -13.5204 -0.481 0.121 0.868 48 46 48 0 0
-1.2777 -0.8322 -15.8514 0.217 -0.252 0.943 38 36 33 0 0
-0.6719 0.2079 -12.5691 -0.231 -0.228 0.946 130 52 30 0 0
-0.7758 0.0166 -12.6167 -0.437 -0.731 0.525 129 51 29 0 0
-1.0868 -0.5105 -13.7165 -0.122 -0.864 0.489 35 28 25 0 0
-1.2331 -0.7108 -15.2331 0.018 -0.974 0.224 46 44 46 0 0
-0.8348 -0.0279 -12.6752 -0.056 -0.291 0.955 129 48 27 0 0
-0.9680 -0.2814 -12.5805 0.007 -0.342 0.940 144 64 44 0 0
-1.2952 -0.7762 -14.9076 -0.615 -0.788 -0.041 116 67 48 0 0
-0.4408 0.7665 -12.5616 -0.432 -0.703 0.565 128 52 34 0 0
-1.0722 -0.3635 -13.5538 -0.008 -0.170 0.985 48 46 46 0 0
-1.3115 -0.7295 -15.1268 -0.276 -0.945 0.177 50 44 46 0 0
-1.2864 -0.6665 -15.4344 -0.330 -0.911 -0.247 80 52 44 0 0
-0.6729 0.3996 -12.6316 -0.567 -0.609 0.554 130 52 30 0 0
-1.1926 -0.5433 -13.2255 0.502 -0.844 -0.187 51 50 49 0 0
-1.1818 -0.5194 -13.2910 0.409 -0.861 -0.302 50 48 52 0 0
-1.1566 -0.4480 -13.7360 -0.484 -0.681 0.549 36 28 25 0 0
-1.3697 -0.8148 -14.3407 -0.398 -0.916 0.044 126 63 44 0 0
-1.3392 -0.7096 -15.2238 -0.101 -0.981 0.165 51 44 48 0 0
-1.3057 -0.6260 -15.6055 -0.085 -0.988 -0.126 124 64 44 0 0
-0.6993 0.4138 -12.6310 -0.521 -0.641 0.564 128 50 28 0 0
-1.1536 -0.4441 -12.5678 -0.047 -0.501 0.864 132 51 30 0 0
-1.1808 -0.4939 -12.5945 -0.138 -0.404 0.904 122 46 27 0 0
-1.1382 -0.3585 -13.5686 -0.846 -0.014 0.533 46 46 48 0 0
-1.1465 -0.3727 -13.5944 -0.469 -0.445 0.763 43 42 46 0 0
-1.1909 -0.4466 -13.7629 -0.514 -0.665 0.542 32 26 22 0 0
-1.3827 -0.7727 -14.3722 -0.564 -0.762 0.319 126 66 45 0 0
-1.3632 -0.7040 -14.9394 -0.874 -0.267 0.405 105 59 47 0 0
-1.3891 -0.7027 -15.8207 -0.295 -0.692 0.659 49 39 36 0 0
0.3739 2.5084 -12.7479 -0.885 -0.319 -0.339 112 52 40 0 0
-0.5174 0.8172 -12.5667 -0.164 -0.115 0.980 135 60 43 0 0
-0.7216 0.4364 -12.6383 -0.138 -0.739 0.659 128 50 28 0 0
-1.1505 -0.3779 -12.5429 -0.191 -0.349 0.918 132 54 34 0 0
-1.1808 -0.4339 -12.5637 -0.542 -0.373 0.753 137 61 42 0 0
-1.1583 -0.3313 -13.5817 0.541 -0.827 0.152 45 45 48 0 0
-1.4177 -0.7640 -14.5392 -0.622 -0.184 0.761 103 50 39 0 0
-1.4253 -0.7766 -14.5682 -0.827 -0.542 0.149 120 68 51 0 0
-1.4329 -0.7864 -14.6446 -0.759 -0.650 0.025 106 58 40 0 0
-1.4036 -0.6983 -15.1998 -0.217 -0.970 0.112 103 64 53 0 0
-1.3754 -0.6293 -15.4691 -0.047 -0.983 -0.175 121 64 45 0 0
-0.4868 0.9390 -12.5479 -0.462 -0.037 0.886 127 54 37 0 0
-0.7555 0.4331 -12.5827 -0.280 -0.217 0.935 130 52 30 0 0
-0.7532 0.4403 -12.6280 -0.097 -0.813 0.574 129 51 29 0 0
-1.2054 -0.3559 -13.5807 0.366 -0.911 0.192 42 40 45 0 0
-1.4519 -0.7642 -14.5213 -0.722 -0.678 0.136 110 57 44 0 0
-1.4454 -0.7452 -14.6314 -0.897 -0.440 0.040 77 45 35 0 0
-1.4613 -0.7747 -14.6406 -0.681 -0.654 0.329 115 61 43 0 0
-1.3887 -0.5781 -15.6065 -0.620 -0.749 0.233 119 60 44 0 0
0.1867 2.2822 -12.5729 -0.080 -0.133 0.988 113 51 39 0 0
-0.5079 0.9651 -12.5579 -0.462 -0.037 0.886 128 54 37 0 0
-1.2618 -0.4135 -13.3409 0.625 -0.772 0.115 51 49 52 0 0
-1.4871 -0.7575 -14.6430 -0.553 -0.476 0.683 120 63 46 0 0
-1.4207 -0.5211 -16.3796 -0.700 -0.687 0.195 32 31 29 0 0
-1.4236 -0.5238 -16.4254 -0.713 -0.698 0.063 38 35 32 0 0
-0.7817 0.5100 -12.5499 0.043 -0.563 0.826 131 55 32 0 0
-0.8100 0.4582 -12.5784 -0.178 -0.447 0.877 132 54 32 0 0
-1.3596 -0.5737 -12.7640 -0.276 -0.611 0.742 144 80 39 0 0
-1.2941 -0.4119 -13.3272 0.409 -0.908 -0.095 50 48 51 0 0
-1.5008 -0.7468 -14.2040 0.378 -0.892 0.248 98 48 36 0 0
-1.5077 -0.7298 -14.6579 -0.666 -0.276 0.693 123 66 48 0 0
-1.4486 -0.5455 -15.7493 -0.157 -0.499 0.852 83 34 22 0 0
-1.4914 -0.6205 -15.8449 -0.034 -0.750 0.660 42 36 35 0 0
-1.4458 -0.4980 -16.3886 -0.700 -0.687 0.195 34 31 29 0 0
-1.2066 -0.2318 -12.5923 -0.622 -0.186 0.760 128 47 26 0 0
-1.2192 -0.2546 -12.6081 -0.622 -0.186 0.760 133 53 30 0 0
-1.2351 -0.2843 -12.6171 -0.630 -0.330 0.703 137 56 35 0 0
-1.5263 -0.6978 -14.6779 0.160 -0.595 0.788 127 66 48 0 0
-1.5236 -0.6890 -14.7325 0.214 -0.774 0.596 113 54 40 0 0
-1.5046 -0.6362 -14.9738 -0.478 -0.718 0.506 87 51 39 0 0
-1.4740 -0.5660 -15.1485 -0.205 -0.774 0.599 120 59 49 0 0
0.1216 2.3647 -12.5627 0.071 -0.189 0.979 111 50 36 0 0
0.0970 2.3177 -12.5628 0.350 -0.128 0.928 112 49 36 0 0
-0.8093 0.5841 -12.5145 0.249 -0.609 0.753 129 54 33 0 0
-0.8396 0.5281 -12.5392 0.196 -0.615 0.764 131 56 33 0 0
-0.8670 0.4778 -12.5690 0.017 -0.491 0.871 130 52 30 0 0
-0.9327 0.3522 -12.5663 0.148 -0.445 0.883 131 53 31 0 0
-1.5581 -0.6932 -14.6654 -0.532 -0.583 0.615 129 64 46 0 0
-1.5306 -0.6290 -14.8299 -0.625 -0.754 0.203 118 60 39 0 0
-1.5032 -0.5545 -15.1438 -0.205 -0.774 0.599 115 57 49 0 0
0.0914 2.3759 -12.5588 -0.022 -0.086 0.996 112 49 35 0 0
0.0174 2.2313 -12.5170 0.416 -0.142 0.898 115 50 36 0 0
-1.3541 -0.3873 -12.6010 -0.022 -0.637 0.771 118 41 25 0 0
-1.4856 -0.5493 -13.8277 -0.232 -0.358 0.905 137 84 47 0 0
-1.5849 -0.6780 -14.6655 -0.167 -0.927 0.336 122 63 46 0 0
-1.5242 -0.5256 -15.1599 -0.480 -0.840 0.253 112 56 48 0 0
-0.7013 0.9192 -12.4869 -0.388 -0.357 0.849 129 53 37 0 0
-1.2867 -0.1934 -12.6258 -0.025 -0.545 0.838 128 49 26 0 0
-1.4708 -0.5123 -13.0811 -0.327 -0.923 -0.205 53 50 50 0 0
-1.5280 -0.5651 -13.8355 -0.416 -0.284 0.864 73 21 6 0 0
-1.6072 -0.6534 -14.6766 -0.094 -0.993 0.064 123 64 46 0 0
-1.5452 -0.4968 -15.1759 -0.631 -0.776 -0.002 109 55 46 0 0
-0.9183 0.5717 -12.5384 -0.380 -0.385 0.841 131 54 35 0 0
-1.6043 -0.6090 -14.3192 -0.700 -0.223 0.678 123 63 45 0 0
-1.6142 -0.6151 -14.4850 -0.545 -0.817 0.190 101 49 40 0 0
-1.5812 -0.5227 -14.8568 -0.920 -0.339 0.196 113 56 42 0 0
-1.5780 -0.5043 -15.0128 -0.773 -0.606 -0.187 76 48 43 0 0
-1.5823 -0.5018 -15.1514 -0.654 -0.603 0.456 105 54 43 0 0
-1.5871 -0.5081 -15.1893 -0.441 -0.797 0.412 102 53 39 0 0
-0.9338 0.6051 -12.5173 -0.720 -0.485 0.496 132 56 36 0 0
-0.9480 0.5789 -12.5313 -0.518 -0.576 0.632 131 54 34 0 0
-1.6010 -0.4918 -14.8751 -0.872 -0.443 0.207 110 53 39 0 0
-1.6016 -0.4813 -15.0219 -0.664 -0.720 -0.204 80 50 44 0 0
-0.9628 0.6139 -12.5118 -0.546 -0.560 0.623 132 56 35 0 0
-1.0684 0.4099 -12.5131 -0.412 -0.619 0.669 132 55 34 0 0
-1.6467 -0.5563 -14.3451 -0.109 -0.616 0.780 125 64 44 0 0
-1.2622 0.1060 -12.5927 -0.698 -0.194 0.689 130 49 28 0 0
-1.6862 -0.5731 -14.2660 -0.411 -0.912 0.006 113 59 45 0 0
-1.7092 -0.5898 -14.5925 -0.706 -0.579 0.407 67 42 36 0 0
-1.7163 -0.6011 -14.6231 -0.682 -0.625 0.380 116 66 50 0 0
-1.7126 -0.5636 -14.9772 -0.951 -0.292 0.104 103 52 39 0 0
-1.1142 0.4593 -12.6082 -0.592 -0.583 0.557 131 53 31 0 0
-1.7334 -0.5650 -14.6475 -0.765 -0.644 0.019 116 67 51 0 0
-1.7288 -0.5292 -14.9552 -0.931 -0.012 0.364 121 66 49 0 0
-1.6915 -0.4438 -15.1015 -0.833 0.097 0.545 103 53 41 0 0
-1.6421 -0.4840 -12.8256 -0.583 -0.353 0.732 88 16 1 0 0
-1.6165 -0.4096 -13.0976 -0.863 -0.441 -0.247 55 49 51 0 0
-1.7516 -0.5703 -14.2352 -0.497 -0.807 0.319 118 61 46 0 0
-1.7675 -0.5745 -14.5316 0.060 -0.533 0.844 52 40 41 0 0
-1.7376 -0.4830 -14.9025 -0.912 -0.408 0.046 73 46 38 0 0
-1.7487 -0.4982 -14.9739 -0.781 0.230 0.580 118 63 49 0 0
-1.6492 -0.4105 -13.0816 -0.380 -0.878 -0.291 54 48 50 0 0
-1.7562 -0.4444 -14.9746 -0.354 0.399 0.846 104 59 46 0 0
-1.7759 -0.4829 -14.9737 -0.601 0.204 0.773 119 64 51 0 0
-1.5861 -0.2652 -12.6326 -0.299 -0.620 0.725 116 39 23 0 0
-1.7038 -0.4592 -13.0163 0.710 -0.685 0.163 53 49 50 0 0
-1.1368 0.6652 -12.4772 0.105 -0.011 0.994 133 57 34 0 0
-1.4268 0.1742 -12.6126 0.147 -0.349 0.925 130 48 24 0 0
-1.6396 -0.2389 -12.6684 -0.221 -0.621 0.752 119 44 28 0 0
-1.6872 -0.3259 -12.7349 -0.055 -0.239 0.970 173 92 54 0 0
-1.8377 -0.4863 -14.0932 -0.484 -0.842 0.240 106 47 30 0 0
-0.9985 1.0612 -12.3904 -0.416 -0.293 0.861 127 54 35 0 0
-1.0122 1.0358 -12.4057 -0.416 -0.293 0.861 127 54 35 0 0
-1.6515 -0.1953 -12.6974 -0.245 -0.490 0.837 123 48 32 0 0
-1.7464 -0.3374 -13.1367 -0.613 -0.605 -0.509 49 47 48 0 0
-1.8428 -0.2750 -15.6041 -0.479 -0.840 0.255 101 54 40 0 0
-0.5539 2.0120 -12.4345 -0.184 -0.840 0.510 120 48 32 0 0
-0.5911 1.9489 -12.5349 0.100 -0.257 0.961 123 51 36 0 0
-1.2646 0.6183 -12.5454 -0.135 -0.513 0.848 131 53 31 0 0
-1.2757 0.5985 -12.5651 -0.210 -0.603 0.770 131 53 31 0 0
-1.8926 -0.3145 -15.4910 -0.525 -0.058 0.849 103 56 47 0 0
-0.9086 1.3850 -12.4968 -0.292 -0.917 0.273 126 53 34 0 0
-1.3132 0.5925 -12.5840 -0.313 -0.426 0.849 130 52 30 0 0
-1.8207 -0.3928 -12.7781 -0.310 -0.536 0.785 75 14 3 0 0
-1.8238 -0.3950 -12.8143 -0.599 -0.260 0.757 79 19 5 0 0
-0.6050 2.0458 -12.3986 -0.547 -0.788 0.282 118 48 31 0 0
-0.6124 2.0389 -12.4693 -0.504 -0.762 0.406 117 44 29 0 0
-0.6204 2.0260 -12.4968 -0.376 -0.846 0.378 120 48 33 0 0
-0.9372 1.3960 -12.4932 -0.544 -0.653 0.527 126 53 35 0 0
-1.3556 0.5755 -12.5927 -0.399 -0.533 0.747 134 56 34 0 0
-1.6536 -0.0202 -12.5598 -0.329 -0.447 0.832 129 48 26 0 0
-0.6486 2.0397 -12.4952 -0.510 -0.826 0.239 120 49 34 0 0
-0.6556 2.0290 -12.5247 -0.564 -0.643 0.518 120 51 35 0 0
-1.1813 0.9824 -12.5322 -0.553 -0.782 0.288 133 55 33 0 0
-1.2132 0.9212 -12.5532 0.051 -0.416 0.908 133 55 33 0 0
-1.6814 -0.0114 -12.5544 -0.242 -0.874 0.420 126 46 23 0 0
-1.8482 -0.3323 -12.6571 -0.701 -0.261 0.664 188 116 88 0 0
-1.2500 0.9127 -12.5320 0.100 -0.601 0.793 132 54 32 0 0
-1.5548 0.3048 -12.5397 -0.288 -0.714 0.638 130 48 27 0 0
-1.5716 0.2721 -12.5466 0.083 -0.440 0.894 135 52 32 0 0
-2.0120 -0.2658 -15.5204 -0.518 -0.385 0.764 109 61 48 0 0
-1.2803 0.9185 -12.5238 0.100 -0.601 0.793 131 53 31 0 0
-1.9792 -0.4462 -12.8197 -0.508 -0.618 0.600 60 46 44 0 0
-1.9965 -0.3350 -14.0614 -0.344 -0.596 0.726 75 18 3 0 0
-2.0157 -0.2068 -15.4805 -0.632 -0.575 0.519 107 58 43 0 0
-2.0249 -0.2218 -15.5084 -0.632 -0.575 0.519 108 60 45 0 0
-1.2694 1.0017 -12.4713 -0.280 -0.861 0.425 131 53 33 0 0
-1.2974 0.9487 -12.4996 -0.340 -0.338 0.877 130 52 30 0 0
-1.3095 0.9266 -12.5175 -0.251 -0.561 0.789 130 52 30 0 0
-1.6103 0.3244 -12.5306 -0.011 -0.667 0.745 133 51 30 0 0
-1.2995 1.0077 -12.4633 -0.180 -0.695 0.696 130 52 31 0 0
-1.3246 0.9614 -12.4976 -0.251 -0.561 0.789 130 52 30 0 0
-1.6400 0.3295 -12.5218 -0.269 -0.329 0.905 126 44 23 0 0
-0.9973 1.6814 -12.4323 -0.153 0.104 0.983 125 54 36 0 0
-2.0097 -0.3218 -12.7489 -0.320 -0.798 0.511 70 12 2 0 0
-2.1149 -0.3087 -14.5508 -0.351 -0.934 0.071 47 45 48 0 0
-0.2128 3.3756 -12.7251 0.423 0.366 0.829 175 163 162 0 0
-1.0691 1.6109 -12.4728 -0.079 -0.475 0.876 123 52 37 0 0
-1.2403 1.2595 -12.4330 -0.124 -0.632 0.765 129 54 36 0 0
-1.7080 0.3253 -12.5282 -0.289 -0.507 0.812 130 47 26 0 0
-2.1428 -0.2962 -14.5478 -0.406 -0.912 0.062 47 45 48 0 0
-2.0749 -0.3395 -12.6267 -0.020 -0.573 0.819 68 11 4 0 0
-2.1652 -0.2708 -14.5594 -0.701 -0.693 0.168 46 44 47 0 0
-2.1703 -0.2762 -14.5966 -0.790 -0.605 0.104 47 45 48 0 0
-1.0971 1.6885 -12.4373 0.355 -0.484 0.800 115 45 29 0 0
-1.4675 0.9329 -12.4187 -0.084 -0.441 0.894 132 51 30 0 0
-2.1781 -0.2491 -14.3952 -0.112 -0.872 0.477 43 41 44 0 0
-2.2009 -0.2635 -14.6371 -0.397 -0.910 0.124 47 44 47 0 0
-2.1216 -0.3035 -12.6343 -0.420 -0.864 0.278 69 9 2 0 0
-1.9575 0.1902 -13.8074 -0.172 0.407 0.897 4 1 2 0 0
-2.2068 -0.2391 -14.3895 -0.467 -0.799 0.378 44 43 44 0 0
-2.2285 -0.2191 -14.3525 -0.724 -0.662 0.195 46 40 39 0 0
-2.2328 -0.2226 -14.3912 -0.738 -0.663 0.128 56 44 40 0 0
-1.2051 1.6762 -12.4257 -0.067 -0.225 0.972 124 53 35 0 0
-1.2153 1.6584 -12.4483 -0.217 -0.406 0.888 125 53 36 0 0
-2.0473 -0.0104 -12.7053 -0.633 -0.232 0.739 158 103 105 0 0
-2.0702 -0.0524 -12.7404 -0.598 -0.167 0.784 182 115 87 0 0
-2.2403 -0.2517 -13.7998 -0.286 -0.758 0.587 118 63 33 0 0
-2.2488 -0.2653 -13.8261 -0.691 -0.424 0.585 122 67 24 0 0
-1.4337 1.2734 -12.4041 -0.218 -0.795 0.566 130 54 38 0 0
-2.0241 0.2598 -13.7918 0.031 -0.013 0.999 2 1 3 0 0
-2.2902 -0.1808 -14.5326 -0.666 -0.724 0.180 111 67 49 0 0
-2.3121 -0.1535 -14.5462 -0.626 -0.773 0.104 113 62 45 0 0
-1.4983 1.2751 -12.3795 -0.190 -0.888 0.418 129 53 37 0 0
-1.8729 0.5238 -12.5297 -0.382 -0.610 0.694 124 46 24 0 0
-2.0569 0.2823 -13.4603 -0.929 0.044 0.367 49 47 50 0 0
-2.3480 -0.1300 -14.7285 -0.638 -0.761 0.120 76 45 39 0 0
-2.3470 -0.0319 -15.3743 -0.109 -0.990 -0.089 100 53 37 0 0
-1.4515 1.4511 -12.4443 0.152 -0.908 0.391 129 56 37 0 0
-1.5635 1.2168 -12.4279 -0.221 -0.288 0.932 130 53 33 0 0
-1.8645 0.6071 -12.5180 -0.724 -0.027 0.690 132 51 30 0 0
-2.0814 0.3013 -13.4645 -0.938 0.245 0.247 49 47 50 0 0
-2.0659 0.3465 -13.5503 -0.101 0.282 0.954 47 47 47 0 0
-2.1434 0.2073 -13.6910 0.184 -0.767 0.615 3 1 3 0 0
-2.1724 0.1581 -13.7621 -0.571 -0.820 0.043 41 17 15 0 0
-2.3495 -0.1676 -14.0328 -0.671 -0.319 0.669 96 29 14 0 0
-2.3496 -0.1067 -14.4363 -0.648 -0.748 0.143 117 56 45 0 0
-2.3669 -0.1026 -14.6989 -0.795 -0.523 0.306 54 45 43 0 0
-2.3724 -0.1086 -14.7355 -0.801 -0.571 0.182 79 48 42 0 0
-1.8945 0.6112 -12.5084 -0.668 -0.240 0.704 135 54 33 0 0
-1.9060 0.5901 -12.5265 -0.668 -0.240 0.704 132 53 31 0 0
-2.0821 0.3866 -13.5758 -0.447 -0.709 -0.545 46 46 48 0 0
-2.1876 0.1857 -13.6938 -0.882 -0.464 -0.078 2 2 5 0 0
-2.3666 -0.1299 -14.0576 -0.404 -0.902 0.153 97 32 15 0 0
-2.3772 -0.1484 -14.0791 -0.091 -0.724 0.684 105 48 33 0 0
-2.3884 -0.0079 -15.1413 -0.490 -0.711 0.504 113 60 42 0 0
-1.5894 1.3037 -12.4403 0.101 -0.293 0.951 129 52 32 0 0
-1.7715 0.9252 -12.4428 -0.367 -0.119 0.922 130 48 27 0 0
-1.8858 0.6888 -12.4536 0.181 -0.757 0.628 131 50 29 0 0
-2.2953 -0.1321 -12.6536 -0.380 -0.573 0.726 66 10 2 0 0
-2.3056 -0.1504 -12.6734 -0.380 -0.573 0.726 66 11 5 0 0
-2.3279 -0.1913 -12.7087 -0.054 -0.934 0.352 95 36 22 0 0
-2.0789 0.4824 -13.6981 -0.489 -0.681 -0.544 44 44 46 0 0
-2.4034 -0.1253 -14.1296 -0.560 -0.827 0.055 113 63 48 0 0
-2.3867 0.0817 -15.2268 -0.382 -0.467 0.797 114 61 43 0 0
-2.4168 0.0924 -15.6940 0.061 -0.243 0.968 74 31 21 0 0
-2.4429 0.0524 -15.7852 0.063 0.109 0.992 65 35 25 0 0
-1.7797 0.9760 -12.4376 -0.164 -0.256 0.953 136 55 34 0 0
-2.3805 -0.0499 -13.8640 -0.337 -0.118 0.934 81 31 18 0 0
-2.4233 -0.1022 -14.0969 -0.342 -0.154 0.927 109 52 32 0 0
-2.4177 0.0884 -15.2166 -0.014 -0.732 0.681 114 61 43 0 0
-2.4468 0.1031 -15.6879 -0.054 -0.261 0.964 73 29 19 0 0
-1.8208 0.9609 -12.4483 -0.213 -0.271 0.939 134 52 31 0 0
-1.8865 0.8284 -12.4789 -0.103 -0.193 0.976 133 51 30 0 0
-2.3515 -0.1186 -12.6390 -0.286 -0.605 0.743 59 7 2 0 0
-2.3717 -0.1544 -12.6792 0.035 -0.472 0.881 79 16 4 0 0
-2.1332 0.4941 -13.5985 -0.808 0.315 0.498 46 44 47 0 0
-2.4357 -0.0599 -14.0849 -0.761 -0.631 0.149 98 34 16 0 0
-2.4530 -0.0955 -14.0880 -0.574 -0.166 0.802 109 51 31 0 0
-2.4671 0.1386 -15.7113 -0.216 -0.861 0.460 69 26 14 0 0
-1.7806 1.1022 -12.3739 -0.241 -0.899 0.365 129 51 29 0 0
-1.8098 1.0449 -12.3979 -0.344 -0.495 0.798 130 49 28 0 0
-2.1105 0.4258 -12.4701 0.002 -0.533 0.846 129 47 26 0 0
-2.1577 0.3307 -12.4933 -0.042 -0.331 0.943 127 46 25 0 0
-2.3854 -0.1118 -12.7072 -0.481 -0.735 0.479 84 17 6 0 0
-2.2831 0.2542 -13.6220 -0.357 -0.790 0.498 2 1 5 0 0
-2.4485 -0.0435 -13.9212 -0.506 -0.823 0.258 104 45 17 0 0
-2.4645 -0.0510 -14.0784 -0.563 -0.825 -0.049 97 35 16 0 0
-2.4812 -0.0601 -14.2355 -0.565 -0.813 0.144 106 59 43 0 0
-2.4724 -0.0122 -14.4148 -0.612 -0.782 0.122 98 49 35 0 0
-1.8310 1.0712 -12.4081 -0.314 -0.332 0.889 134 53 32 0 0
-1.9317 0.8664 -12.4493 -0.365 -0.702 0.612 132 50 29 0 0
-2.1539 0.6059 -13.6806 -0.792 -0.434 0.430 43 43 45 0 0
-2.2792 0.3374 -13.6516 0.207 -0.728 0.653 3 3 3 0 0
-2.2940 0.3081 -13.6620 -0.072 -0.279 0.958 2 2 2 0 0
-2.5111 -0.0539 -14.2259 -0.507 -0.834 0.218 114 64 48 0 0
-2.5168 0.0830 -15.1124 -0.457 -0.889 -0.025 104 54 40 0 0
-2.5346 0.1890 -15.9658 -0.938 -0.251 0.239 35 36 36 0 0
-1.8559 1.0888 -12.4106 0.040 -0.605 0.796 134 53 32 0 0
-2.1617 0.4539 -12.4693 -0.224 -0.848 0.481 130 48 25 0 0
-2.3446 0.2694 -13.6475 -0.400 -0.652 0.644 4 1 2 0 0
-2.5424 -0.0427 -14.2638 -0.579 -0.815 0.007 114 55 42 0 0
-2.5473 0.0531 -14.8845 -0.686 -0.582 0.437 104 53 39 0 0
-2.5260 0.2035 -15.5029 -0.725 -0.670 -0.159 100 52 37 0 0
-1.8248 1.2155 -12.3598 -0.042 -0.477 0.878 131 53 31 0 0
-1.8382 1.1897 -12.3746 -0.141 -0.313 0.939 130 52 30 0 0
-2.1860 0.4790 -12.5167 0.093 -0.835 0.542 130 49 25 0 0
-2.5339 -0.0161 -13.9030 -0.202 -0.875 0.440 83 26 6 0 0
-2.5709 -0.0327 -14.2583 0.078 -0.994 0.080 111 54 41 0 0
-2.5698 0.0808 -14.8985 -0.798 -0.505 0.329 103 55 39 0 0
-2.4678 -0.0325 -12.6160 -0.224 -0.532 0.816 94 34 8 0 0
-2.4716 -0.0182 -12.7431 -0.717 -0.622 0.316 83 19 11 0 0
-2.5921 0.1187 -14.9678 -0.314 -0.949 -0.011 116 63 43 0 0
-1.7703 1.4819 -12.4161 -0.744 -0.490 0.454 130 55 36 0 0
-1.9594 1.0848 -12.4424 0.017 -0.882 0.471 130 48 27 0 0
-2.5058 -0.0352 -12.6747 -0.430 -0.847 0.312 67 12 5 0 0
-2.4951 0.0006 -12.7476 -0.275 -0.944 0.180 80 18 10 0 0
-2.5910 0.0103 -13.9404 0.051 -0.636 0.770 58 13 4 0 0
-2.8933 -0.1092 -16.8615 -0.650 0.090 0.755 158 156 157 0 0
-0.8777 3.4885 -12.5977 -0.088 0.174 0.981 109 49 37 0 0
-1.7940 1.5037 -12.4219 -0.524 -0.521 0.674 127 52 33 0 0
-2.3373 0.3630 -12.5173 -0.202 -0.422 0.884 131 49 28 0 0
-2.5313 -0.0220 -12.6737 -0.430 -0.847 0.312 69 14 7 0 0
-2.6198 0.0185 -13.9334 -0.263 -0.600 0.755 50 9 4 0 0
-2.6544 0.0497 -14.5105 -0.149 -0.645 0.749 107 56 42 0 0
-2.6676 0.1234 -15.0702 -0.653 -0.645 0.396 97 49 36 0 0
-2.6592 0.1974 -15.3779 -0.325 -0.931 -0.164 96 49 35 0 0
-2.9160 -0.0762 -16.8832 -0.045 -0.074 0.996 159 157 158 0 0
-1.8243 1.5085 -12.4131 -0.168 -0.324 0.931 127 52 33 0 0
-2.2764 0.5417 -12.4094 -0.372 -0.440 0.817 132 50 29 0 0
-2.5579 -0.0118 -12.6698 -0.640 -0.636 0.432 69 13 5 0 0
-2.6574 0.0219 -14.0033 -0.306 -0.546 0.780 73 16 4 0 0
-2.6464 0.1091 -14.3473 -0.640 -0.336 0.690 102 51 40 0 0
-2.6541 0.0982 -14.3776 -0.635 -0.702 0.322 97 47 36 0 0
-2.6807 0.0662 -14.5120 -0.225 -0.435 0.872 113 60 44 0 0
-2.6845 0.0660 -14.5544 0.234 -0.837 0.495 90 51 42 0 0
-2.6802 0.1478 -14.9485 -0.719 -0.648 0.249 117 63 43 0 0
-2.6873 0.1390 -14.9823 -0.749 -0.382 0.542 116 63 47 0 0
-1.7756 1.6733 -12.3545 -0.250 -0.050 0.967 124 51 32 0 0
-1.8201 1.5849 -12.3911 0.105 -0.227 0.968 127 52 33 0 0
-2.0350 1.1267 -12.4030 -0.466 -0.443 0.766 130 48 27 0 0
-2.0459 1.1069 -12.4228 -0.166 -0.629 0.760 129 46 25 0 0
-2.0571 1.0866 -12.4420 -0.166 -0.629 0.760 132 51 30 0 0
-2.2940 0.5763 -12.4279 -0.492 -0.428 0.759 132 50 28 0 0
-2.6079 0.1251 -13.6086 0.059 -0.888 0.456 118 67 38 0 0
-2.6852 0.0328 -13.9991 -0.387 -0.559 0.733 78 17 4 0 0
-2.6754 0.1080 -14.2877 -0.854 -0.479 0.204 116 62 48 0 0
-2.6565 0.1687 -14.3956 -0.294 -0.376 0.879 98 47 35 0 0
-2.6643 0.1578 -14.4260 -0.612 -0.619 0.492 96 46 35 0 0
-2.6868 0.1171 -14.4663 -0.525 -0.457 0.718 97 48 40 0 0
-2.7061 0.0750 -14.4625 -0.811 -0.384 0.441 101 49 37 0 0
-2.0327 1.2057 -12.4224 -0.174 -0.366 0.914 132 52 30 0 0
-2.0612 1.1408 -12.4025 0.103 -0.584 0.805 130 48 27 0 0
-2.0738 1.1167 -12.4184 0.103 -0.584 0.805 130 47 26 0 0
-2.5931 0.1278 -13.0843 -0.454 -0.886 0.097 91 45 29 0 0
-2.6354 0.1361 -13.6047 -0.083 -0.904 0.419 114 65 42 0 0
-2.6820 0.1874 -14.3995 -0.533 -0.640 0.553 96 46 34 0 0
-2.7510 0.4014 -16.3025 -0.058 0.682 0.729 34 30 29 0 0
-0.8084 3.9722 -12.7240 0.301 0.399 0.866 168 154 152 0 0
-1.8978 1.5679 -12.4255 -0.285 -0.523 0.803 129 53 35 0 0
-2.0290 1.2803 -12.4003 -0.098 -0.417 0.904 129 51 29 0 0
-2.0595 1.2184 -12.4206 -0.480 -0.353 0.803 130 49 28 0 0
-2.3751 0.5436 -12.4456 -0.594 -0.603 0.532 132 50 29 0 0
-2.3801 0.5391 -12.4786 -0.286 -0.316 0.905 134 52 31 0 0
-2.4504 0.3983 -12.5338 -0.543 -0.545 0.638 127 45 26 0 0
-2.4616 0.3777 -12.5517 -0.357 -0.456 0.815 127 46 25 0 0
-2.6126 0.1400 -13.0050 -0.392 -0.918 -0.052 101 55 40 0 0
-2.6149 0.1431 -13.0465 -0.454 -0.886 0.097 104 58 40 0 0
-2.6891 0.1053 -13.6780 -0.296 -0.640 0.709 85 49 39 0 0
-2.1332 1.1266 -12.4011 0.371 -0.397 0.840 130 48 27 0 0
-2.7704 0.0909 -14.1373 -0.673 -0.729 -0.125 101 57 43 0 0
-2.7736 0.2307 -14.8851 -0.526 -0.848 0.058 110 59 40 0 0
-2.1367 1.1911 -12.4078 0.329 -0.765 0.554 131 49 28 0 0
-2.1475 1.1717 -12.4279 0.035 -0.120 0.992 132 50 29 0 0
-2.6900 0.0324 -12.6063 -0.472 -0.647 0.599 60 10 5 0 0
-2.7251 0.1188 -13.4224 -0.051 -0.991 0.126 86 47 31 0 0
-2.7557 0.1565 -13.9442 -0.187 -0.440 0.878 72 35 23 0 0
-2.7791 0.1232 -14.0320 -0.299 -0.854 0.425 79 22 8 0 0
-2.7576 0.2564 -14.4673 0.265 -0.591 0.762 102 56 40 0 0
-2.0051 1.5571 -12.4523 -0.045 -0.641 0.766 124 47 28 0 0
-2.1456 1.2418 -12.4022 -0.014 -0.547 0.837 131 50 29 0 0
-2.2032 1.1172 -12.4040 -0.033 -0.371 0.928 131 49 28 0 0
-2.7500 0.1260 -13.3754 0.031 -0.995 0.097 106 60 38 0 0
-2.7745 0.1710 -13.8622 -0.546 -0.823 0.158 99 53 37 0 0
-2.7858 0.1503 -13.8811 -0.452 -0.767 0.455 91 48 33 0 0
-2.7940 0.1383 -13.9093 -0.452 -0.767 0.455 78 38 26 0 0
-2.7983 0.2442 -14.4800 -0.178 -0.889 0.421 103 55 40 0 0
-2.8277 0.2397 -14.7743 -0.534 -0.840 -0.096 86 44 32 0 0
-2.8266 0.2541 -14.8336 -0.439 -0.899 -0.017 101 53 37 0 0
-2.8310 0.2644 -14.9319 -0.428 -0.899 -0.096 92 46 37 0 0
-2.2305 1.1281 -12.4006 -0.033 -0.371 0.928 131 49 28 0 0
-2.6615 0.2260 -12.5781 -0.073 -0.418 0.906 153 73 48 0 0
-2.6997 0.1415 -12.5719 -0.238 -0.647 0.725 152 79 42 0 0
-2.8075 0.1778 -13.8944 -0.435 -0.775 0.459 106 62 48 0 0
-2.8201 0.1535 -13.9096 -0.452 -0.767 0.455 97 55 42 0 0
-2.8331 0.1496 -14.0283 -0.216 -0.898 0.383 107 53 34 0 0
-2.8443 0.2392 -14.5854 -0.373 -0.925 -0.070 103 51 39 0 0
-2.8544 0.2677 -14.8316 -0.439 -0.899 -0.017 108 59 42 0 0
-2.8669 0.3735 -15.4813 -0.482 -0.867 -0.123 110 75 49 0 0
-1.9579 1.7955 -12.4060 -0.261 -0.487 0.834 126 51 32 0 0
-2.2516 1.1554 -12.4117 -0.238 -0.316 0.919 131 49 28 0 0
-2.7567 0.0977 -12.6281 -0.592 -0.465 0.659 58 11 3 0 0
-2.8037 0.1595 -13.4192 -0.734 -0.664 0.145 88 47 31 0 0
-2.8370 0.1837 -13.8850 -0.683 -0.609 0.403 87 47 36 0 0
-2.8447 0.1729 -13.9144 -0.683 -0.609 0.403 72 31 19 0 0
-2.8602 0.1621 -14.0258 -0.362 -0.857 0.368 110 73 55 0 0
-2.8575 0.2363 -14.3543 0.015 -0.999 -0.048 95 56 43 0 0
-2.8740 0.2694 -14.6873 -0.400 -0.916 -0.021 117 76 59 0 0
-2.8805 0.2743 -14.7787 -0.310 -0.945 -0.105 120 81 57 0 0
-2.8832 0.2782 -14.8262 -0.292 -0.955 -0.047 125 72 46 0 0
-2.8965 0.3843 -15.4757 -0.482 -0.876 -0.011 105 62 42 0 0
-2.8787 0.5228 -15.9562 -0.469 -0.882 -0.037 26 20 20 0 0
-1.9302 1.9072 -12.3010 -0.611 -0.514 0.602 123 48 28 0 0
-2.4442 0.8072 -12.4215 -0.530 -0.544 0.651 128 47 26 0 0
-2.8166 0.1890 -13.3555 -0.602 -0.671 0.432 84 41 29 0 0
-2.8874 0.1747 -14.0233 -0.362 -0.857 0.368 110 80 60 0 0
-2.8817 0.2244 -14.2001 -0.493 -0.869 -0.043 89 48 37 0 0
-2.9095 0.2841 -14.7726 -0.353 -0.932 -0.076 119 74 49 0 0
-2.9121 0.2887 -14.8208 -0.316 -0.949 -0.022 125 69 43 0 0
-2.4585 0.8427 -12.4035 -0.530 -0.544 0.651 127 45 24 0 0
-2.4682 0.8260 -12.4254 -0.530 -0.544 0.651 129 47 26 0 0
-2.8339 0.2166 -13.3294 -0.569 -0.777 0.271 84 41 30 0 0
-2.8401 0.2099 -13.3619 -0.569 -0.777 0.271 81 39 29 0 0
-2.8539 0.2253 -13.5753 -0.483 -0.868 0.116 91 51 34 0 0
-2.8933 0.2137 -13.9260 -0.634 -0.642 0.432 114 75 52 0 0
-2.9146 0.1872 -14.0208 -0.362 -0.857 0.368 118 83 53 0 0
-2.9082 0.2395 -14.2002 -0.493 -0.869 -0.043 90 49 37 0 0
-2.9413 0.2982 -14.8144 -0.316 -0.949 -0.022 121 65 44 0 0
-2.9360 0.4882 -15.6493 -0.437 -0.654 0.617 81 42 39 0 0
-3.7611 -1.0787 -16.7917 -0.734 -0.580 0.354 202 202 204 0 0
-2.7492 0.3086 -12.5650 -0.567 -0.566 0.599 150 87 69 0 0
-2.8221 0.1882 -12.7493 -0.521 -0.754 0.401 80 21 10 0 0
-2.8391 0.2034 -12.9919 -0.612 -0.669 0.422 82 41 29 0 0
-2.9325 0.2146 -13.9930 -0.501 -0.795 0.341 120 68 36 0 0
-2.9313 0.2644 -14.2107 -0.590 -0.807 -0.007 103 65 53 0 0
-3.8194 -1.0990 -16.9394 -0.444 -0.799 0.405 203 203 205 0 0
-2.8571 0.2279 -12.9636 -0.705 -0.584 0.402 100 61 43 0 0
-2.8635 0.2207 -12.9948 -0.769 -0.588 0.252 109 69 50 0 0
-2.9449 0.2345 -13.8760 -0.547 -0.799 0.250 111 60 39 0 0
-2.9418 0.2550 -13.9381 -0.658 -0.580 0.480 97 43 28 0 0
-2.9699 0.3290 -14.5578 -0.327 -0.932 0.153 118 62 47 0 0
-3.0436 0.6449 -16.7361 0.636 0.037 0.771 88 88 88 0 0
-3.5938 -0.5029 -17.0388 -0.090 0.434 0.896 195 195 195 0 0
-3.8015 -1.0168 -16.7853 -0.425 -0.707 0.565 202 202 203 0 0
-3.8191 -1.0417 -16.8493 -0.219 -0.846 0.487 203 203 205 0 0
-3.8286 -1.0561 -16.8786 -0.219 -0.846 0.487 200 200 202 0 0
-3.8385 -1.0721 -16.9057 -0.415 -0.749 0.516 202 202 204 0 0
-3.8495 -1.0913 -16.9286 -0.291 -0.733 0.615 204 204 206 0 0
-2.6278 0.7018 -12.4953 -0.269 -0.814 0.515 131 49 28 0 0
-2.8846 0.2584 -13.0560 -0.602 -0.791 0.106 98 53 41 0 0
-2.9834 0.2614 -14.0519 -0.132 -0.953 0.271 107 47 33 0 0
-3.0265 0.3842 -15.0323 -0.437 -0.885 -0.162 90 48 42 0 0
-3.0185 0.5136 -15.5335 -0.340 -0.779 0.527 86 45 39 0 0
-3.0445 0.5454 -15.9355 -0.749 -0.401 0.528 35 31 31 0 0
-3.0692 0.6868 -16.8156 -0.323 -0.502 0.802 100 100 102 0 0
-3.8286 -0.9999 -16.7871 -0.263 -0.529 0.807 202 202 203 0 0
-3.8388 -1.0167 -16.8132 -0.425 -0.707 0.565 202 202 204 0 0
-3.8484 -1.0317 -16.8416 -0.325 -0.764 0.557 201 201 203 0 0
-3.8587 -1.0487 -16.8673 -0.414 -0.744 0.525 195 195 197 0 0
-3.8683 -1.0636 -16.8960 -0.414 -0.744 0.525 199 199 201 0 0
-3.8777 -1.0777 -16.9258 -0.291 -0.733 0.615 203 203 205 0 0
-2.0704 1.9823 -12.3749 -0.153 -0.088 0.984 124 51 32 0 0
-3.0076 0.3442 -14.3309 -0.623 -0.778 -0.074 106 51 37 0 0
-3.0510 0.3821 -14.9258 -0.291 -0.435 0.852 90 52 44 0 0
-3.0603 0.3676 -14.9531 -0.317 -0.947 0.053 90 49 43 0 0
-3.0508 0.5161 -15.5185 -0.355 -0.934 0.027 89 49 41 0 0
-3.8662 -1.0007 -16.8138 -0.425 -0.707 0.565 202 202 204 0 0
-3.8761 -1.0165 -16.8411 -0.425 -0.707 0.565 201 201 203 0 0
-3.8863 -1.0333 -16.8672 -0.414 -0.744 0.525 200 200 202 0 0
-3.8961 -1.0487 -16.8952 -0.272 -0.727 0.631 201 201 203 0 0
-3.9062 -1.0652 -16.9217 -0.296 -0.743 0.600 204 204 206 0 0
-2.9241 0.3089 -13.0388 -0.848 -0.513 0.133 87 40 34 0 0
-2.9286 0.3879 -13.4279 -0.837 -0.509 0.203 88 48 36 0 0
-3.0300 0.3594 -14.2893 -0.634 -0.764 -0.121 124 62 47 0 0
-3.0323 0.3650 -14.3370 -0.541 -0.837 -0.084 106 52 38 0 0
-3.8950 -0.9894 -16.8080 -0.499 -0.673 0.546 202 202 204 0 0
-3.9048 -1.0048 -16.8359 -0.499 -0.673 0.546 202 202 204 0 0
-3.9139 -1.0178 -16.8671 -0.414 -0.744 0.525 202 202 204 0 0
-3.9222 -1.0285 -16.9017 -0.512 -0.720 0.468 202 202 204 0 0
-3.9317 -1.0429 -16.9310 -0.559 -0.675 0.482 203 203 205 0 0
-2.9497 0.4168 -13.4421 -0.837 -0.509 0.203 30 10 4 0 0
-3.0560 0.3891 -14.3466 -0.212 -0.970 0.119 107 52 38 0 0
-3.1670 0.7046 -16.7773 0.749 -0.429 0.505 98 98 100 0 0
-3.9460 -1.0174 -16.8463 0.067 -0.762 0.644 203 203 205 0 0
-3.9510 -1.0170 -16.8960 -0.345 -0.582 0.736 203 203 205 0 0
-3.9584 -1.0244 -16.9351 -0.512 -0.720 0.468 203 203 205 0 0
-4.3047 -1.8197 -16.8370 0.361 -0.402 0.841 203 202 202 0 0
-4.3330 -1.8806 -16.8461 0.450 -0.321 0.834 208 208 208 0 0
-2.2132 1.8847 -12.3669 -0.358 -0.422 0.833 121 48 29 0 0
-3.0279 0.3637 -13.6512 -0.272 -0.775 0.570 106 51 21 0 0
-3.0489 0.3267 -13.6933 -0.397 -0.564 0.724 86 43 30 0 0
-3.0697 0.4827 -14.5568 -0.844 -0.526 0.104 119 61 44 0 0
-3.2846 0.5557 -16.9164 0.417 -0.909 0.022 126 125 125 0 0
-3.4966 0.0793 -16.9063 0.581 -0.743 0.331 162 160 162 0 0
-4.3641 -1.8806 -16.8239 0.453 -0.318 0.833 208 208 208 0 0
-2.2558 1.8656 -12.3754 -0.767 -0.273 0.580 122 49 30 0 0
-2.5299 1.2703 -12.4575 -0.431 -0.431 0.793 129 47 26 0 0
-2.6376 1.0312 -12.4680 0.113 -0.712 0.693 133 51 30 0 0
-2.7540 0.7773 -12.4982 -0.348 -0.596 0.723 132 51 30 0 0
-2.7667 0.7521 -12.5123 -0.405 -0.602 0.688 129 48 27 0 0
-2.9520 0.5186 -13.2789 -0.995 0.015 0.096 6 5 3 0 0
-3.0678 0.3628 -13.7151 -0.455 -0.717 0.529 96 53 37 0 0
-3.1259 0.6040 -15.2787 0.280 -0.742 0.610 90 52 44 0 0
-3.5308 0.0773 -16.8832 0.245 -0.522 0.817 162 160 162 0 0
-2.6549 1.0472 -12.3954 0.069 -0.693 0.717 128 46 25 0 0
-2.6649 1.0298 -12.4168 -0.034 -0.739 0.673 125 43 22 0 0
-2.7165 0.9159 -12.4257 -0.296 -0.442 0.847 130 48 27 0 0
-3.0841 0.3941 -13.6920 -0.543 -0.550 0.634 107 59 27 0 0
-3.1633 0.5900 -15.2457 0.112 -0.948 0.297 91 52 44 0 0
-3.3662 0.4644 -16.6189 -0.236 0.088 0.968 112 111 111 0 0
-2.2492 2.0185 -12.3297 -0.464 -0.445 0.766 122 49 30 0 0
-2.3000 1.9199 -12.3957 -0.403 -0.336 0.851 122 49 30 0 0
-2.5280 1.4077 -12.4035 0.048 -0.537 0.842 128 47 26 0 0
-3.0075 0.6386 -13.6842 -0.499 0.145 0.855 15 4 4 0 0
-3.1078 0.4160 -13.6992 -0.320 -0.460 0.828 113 65 31 0 0
-3.1348 0.4136 -13.9385 -0.385 -0.750 0.537 84 34 22 0 0
-3.1533 0.3840 -13.9892 -0.780 -0.594 0.198 68 14 9 0 0
-3.1220 0.6583 -14.8241 -0.953 -0.219 -0.207 97 46 36 0 0
-3.1948 0.5938 -15.2325 0.087 -0.963 0.253 93 52 43 0 0
-2.5484 1.4269 -12.3705 -0.066 -0.825 0.561 128 47 26 0 0
-2.5578 1.4116 -12.3941 -0.066 -0.825 0.561 128 47 26 0 0
-2.7039 1.0829 -12.4012 -0.493 -0.295 0.819 128 47 26 0 0
-2.7152 1.0617 -12.4193 -0.545 -0.477 0.690 128 47 26 0 0
-3.0020 0.4484 -12.5621 -0.115 -0.346 0.931 156 77 59 0 0
-3.2275 0.5936 -15.2150 -0.131 -0.975 0.180 99 53 43 0 0
-3.2420 0.6241 -15.4710 -0.222 -0.974 -0.036 20 6 6 0 0
-2.5119 1.5751 -12.3376 -0.567 0.156 0.809 124 48 25 0 0
-2.5184 1.5680 -12.3685 0.075 -0.836 0.543 126 49 27 0 0
-3.1197 0.5415 -13.7164 -0.726 -0.217 0.652 82 21 2 0 0
-3.2690 0.6271 -15.4121 -0.378 -0.922 -0.082 21 5 5 0 0
-3.2727 0.6307 -15.4607 -0.222 -0.974 -0.036 23 6 4 0 0
-3.2957 0.5736 -15.4410 0.377 -0.676 0.633 27 8 5 0 0
-3.3155 0.5738 -15.6207 -0.526 -0.735 0.427 41 15 10 0 0
-3.3243 0.5618 -15.6522 -0.526 -0.735 0.427 43 16 9 0 0
-3.3300 0.5593 -15.6947 -0.627 -0.473 0.619 44 17 11 0 0
-3.3408 0.5408 -15.7187 -0.499 -0.686 0.529 45 17 13 0 0
-3.3939 0.4355 -15.7788 0.250 -0.948 0.197 46 21 19 0 0
-3.4688 0.2758 -15.8199 -0.332 -0.922 -0.197 52 43 41 0 0
-3.4749 0.3218 -16.0585 0.652 -0.182 0.736 70 70 68 0 0
-3.5618 0.2762 -16.6643 0.229 -0.961 -0.154 124 123 121 0 0
-3.1385 0.3184 -12.7097 -0.872 -0.279 0.403 92 45 35 0 0
-3.1708 0.5076 -13.7471 -0.211 -0.546 0.811 115 67 32 0 0
-3.2957 0.6619 -15.4782 -0.619 -0.784 -0.048 28 9 5 0 0
-3.3057 0.6459 -15.5049 -0.556 -0.734 0.389 35 11 5 0 0
-3.3236 0.6207 -15.5661 -0.486 -0.790 0.373 46 14 9 0 0
-3.3413 0.5963 -15.6284 -0.374 -0.763 0.527 51 15 8 0 0
-3.4469 0.3704 -15.6848 -0.458 -0.476 0.751 50 19 14 0 0
-3.4984 0.3526 -16.0764 0.739 -0.673 -0.009 71 69 68 0 0
-3.5991 0.3168 -16.8398 0.582 -0.361 0.729 131 130 127 0 0
-3.1646 0.3300 -12.7072 -0.594 0.045 0.803 92 46 36 0 0
-3.2677 0.4162 -13.9606 -0.799 -0.591 -0.109 71 18 10 0 0
-3.3283 0.6787 -15.5240 -0.263 -0.930 0.258 46 15 8 0 0
-3.3391 0.6603 -15.5482 -0.109 -0.800 0.590 51 15 8 0 0
-3.3335 0.6945 -15.6318 -0.238 -0.946 0.220 53 15 8 0 0
-3.3723 0.6022 -15.6172 0.068 -0.876 0.478 57 16 9 0 0
-3.4702 0.4006 -15.7017 -0.194 -0.421 0.886 57 19 13 0 0
-3.4759 0.4154 -15.8099 0.576 -0.428 0.696 56 20 14 0 0
-3.4917 0.3806 -15.8147 0.559 -0.324 0.763 56 23 16 0 0
-3.6293 0.2737 -16.6214 0.221 -0.962 -0.163 117 116 114 0 0
-3.1732 0.3817 -12.7055 -0.737 -0.647 0.194 78 27 16 0 0
-3.1787 0.3778 -12.7392 -0.737 -0.647 0.194 92 46 36 0 0
-3.2716 0.4867 -13.9776 -0.535 -0.468 0.704 62 13 8 0 0
-3.2908 0.4556 -14.0267 -0.905 -0.319 0.282 103 46 32 0 0
-3.3321 0.5339 -14.6923 -0.246 -0.557 0.794 69 15 5 0 0
-3.3463 0.5039 -14.7025 -0.538 -0.368 0.758 67 15 4 0 0
-3.3995 0.6039 -15.5562 0.195 -0.807 0.558 61 18 11 0 0
-3.4120 0.5966 -15.6379 -0.710 -0.703 -0.035 64 18 12 0 0
-3.5265 0.3231 -15.5935 0.484 -0.174 0.858 60 18 12 0 0
-3.5299 0.3289 -15.6453 0.645 -0.748 0.157 59 19 13 0 0
-2.6602 1.5412 -12.3685 -0.176 -0.267 0.947 127 47 25 0 0
-3.2601 0.5334 -13.7681 -0.256 -0.630 0.734 77 33 19 0 0
-3.3109 0.4903 -14.0472 -0.870 -0.426 0.248 105 48 34 0 0
-3.3940 0.6947 -15.5514 -0.804 -0.542 0.243 63 19 10 0 0
-3.5818 0.2984 -15.6820 0.690 -0.672 0.269 63 18 12 0 0
-3.2878 0.5437 -13.7635 -0.187 -0.730 0.657 75 31 17 0 0
-3.3032 0.5243 -13.8240 -0.708 -0.476 0.522 136 93 71 0 0
-3.3387 0.4858 -13.9864 -0.754 -0.287 0.591 80 28 18 0 0
-3.4117 0.7270 -15.5252 -0.443 -0.861 0.249 64 18 8 0 0
-3.6177 0.2694 -15.5850 0.784 -0.532 0.318 64 19 11 0 0
-3.6302 0.2451 -15.6016 0.735 -0.623 0.267 66 20 12 0 0
-3.7148 0.3980 -16.9088 -0.214 -0.025 0.976 125 122 121 0 0
-3.1480 0.6016 -12.5008 -0.030 -0.460 0.887 150 86 71 0 0
-3.3641 0.5039 -13.9897 -0.758 -0.561 0.334 83 31 19 0 0
-3.5424 0.4889 -15.4617 -0.531 -0.771 0.350 70 20 13 0 0
-3.5704 0.4305 -15.4842 0.714 -0.498 0.492 70 20 13 0 0
-2.6934 1.6943 -12.3876 -0.222 -0.059 0.973 124 47 26 0 0
-3.1744 0.6122 -12.4974 -0.122 -0.264 0.957 150 84 70 0 0
-3.3769 0.6564 -14.3793 -0.643 0.333 0.689 116 60 39 0 0
-3.5018 0.6101 -15.2706 -0.664 -0.122 0.738 68 20 10 0 0
-3.5210 0.5810 -15.3263 -0.290 -0.709 0.643 67 19 9 0 0
-3.5916 0.4496 -15.4438 -0.148 -0.974 0.169 71 21 12 0 0
-3.6844 0.2082 -15.3446 0.503 -0.833 0.229 71 20 11 0 0
-3.7057 0.1713 -15.3906 0.046 -0.984 0.171 72 20 9 0 0
-3.7469 0.2672 -16.0927 -0.733 -0.444 0.516 82 50 45 0 0
-3.2812 0.4814 -12.6579 -0.505 -0.633 0.587 61 12 7 0 0
-3.2792 0.5014 -12.7140 -0.415 -0.814 0.406 65 11 3 0 0
-3.3532 0.6005 -13.6961 -0.202 -0.242 0.949 126 75 36 0 0
-3.3704 0.5756 -13.7507 -0.170 -0.659 0.732 66 23 11 0 0
-3.4674 0.5934 -14.6318 -0.840 -0.513 0.176 62 11 7 0 0
-3.7794 0.1738 -15.7338 -0.371 -0.925 -0.078 84 51 47 0 0
-3.7821 0.2963 -16.2015 -0.718 -0.688 0.102 83 51 45 0 0
-3.8329 0.2355 -16.4088 -0.829 -0.303 0.470 99 88 87 0 0
-3.2136 0.6617 -12.4799 -0.265 -0.375 0.888 135 66 53 0 0
-3.2259 0.6370 -12.4940 -0.265 -0.375 0.888 153 88 74 0 0
-3.2918 0.5277 -12.6509 -0.148 -0.713 0.686 59 10 5 0 0
-3.5020 0.5836 -14.6051 -0.628 -0.762 -0.157 60 9 5 0 0
-3.5216 0.6896 -15.1489 -0.290 -0.904 0.314 53 15 8 0 0
-3.8251 0.2019 -15.9309 -0.300 -0.953 -0.025 80 51 47 0 0
-3.8564 0.2680 -16.4292 -0.829 -0.303 0.470 92 75 71 0 0
-3.2977 0.5466 -12.5075 -0.479 -0.255 0.840 173 98 71 0 0
-3.4733 0.6002 -14.1497 -0.113 -0.984 -0.134 69 16 5 0 0
-3.4716 0.6219 -14.2131 -0.057 -0.959 -0.279 101 47 29 0 0
-3.5048 0.6623 -14.6306 0.143 -0.429 0.892 61 11 6 0 0
-3.5429 0.7082 -15.1087 -0.498 -0.857 0.130 52 14 7 0 0
-3.5745 0.6729 -15.2446 -0.594 -0.795 0.125 68 19 11 0 0
-3.8728 0.3056 -16.4086 -0.734 -0.575 0.363 82 55 46 0 0
-3.8815 0.2950 -16.4428 -0.734 -0.575 0.363 86 61 55 0 0
-3.8905 0.2830 -16.4754 -0.731 -0.465 0.499 92 75 72 0 0
-2.9501 1.4075 -12.4217 -0.079 -0.628 0.774 127 46 25 0 0
-3.5273 0.6413 -14.4662 -0.381 -0.897 0.223 69 15 8 0 0
-3.5845 0.6939 -15.1196 -0.415 -0.837 0.356 65 18 7 0 0
-3.5855 0.7083 -15.1790 -0.073 -0.654 0.753 66 18 7 0 0
-3.6025 0.6868 -15.2427 -0.919 -0.346 0.189 69 20 10 0 0
-3.8762 0.3690 -16.3722 -0.369 -0.888 0.275 78 50 45 0 0
-3.9143 0.2945 -16.4228 -0.717 -0.509 0.476 84 56 50 0 0
-1.5570 4.8734 -12.8535 -0.316 -0.828 0.464 207 208 210 0 0
-3.0443 1.2504 -12.3821 -0.327 -0.272 0.905 124 43 22 0 0
-3.0594 1.2174 -12.3897 -0.332 -0.518 0.788 126 46 24 0 0
-3.0695 1.1998 -12.4109 -0.451 -0.540 0.711 127 47 26 0 0
-3.2937 0.7046 -12.5166 -0.517 -0.522 0.678 154 88 74 0 0
-3.3171 0.6446 -12.4982 -0.566 -0.188 0.803 145 79 62 0 0
-3.3853 0.5425 -12.6987 -0.704 -0.582 0.407 66 13 7 0 0
-3.4999 0.6517 -14.0089 0.250 -0.557 0.792 69 20 10 0 0
-3.5313 0.6137 -14.1326 -0.883 -0.469 0.015 69 17 3 0 0
-3.5371 0.6281 -14.2295 -0.908 -0.410 0.084 94 46 28 0 0
-3.1044 1.1848 -12.3849 -0.370 -0.587 0.721 131 50 29 0 0
-3.5248 0.6718 -14.0141 -0.282 -0.240 0.929 70 20 11 0 0
-3.5567 0.6667 -14.2539 -0.908 -0.410 0.084 97 46 28 0 0
-3.6082 0.7399 -14.9198 -0.501 -0.848 0.173 21 3 1 0 0
-3.8456 0.2510 -15.1569 -0.585 -0.746 0.318 85 33 21 0 0
-3.8745 0.2450 -15.3693 -0.512 -0.852 0.113 84 46 39 0 0
-3.9692 0.3532 -16.5028 -0.676 -0.300 0.673 82 52 44 0 0
-3.3310 0.7607 -12.5050 -0.215 -0.451 0.866 139 76 65 0 0
-3.5483 0.6969 -14.0244 -0.248 -0.537 0.806 72 20 12 0 0
-3.5764 0.7054 -14.2784 -0.892 -0.448 0.069 100 46 28 0 0
-3.8655 0.2722 -15.1201 -0.537 -0.583 0.610 88 35 21 0 0
-3.9406 0.2609 -15.6816 -0.537 -0.810 0.235 52 41 41 0 0
-3.9467 0.2594 -15.7248 -0.521 -0.847 0.108 50 40 40 0 0
-4.0030 0.3705 -16.5517 -0.708 -0.165 0.687 79 51 46 0 0
-3.2366 1.0423 -12.4527 -0.310 -0.345 0.886 126 45 24 0 0
-3.6003 0.7124 -14.2289 -0.702 -0.683 -0.200 102 48 31 0 0
-3.6042 0.7167 -14.2745 -0.768 -0.640 -0.017 101 45 28 0 0
-3.6316 0.7675 -14.6612 -0.579 -0.801 0.151 65 25 18 0 0
-3.6377 0.7646 -14.7003 -0.579 -0.801 0.151 75 29 23 0 0
-3.8262 0.4259 -15.0587 0.082 -0.945 0.318 74 22 9 0 0
-3.9659 0.2843 -15.6909 -0.271 -0.892 0.363 49 45 45 0 0
-3.3232 0.9036 -12.4254 -0.462 -0.567 0.682 125 44 22 0 0
-3.4291 0.6793 -12.5144 -0.428 -0.237 0.872 153 77 56 0 0
-3.4654 0.6215 -12.6081 -0.739 -0.669 0.071 49 5 1 0 0
-3.4639 0.9678 -13.7437 0.176 -0.672 0.720 20 2 4 0 0
-4.0642 0.5235 -16.9886 0.458 -0.883 -0.099 135 131 131 0 0
-4.1260 0.3591 -16.9293 -0.682 0.445 0.580 161 162 162 0 0
-3.4629 0.6806 -12.5391 -0.553 -0.800 0.233 175 99 68 0 0
-3.4810 0.6362 -12.5350 -0.390 -0.367 0.845 142 65 13 0 0
-3.4927 0.6131 -12.5504 -0.390 -0.367 0.845 98 33 6 0 0
-3.4894 0.6395 -12.6116 -0.405 -0.894 0.194 47 5 1 0 0
-3.4955 0.6353 -12.6445 -0.469 -0.825 0.317 56 10 3 0 0
-3.6430 0.7614 -14.2073 -0.121 -0.977 -0.174 79 26 11 0 0
-3.6335 0.8310 -14.3615 0.415 -0.883 0.218 104 48 27 0 0
-3.6822 0.8107 -14.6744 -0.704 -0.669 0.241 69 26 16 0 0
-3.7111 0.7855 -14.8172 -0.607 -0.753 0.253 24 2 2 0 0
