ply
format ascii 1.0
element vertex 684
property float x
property float y
property float z
property uchar diffuse_red
property uchar diffuse_green
property uchar diffuse_blue
end_header
0.79665441298377 2.0719185221613694 -12.709491260029509 145 114 102
0.7548492286036075 1.9149316751934968 -12.631401811528814 114 65 52
0.7296361996763181 1.8204766881719943 -12.59725853828262 110 54 43
0.6990714161540642 1.7058429480301003 -12.548406750393152 112 53 42
0.7001709004115082 1.7111439253169731 -12.617945661962956 114 51 38
0.6991542690302436 1.7078918839988537 -12.648609963656433 118 55 40
0.39212263418426785 0.5643465922270154 -12.61742170560208 125 52 35
0.37951479046170955 0.5173467451764822 -12.613740950789259 125 52 34
0.37098131367879317 0.4857205155031279 -12.62190541640603 130 56 37
0.36441418516640867 0.46151420497031825 -12.635808985189197 128 52 34
0.3562922771317566 0.43143968114554276 -12.645098183797037 127 51 32
0.3481819936546866 0.40140820906482677 -12.654374507298101 128 53 34
0.34175289792046304 0.3777213531763213 -12.668600041373747 127 52 33
0.3440839784340265 0.3870997162967642 -12.708918718505705 126 51 32
0.33232072704628735 0.3432788157747009 -12.707237783011749 127 50 31
0.31475076123492074 0.2775366117181788 -12.688036162410883 126 49 29
0.31718869969903585 0.2873202092936795 -12.728782509712875 128 51 31
0.3005015131964097 0.22490623506711138 -12.711990765698125 128 51 31
0.2703831811073898 0.11178234503147699 -12.654377765651116 125 48 28
0.27266494417993803 0.1209755472982641 -12.694606394803966 124 47 27
0.27488315263517804 0.12993112911052318 -12.734776175148681 123 46 26
0.2574687348961202 0.0647611470670224 -12.715180455972657 124 47 27
0.2497038290217295 0.03602306784392706 -12.724896434234747 123 46 26
0.22975633568799436 -0.03871794765708181 -12.697182328781706 122 45 25
0.23144471508948028 -0.031761800564277465 -12.735797043757051 123 46 26
0.21978926202580995 -0.07519473955489442 -12.733347801502141 124 46 26
0.2169411041033784 -0.08536867163559325 -12.758049628089994 120 42 22
0.2328288887099439 -0.024782094425761514 -12.840967070517749 120 42 22
0.23018211114655385 -0.034190958841888275 -12.866554229737936 120 42 22
0.22529612448389003 -0.05205646799141039 -12.88519722021093 120 42 22
0.16460982820390435 -0.27893785022364437 -12.829861191978676 119 41 21
0.14966761629162617 -0.3347995817154805 -12.816300934793759 118 40 20
0.14467160396400547 -0.3530881177610885 -12.834170835621524 119 38 20
0.14381310286964788 -0.35574456934804566 -12.865232923646698 118 39 21
0.14334141804264267 -0.35693809940465204 -12.897613364226185 118 43 26
0.12948710104581074 -0.40869554042603706 -12.887180642434299 117 45 26
0.10252140748737837 -0.5088226357485661 -12.9021248659804 79 28 18
0.11532376246209197 -0.45985089280109914 -12.97764229945658 60 21 12
0.1268513336476964 -0.4156909545932752 -13.04935441916264 55 23 18
0.13086581384633011 -0.39992061105274956 -13.09687506975746 48 26 22
0.12541125926381036 -0.4199362182911148 -13.113591769198669 42 31 31
0.10341835774777342 -0.5024627112968485 -13.0760372879992 40 32 30
0.09696999908669213 -0.5262376573353222 -13.089319856059046 41 34 32
0.06847501407237178 -0.6297424495172255 -13.237570176557995 32 22 21
0.07110087778637109 -0.6192056668625083 -13.281401525692297 34 24 23
0.05742938126259589 -0.6702935912922205 -13.270330953278833 37 25 24
0.0634425338640201 -0.6469447824648533 -13.325790596766435 34 20 19
0.059403341075624505 -0.661607828740232 -13.347315436495276 36 21 20
0.05602761778872156 -0.6737612265533377 -13.371126679993878 39 24 23
0.05662931388502801 -0.6708708644842103 -13.408571003986385 37 25 24
0.04462917256455068 -0.7156423311477118 -13.402935875823456 41 30 29
0.04079455077701599 -0.7295302840304538 -13.425239411059882 36 26 25
0.036836784314904225 -0.7438835316658468 -13.447148160271006 49 42 39
0.029414291916760815 -0.7713427328688551 -13.457103436900951 101 95 91
0.027397610233111935 -0.7783525193187604 -13.485764080809222 126 120 114
0.025972736650771155 -0.7831222330089238 -13.516550050733247 117 111 104
0.02391131751393827 -0.7902988428596371 -13.545194757535247 112 104 98
0.021396360239966494 -0.7991902676072034 -13.5723193696808 116 108 101
0.017759017996574977 -0.8123274596142496 -13.595563479898122 111 103 97
0.012627185294568744 -0.8311190155947825 -13.613583415206158 114 106 99
0.007213442086613009 -0.8509772612888726 -13.630612774578182 105 98 92
0.0003829583570880146 -0.8761968126413144 -13.64262604299647 100 94 89
-0.007088662766664422 -0.9038432283794373 -13.652332591289957 95 90 84
-0.0041086723670131775 -0.8919352844172925 -13.699205705781655 87 82 76
-0.013538313776666921 -0.9269920192198047 -13.701940946042345 83 74 69
-0.026140383233985043 -0.9740577392561134 -13.693230202284353 99 69 50
-0.042023646668312375 -1.0335458760108676 -13.672582815631797 144 84 50
-0.05416413178637236 -1.078870238980608 -13.665195739476935 146 69 35
-0.06487637888527487 -1.1187904959254515 -13.662824639108527 135 59 33
-0.07451960339334662 -1.1546657498879798 -13.664212609688686 130 64 44
-0.08600197155807177 -1.197505366864597 -13.658825446624647 136 81 62
-0.0889357966994766 -1.2079819958647438 -13.684461152036342 141 85 66
-0.09841214989869274 -1.2432293527594886 -13.686233474782327 136 77 57
-0.10923001579195346 -1.2835578082301407 -13.682998475272635 137 75 54
-0.12591361657679445 -1.3460996058382655 -13.658079215213803 139 77 56
-0.1079659533356383 -1.275587687922486 -13.87093115939027 130 49 14
-0.11762040835223231 -1.3115117131761487 -13.871918266510239 127 43 7
-0.12878236725951586 -1.3531474273031918 -13.86717001519968 120 37 2
-0.1340069912388797 -1.3722951289341694 -13.884573561897305 105 29 5
-0.14039548853255357 -1.395851701989037 -13.897598426304496 82 12 2
-0.1449920168058325 -1.4126201435395362 -13.917363196514776 79 14 3
-0.14808588402501677 -1.4236954681265432 -13.942832051323204 84 18 8
-0.1494649634142553 -1.4282731193461764 -13.97486052783799 86 20 8
-0.15014814766832818 -1.430212577296186 -14.009626316192124 84 19 7
-0.1528799870175095 -1.439912780951496 -14.036671475301247 87 23 10
-0.17085941336467259 -1.5027878527324798 -14.270293191839189 100 48 34
-0.16178235289774712 -1.467712085985017 -14.34422064889565 100 49 32
-0.16848311192988907 -1.4924453050267221 -14.356429605811023 114 61 42
-0.17040351153966227 -1.4990554297218823 -14.387463767539643 105 53 32
-0.16860675978234796 -1.4915706908539699 -14.43328346496996 114 61 41
-0.170061234952247 -1.4964106319887582 -14.466370690719444 110 55 38
-0.16929448742015651 -1.4928263722895867 -14.508389174550686 102 51 36
-0.1657877569086077 -1.4788493664450817 -14.561487945035566 99 50 35
-0.1618976659324467 -1.4634149028848276 -14.616331172878297 101 49 35
-0.15689211861087315 -1.4437462627006719 -14.675872589369058 113 57 39
-0.16631115081366166 -1.4787813436336377 -14.67758065833079 94 50 38
-0.06167683606660468 -1.072516016416265 -15.64118115050902 6 6 8
-0.07159246613216763 -1.109410710911786 -15.64226160923863 15 15 17
-0.08374454086519445 -1.1547964446899641 -15.633825259881878 28 27 33
-0.09080631920690019 -1.180861789868886 -15.646717034878478 39 39 44
-0.09868897991464243 -1.2100440285755134 -15.656099840931848 35 35 40
-0.10738175588221655 -1.2423028240027971 -15.661988272938691 21 19 23
-0.11306796443164968 -1.263147781903461 -15.680607158256525 9 6 6
-0.11742095272926334 -1.2789305490790177 -15.704922088883169 9 5 5
-0.1392087102506261 -1.3609155856151949 -15.654572627100718 10 5 6
-0.13972421860498985 -1.3621285713141784 -15.695225461923359 14 8 12
-0.14120824715969116 -1.367017327439397 -15.73183636328903 16 11 16
-0.1453048920195088 -1.3818265059081671 -15.757261557033205 23 11 13
-0.1533611429287245 -1.411673804179272 -15.765560532026706 29 12 10
-0.1693644434631818 -1.4717073480371612 -15.739240125476861 13 6 7
-0.1881628660366994 -1.5423628388373816 -15.700461650800804 9 9 15
-0.20804800177333838 -1.6171523929237912 -15.65658829049938 10 10 14
-0.22923703910680526 -1.6969018714621784 -15.606622797683542 15 13 18
-0.23402994134385602 -1.7143663158598175 -15.628405415614466 18 17 22
-0.2525568836271215 -1.7840118076835845 -15.589589194688397 22 21 26
-0.26676191433962915 -1.8372414534176293 -15.569565983810442 29 28 33
-0.27553179719431053 -1.8698221379589874 -15.573448672634745 49 50 56
-0.28706456304672723 -1.9129035583638458 -15.564941977816238 51 52 56
-0.29427132943380085 -1.939547451489295 -15.575600376454803 56 57 61
-0.30922890289010474 -1.9956496364497083 -15.55148917693623 60 60 63
-0.31217662762179854 -2.006109061066292 -15.581094400602147 62 61 64
-0.31911640908867245 -2.031741248209282 -15.592776799466716 65 64 69
-0.3250765254295851 -2.0536501083432217 -15.608850405031303 52 51 56
-0.31275924465965255 -2.0060774040744445 -15.707786485094548 22 21 26
-0.3143767273100777 -2.0114727305322413 -15.743835865349821 29 29 31
-0.32122588143068653 -2.036756920822172 -15.756129297966359 35 36 38
-0.3306111776459215 -2.071684692950498 -15.756784840832527 51 52 54
-0.3373535262565237 -2.096564570371819 -15.76946412567596 71 71 73
0.7966628330878698 2.182985482479187 -12.74896670872023 188 171 164
0.7525402327023387 2.01627435719194 -12.664497165862894 120 75 67
0.7123449648443511 1.8644552294275165 -12.58999252206528 112 58 47
0.6909737323655458 1.784069315789889 -12.565765872964903 111 56 44
0.7054554801037908 1.8404908640854822 -12.671981435969055 115 51 40
0.6682633879866592 1.7000434876509187 -12.60436227194645 115 52 39
0.3446127379966095 0.49025002055962474 -12.58696171788824 126 53 35
0.3313778952038062 0.44066654197256305 -12.581084848602487 127 53 34
0.33314625068601234 0.4481101422841105 -12.619569862193268 127 51 33
0.3242670395630247 0.4150809794201269 -12.62650655612157 127 52 33
0.31923878867891897 0.39669018438947834 -12.644870772382852 127 52 33
0.3115422458771222 0.3681553132517008 -12.655257232685592 130 55 36
0.31024983385579175 0.363967742049752 -12.684820572763364 128 53 34
0.303314795837075 0.3383276656625167 -12.697473364513632 129 52 33
0.29011485059386044 0.28886573041015584 -12.691188368955856 127 49 29
0.2919137025134224 0.296434081055299 -12.730170388810723 127 49 29
0.2655928471701776 0.19707390072578512 -12.683903929357658 126 49 29
0.24618179194564904 0.12398297838550842 -12.658305452101635 124 47 27
0.24804773637041233 0.1318052398661873 -12.697434849689383 124 47 27
0.24749285906657792 0.1304231851297848 -12.72927801092678 125 48 28
0.24531130760955944 0.12285594638665476 -12.756209870244671 129 52 32
0.23784240926332978 0.09517852322337017 -12.766908939672675 124 47 27
0.23404075180432504 0.08145002302326354 -12.788900883885253 123 46 26
0.205700478468674 -0.02562472704761909 -12.734877665654395 123 46 26
0.19300934831016203 -0.07317486540936269 -12.729074410614526 125 47 27
0.1879435209309901 -0.09171765308293 -12.746905439548861 125 47 27
0.1941674138699827 -0.06730666399886065 -12.80003453018983 123 45 25
0.19473156387479817 -0.06442568985494468 -12.835629143854487 122 44 24
0.1620472405428528 -0.18805514656662492 -12.766781150047489 122 44 24
0.15767439553504725 -0.20396272073269017 -12.786716065975138 120 42 22
0.15357055866442404 -0.21811140879012747 -12.841361152529851 120 40 20
0.11930491395813392 -0.34778514101744396 -12.766286256992435 119 38 19
0.10292073595744844 -0.40941238481970554 -12.74772799062315 118 38 19
0.09653002096147789 -0.43300624897495243 -12.7609421764237 118 37 18
0.08948898172163422 -0.4590760302507375 -12.77204749075908 118 36 17
0.0890900561594532 -0.4598621170017241 -12.804498978477021 119 41 21
0.09746109212717435 -0.42725995732946487 -12.865353452948767 119 44 22
0.1000041337101314 -0.41683994028504046 -12.907595438541154 115 43 22
0.06320627721519556 -0.5547257774501411 -12.890101429030716 94 33 20
0.07467752688087814 -0.5103041544110658 -12.9617607700278 83 26 14
0.08458205943100316 -0.4718418378252096 -13.02859311311509 71 28 16
0.08382809972009309 -0.4739643240986675 -13.060597391112427 52 29 24
0.09202536351896717 -0.44199376206671204 -13.122269493761545 43 29 27
0.09895724314246124 -0.4148370769500058 -13.180008563204872 39 32 29
0.08412157618435878 -0.4705871052997157 -13.165629814709488 39 35 31
0.08372669388825527 -0.4713336256648537 -13.199207708502348 40 35 33
0.030254215216034108 -0.6720124347220731 -13.159452647783954 31 22 21
0.02846247158702142 -0.6780819467837 -13.188277175919513 32 22 21
0.023781710342089424 -0.6943978263698849 -13.242399795635702 43 32 30
0.022089229153746892 -0.7000847855455694 -13.271759933685889 33 22 20
0.01738304314303374 -0.717255738195651 -13.290877271561612 35 23 21
0.02004220558129388 -0.7063546972692976 -13.335288669635343 41 28 27
0.02039919110793531 -0.7042250321169181 -13.37193435865623 39 28 27
0.014585497801588687 -0.7256140489484446 -13.387388522937467 40 30 29
0.007155539446996428 -0.7531644581742363 -13.39723571278365 43 35 33
0.0015253219930786432 -0.7738548233728775 -13.413290453715096 73 69 65
-0.0007290122073466687 -0.7816750345783241 -13.441097443803656 101 101 95
-0.004667087416533988 -0.7959133977924715 -13.463084872287816 119 120 112
-0.008155924904128531 -0.8084382654545132 -13.48667443390317 115 116 107
-0.00909627875315655 -0.8112447210395484 -13.519256575705695 110 110 103
-0.012356450138829578 -0.8228954095724301 -13.543753483995658 115 115 108
-0.01593607497660421 -0.8357634190926406 -13.567163968762674 112 113 106
-0.02007738632706846 -0.8507727803736485 -13.588619613144886 109 108 101
-0.024445335711597016 -0.8666459990520785 -13.609294253336149 106 104 97
-0.03190510059486562 -0.8943116287462765 -13.618964606997734 104 104 96
-0.03931243210945912 -0.9217782191431292 -13.628778038097021 100 101 94
-0.02812494851178804 -0.8783126791981024 -13.705240613093011 96 96 90
-0.03949196560034962 -0.9208827131271606 -13.700918841697126 100 99 94
-0.05123045782076274 -0.9648727277827573 -13.69512997602661 98 84 73
-0.06541077761643632 -1.0181821260347483 -13.68037048922659 110 69 50
-0.07681862196001266 -1.060916980309261 -13.675484199634528 142 85 61
-0.08821046076701666 -1.1035935759902973 -13.67052648741915 150 93 72
-0.09991239636617921 -1.1474563381980092 -13.664306905440764 130 76 58
-0.10771354674205003 -1.176435575925927 -13.672230788152472 121 70 54
-0.11896072929487578 -1.2185678262426958 -13.667447848193973 127 75 59
-0.12272685740047495 -1.2321495420855966 -13.690085422598331 133 76 58
-0.12890136062453017 -1.2549232819028644 -13.70386082287869 136 76 56
-0.13704577289261222 -1.2852170227571875 -13.710319939386315 140 78 56
-0.12720924382590537 -1.2452667070600159 -13.85738636414083 139 59 23
-0.13675302802496714 -1.2809007674127209 -13.858726147405042 134 50 12
-0.1432022264146382 -1.304720449534357 -13.871605159090045 128 48 7
-0.15341659745928582 -1.3429185622667035 -13.870264148023898 121 48 9
-0.1606663939382924 -1.3697976470144004 -13.8800236825506 101 30 6
-0.16761991820209365 -1.3955461707897188 -13.89086335312889 87 16 6
-0.17022579125231663 -1.4046901793611326 -13.91820199150241 88 20 6
-0.17083346767573482 -1.4062005280422172 -13.953223239640865 87 19 6
-0.17254746919115593 -1.4119345989289949 -13.984117273083516 84 17 5
-0.17325221114361922 -1.4138114297344053 -14.018964970671828 81 17 5
-0.17331927503829392 -1.4132498415436654 -14.056370952959682 89 28 16
-0.18043016813724178 -1.4362963253768948 -14.218737860246074 95 52 36
-0.1827404044715435 -1.4442937742379245 -14.248002835451786 99 52 38
-0.1894486224895462 -1.4674264075982855 -14.337101610896472 104 53 36
-0.18840594621996742 -1.462599933262962 -14.379942902481424 115 62 44
-0.19025375764554586 -1.4688208391203412 -14.411444180374502 109 56 35
-0.18801990687768844 -1.459434257078744 -14.459302516888393 116 60 42
-0.19680102395914845 -1.4921608178164387 -14.463293723540122 107 52 38
-0.19068360912383064 -1.4679189602722333 -14.526958266097568 102 49 34
-0.1887686600316858 -1.4597419583165951 -14.573991729990624 98 50 34
-0.18837471308423193 -1.4573780719726726 -14.615063544572859 108 55 38
-0.18438437711340971 -1.4412562221776257 -14.670827102577958 113 61 41
-0.1924886148802749 -1.4713901544908525 -14.677732254769362 74 40 32
-0.08435498215833825 -1.0468736771613605 -15.619265882559084 21 20 24
-0.10391735925731127 -1.1208363725036525 -15.579559916607565 40 39 44
-0.12057600913777033 -1.1836892498590297 -15.551791048704139 46 45 50
-0.12453419194628346 -1.1979189935237917 -15.577635977588839 45 46 50
-0.1327995446775294 -1.2286407862688682 -15.585194793117719 43 44 49
-0.13339483730963209 -1.229991693985152 -15.62542793494459 40 41 45
-0.1462164146690228 -1.2781633960007985 -15.613448193200249 34 34 38
-0.15201181374899986 -1.2994285849862441 -15.631456881089417 30 27 31
-0.15556748488225836 -1.3121149837583 -15.659109117399556 26 23 27
-0.16245907039540097 -1.3375786902959588 -15.672406540336588 29 25 30
-0.16271830179957658 -1.3376354051162362 -15.714408284664263 29 26 30
-0.16385581439104757 -1.3410538836377528 -15.752734413232869 27 24 29
-0.16202746649845934 -1.333106297162038 -15.804106097650937 51 23 20
-0.18381614948392033 -1.4156481052681649 -15.752431788676127 83 32 21
-0.195462905181377 -1.4593352092266656 -15.74480577740426 48 16 13
-0.20769882428866415 -1.5052835424817834 -15.734432675532787 13 4 10
-0.2297768154322395 -1.588956026793178 -15.680474407716831 10 9 14
-0.2527663490853571 -1.6761317356413619 -15.62204974321516 11 10 14
-0.26478685525156154 -1.7212715837807107 -15.611839283599519 14 12 17
-0.28360974748873846 -1.7924916146143577 -15.571182834988566 21 19 24
-0.30340588289659776 -1.8674504538185142 -15.525828735247853 21 19 24
-0.30937690952858543 -1.8894119156097577 -15.541995710625491 34 35 39
-0.3227266482751123 -1.9396658494609964 -15.525014250106864 41 42 46
-0.3332728173959547 -1.9791737843713433 -15.520451131531988 54 55 60
-0.33813586049765076 -1.9968904807669876 -15.541429060431595 49 49 54
-0.3486259538540937 -2.0361875707999078 -15.536925875118737 55 54 59
-0.35226529562791775 -2.0492116438740107 -15.56342605886805 63 62 67
-0.3595205193467066 -2.076104322645217 -15.573493541796859 47 46 52
-0.3398755686732595 -1.9998068159058313 -15.70651968083148 14 15 20
-0.345237868293335 -2.019431522244573 -15.725545248043417 25 26 29
-0.3513716898072843 -2.0420161806373063 -15.741027572994128 34 35 37
-0.36383276799934183 -2.0888787367123927 -15.727299330502786 53 54 56
-0.36796953431749757 -2.103802713231775 -15.751905218941303 87 87 89
-0.25123343045520774 -1.6437661481662644 -16.84885016094453 109 108 106
-0.251815152115511 -1.644969667125471 -16.893535810987082 111 110 108
-0.34924626979281714 -2.01519692490841 -16.610418831857956 128 126 126
0.7496747692452452 2.1165067484388613 -12.696456270521983 148 122 115
0.7068281624381592 1.9536570544938945 -12.614616929407088 114 64 55
0.6849179471203931 1.8734374245025478 -12.689906984724916 115 54 41
0.6378435380100917 1.6943805858238203 -12.594691619793583 117 54 40
0.31927929965600854 0.4992992076301732 -12.588235929517435 126 52 35
0.3119590228706408 0.47214346143121055 -12.599817001740053 127 52 34
0.3036910288066019 0.4413581801154889 -12.608534162469379 127 52 33
0.29620859256608756 0.41357951791883885 -12.619553012608542 127 52 32
0.2883262838100116 0.38426865786706355 -12.629333593443587 126 53 32
0.2861814187300804 0.3769282766659794 -12.656353051355271 127 52 33
0.2835090256844739 0.367569082338119 -12.681835692055579 129 52 34
0.27967145024369877 0.3537485110572174 -12.703835541823107 130 52 33
0.27703743011850746 0.3445385237975058 -12.729520305587549 128 50 30
0.2660534310945861 0.3033456772008707 -12.729803690861122 128 50 30
0.2518907665193444 0.24997376374259694 -12.720269753868918 128 50 30
0.22134059699742692 0.13381862360902375 -12.660335648860002 127 50 29
0.21615647205790678 0.11483271279805773 -12.677945489869693 127 50 29
0.2225264188314835 0.1401149466941085 -12.731189658630786 129 51 30
0.21740134795364607 0.121358166966969 -12.749091722316454 129 52 32
0.21656521019865416 0.11903606554866464 -12.780302190341871 125 48 29
0.20399986793736335 0.07176868199482911 -12.775103003753348 125 48 29
0.19806530103376585 0.049909194508458654 -12.790461955054209 125 48 29
0.19632334488955472 0.044117902145107024 -12.818930573723323 125 46 28
0.1784025396582567 -0.023682152766923537 -12.796685080581153 124 46 26
0.17166421170587953 -0.04862523928127782 -12.809408813903133 123 45 25
0.1469943463416581 -0.1423058544296616 -12.765494066499407 122 45 24
0.1487776741456608 -0.1345865819965537 -12.804981963433423 122 45 24
0.15543666687013613 -0.10817166307574677 -12.860085016735177 121 43 22
0.11778755373385397 -0.25162913665615605 -12.774288654074162 120 42 21
0.1116932002525648 -0.27411307546857167 -12.788685347389045 120 41 21
0.10076679576790926 -0.3151259642829478 -12.787585855344645 120 41 21
0.09201074563911504 -0.34781885266587764 -12.793353616258763 120 41 21
0.0815469452499864 -0.38706268611814476 -12.793552023540052 117 38 18
0.06632152228427346 -0.4445710944239165 -12.77826202209379 117 36 17
0.06395005676353538 -0.4527831465185592 -12.804449351766895 117 38 17
0.06397583254933314 -0.4517985743885218 -12.838484726154597 120 41 21
0.06269481514986341 -0.4558242307005136 -12.868359623110354 119 42 23
0.03345182164266203 -0.5653423657715644 -12.874890049406371 109 41 24
0.02787451860273049 -0.5858512822393891 -12.890651433800164 107 37 21
0.03428821054453901 -0.5603479410092707 -12.946081428449665 92 32 14
0.03699720603819756 -0.5490554789185484 -12.989443733358382 71 29 16
0.046695369997749925 -0.5109362438903089 -13.056222604497599 50 26 18
0.05965557412611888 -0.460289633341576 -13.134182533453249 42 30 25
0.04821802532493136 -0.5032787915215957 -13.130821340947474 38 33 29
0.02539227608279826 -0.5899849731479136 -13.089102240203875 38 34 31
0.013893164509634737 -0.6332196898760483 -13.08517982523971 39 36 34
0.0024345777941834346 -0.6763020432512086 -13.081271108375464 41 38 37
-0.004636774868345572 -0.701635443129633 -13.126916681577114 35 27 27
-0.007521100214970877 -0.711799731290955 -13.15201024046247 30 21 20
-0.010047104452242106 -0.7205867973831932 -13.178375829815778 33 24 22
-0.010667270678806462 -0.7220533614887872 -13.211328248455674 47 36 34
-0.011960354973384657 -0.7261018952949261 -13.242061213089656 36 25 24
-0.014363916920026476 -0.7344135280421744 -13.269046284403203 39 28 26
-0.016931251834322758 -0.7433527134424756 -13.295523394694701 45 35 33
-0.017192170903140847 -0.743430599366877 -13.330053838910384 56 47 45
-0.018943713050704858 -0.7492322821656581 -13.359502477653146 58 51 49
-0.02706478850234162 -0.7795033717903168 -13.366805532631801 90 84 81
-0.03091189837828745 -0.7933545519502836 -13.38900295579283 110 105 101
-0.032617087826615876 -0.798974698205269 -13.418745634715194 118 115 109
-0.036888238031346665 -0.814453215498836 -13.439532771834848 117 116 107
-0.03935896854138021 -0.8230121528666405 -13.466695712859172 118 116 108
-0.03662930591608382 -0.8115830097223578 -13.512325794758176 119 117 108
-0.04167553656098022 -0.8300365108213361 -13.530517434260837 118 116 106
-0.0454991660044235 -0.8437904020006908 -13.553068113005892 115 113 104
-0.048311665500737844 -0.8536565950808237 -13.579261104598489 115 114 105
-0.051622098409721096 -0.8654356484882939 -13.60372353012559 115 115 106
-0.059847705963139264 -0.8961106801664354 -13.610572370983867 112 112 103
-0.07429319666211587 -0.9507022513636416 -13.594951318458921 106 106 97
-0.0754456364885312 -0.9541844935231767 -13.627169443590631 104 102 92
-0.08001888786889899 -0.970819062458645 -13.647079120518534 99 96 86
-0.08487015747877114 -0.988522403796944 -13.665994258273791 105 95 86
-0.09395774418002811 -1.022518487707015 -13.669476449093366 116 91 80
-0.10606068119142331 -1.0681146566550668 -13.66185323076634 148 108 92
-0.11291166505197414 -1.0935125193255457 -13.67334220534789 157 114 97
-0.11992284088272243 -1.119527491405683 -13.684208648076483 142 99 83
-0.12948554618143704 -1.155359563756483 -13.685626586824096 133 87 72
-0.13741174084982477 -1.1848976768580597 -13.693005995313474 129 83 69
-0.11141377835710697 -1.0829377892683754 -13.863330053150232 133 71 53
-0.12840182116443044 -1.1473411167920124 -13.837174543176609 145 81 58
-0.1349727558561693 -1.1716600095361915 -13.849756940806001 140 72 45
-0.14026950204450728 -1.1910754278629287 -13.867095660386816 135 57 23
-0.14772717374099842 -1.218808581279144 -13.876298244872785 141 58 19
-0.1574680916806619 -1.2553322183625504 -13.876830649498082 139 58 15
-0.1639095231190646 -1.279156249269131 -13.889762025085625 138 65 22
-0.17168143734247998 -1.3081033423957358 -13.89761386512083 118 50 19
-0.1749535087109495 -1.3197260014631595 -13.922555559083627 90 18 2
-0.19093044433031903 -1.380269094964631 -13.898992856087641 91 18 4
-0.19263187063868425 -1.3858446720265203 -13.929902922278107 89 20 5
-0.1941556047037154 -1.3907337911233242 -13.961577590231975 85 19 6
-0.195682820058658 -1.395634075422973 -13.993324817833216 80 16 4
-0.195668761481943 -1.394595418056606 -14.03111818679514 79 18 7
-0.19710277656194886 -1.3991317103768042 -14.06341756314816 94 35 24
-0.20616788281001486 -1.4330637275668003 -14.066123284506892 97 46 34
-0.21563173242151557 -1.4685342301185091 -14.067187363838617 98 52 39
-0.20943263766476994 -1.4426614137092937 -14.167636105349331 99 58 42
-0.20602976098248815 -1.4275445224002636 -14.257830800563113 100 53 38
-0.19993278223425492 -1.403038225701562 -14.320579519215947 102 53 37
-0.19550965924513375 -1.3849768285223059 -14.376950426170058 101 51 36
-0.20883976806802607 -1.4353452148469046 -14.362842094235317 107 55 37
-0.20902443646623903 -1.4350409057827829 -14.401059546972533 116 62 43
-0.21048908127128052 -1.4396682662348415 -14.434272086337444 114 58 39
-0.21082586318050733 -1.439944408929489 -14.472110647257036 116 59 42
-0.21204606590850683 -1.4436239325981992 -14.506509630486814 105 51 37
-0.2143476651576155 -1.4514711213409601 -14.536637572122627 103 50 35
-0.2125473649580898 -1.4434965459110716 -14.583471616224404 100 52 36
-0.2158812672283652 -1.455320133599085 -14.609601436020757 114 58 40
-0.19580520432478155 -1.3768423541575086 -14.731263296840229 102 58 41
-0.2064103610458632 -1.4167058203144478 -14.728034179855282 56 33 30
-0.08555440985543727 -0.9405797336765396 -15.602161495134968 19 17 21
-0.10730274457791 -1.0234280880612197 -15.553408995905524 24 23 26
-0.12900629491735893 -1.1061140267556482 -15.504443077788174 39 39 42
-0.1523519598802756 -1.195151576955901 -15.448111476227613 45 45 49
-0.16216155228605977 -1.231926312937941 -15.448892829820977 48 48 52
-0.15582937813970377 -1.2052461267358012 -15.56115569997755 44 46 49
-0.16351957022039132 -1.2338335054406349 -15.571046091525204 43 46 48
-0.1629562009199994 -1.2305370641102682 -15.616404711381145 43 45 48
-0.1835693169545609 -1.3090525230919656 -15.570518237682386 41 41 46
-0.18717825388502352 -1.3218760476383462 -15.597863195629865 38 37 43
-0.18937012100717165 -1.3292223082164343 -15.631415430814037 36 35 41
-0.1910445980154687 -1.3345667116308002 -15.667312174525385 34 32 38
-0.19089934307617273 -1.332875303450237 -15.711263424661515 31 31 35
-0.19147669594490546 -1.3339729436204628 -15.752201890812387 28 28 30
-0.1932292647642122 -1.339609948785017 -15.78811072337286 55 22 17
-0.21722020273101816 -1.4312160684341926 -15.72609841520038 119 49 30
-0.2256785522628706 -1.4627816431545906 -15.732274759310952 95 44 36
-0.23731501459453153 -1.5066376829026407 -15.724284087192473 33 15 18
-0.2516627479417175 -1.5609822575572228 -15.704075171010027 10 8 13
-0.27541709170818995 -1.6517112181368123 -15.641668424188515 11 9 14
-0.29202539544470363 -1.714814375623142 -15.610751750863093 12 10 14
-0.3071192862478289 -1.772067484281611 -15.586335883913788 14 12 16
-0.3156212154226563 -1.8038271383926716 -15.591338662222682 16 14 18
-0.3416701192630762 -1.9034732786732604 -15.517031856650508 22 21 25
-0.3516355579499897 -1.940905742622265 -15.515008809047721 36 36 40
-0.3471491536437643 -1.922420844944658 -15.578514873440419 48 47 53
-0.36665819900143415 -1.99678625967774 -15.532963798323381 48 47 54
-0.3788300492094605 -2.042765612361256 -15.520560657103498 55 54 61
-0.39385090088690955 -2.098651083694345 -15.538068450744166 32 31 38
-0.3705237586742729 -2.007216297080583 -15.68895640371953 12 13 16
-0.3987054326992707 -2.1140462618804454 -15.645931276047609 38 39 40
-0.39172219130156494 -2.0858646409363235 -15.722135341814763 70 70 72
-0.39630102927368216 -2.10245034653689 -15.744721356686355 97 97 99
-0.3989006109383455 -2.0825192320665398 -16.882517946932026 163 163 163
-0.4640232295115081 -2.3278863202926674 -16.84048439461644 187 188 191
0.7564285255811919 2.2547525154181933 -12.754773327279436 192 179 172
0.7062165313349009 2.0625875691968627 -12.652845328803185 119 84 75
0.6635933440322013 1.8996031675137797 -12.570835731909261 113 61 49
0.30377764136904584 0.5452800504005388 -12.585439546157936 125 52 35
0.2898004434050174 0.49240066544198413 -12.577148660844273 127 52 36
0.2837495512237105 0.47008504366217885 -12.592464793952484 130 54 36
0.2733909443094056 0.431154871551775 -12.594818669429976 129 54 35
0.271012508151232 0.42300243126044723 -12.621145472891712 127 52 31
0.26225036364798315 0.3902271851844743 -12.628220710590648 125 52 30
0.25457509930625477 0.3616429031352961 -12.638531836384765 127 52 32
0.24575520467485745 0.32864145483295815 -12.64531969706459 129 53 34
0.2397063772206811 0.30632945457971505 -12.660499650525107 127 50 31
0.23184753219877563 0.2770331592631976 -12.670128645938544 126 49 29
0.22048949898221792 0.23423298051618158 -12.668973733656848 128 50 30
0.21194373091740637 0.2022820989685643 -12.676366085465816 129 51 31
0.18771924986116462 0.1108448093509935 -12.668891477249733 128 50 28
0.1916130306291055 0.12690153594894582 -12.71467138783121 129 51 29
0.18935518125879813 0.1192172445596702 -12.741461207531465 132 54 34
0.18631955987893467 0.10853214530055322 -12.76587797383113 129 52 34
0.16906975076253272 0.04297159989109822 -12.745806925857295 126 49 31
0.16193547962261223 0.016460267292999653 -12.757299186239628 126 49 30
0.16464320696182422 0.027950478405805335 -12.799772801365528 125 47 29
0.14852936243614256 -0.033235180404354914 -12.782908493713485 125 46 27
0.14366188841297678 -0.05099536490184864 -12.801493013512243 125 47 25
0.1369588154608905 -0.07584459434248014 -12.814250065259579 125 49 26
0.12892441999468995 -0.10583672193628502 -12.822736030094733 124 48 25
0.11944485517044612 -0.1414126504898885 -12.826549185785064 121 43 21
0.09796159422559003 -0.22336097855623738 -12.791782859857609 120 42 21
0.08616547070068936 -0.26789465283719327 -12.787872902045095 120 42 21
0.0668857477739837 -0.34134538723847374 -12.759694688200991 121 43 23
0.06355617780871281 -0.35317534077949553 -12.782862416061292 122 44 23
0.05403717093554561 -0.3889209978604242 -12.785979596634412 116 37 17
0.04255928251865515 -0.4322390980522508 -12.782639073975682 115 34 15
0.025377673279355806 -0.4976041222572736 -12.760558938527968 118 37 18
0.03225966004644776 -0.46997006212519477 -12.817037050594816 122 42 23
0.03491259914589695 -0.4586754480126478 -12.859861244659424 120 42 23
0.037819605400151834 -0.44639405642014207 -12.903674866622106 118 41 23
0.03646702439565597 -0.4505749661213123 -12.933576530378943 114 39 22
0.030299200215413435 -0.47337022242741345 -12.947601702428233 113 39 22
0.02668234173128914 -0.486302727988833 -12.970085306636303 115 41 24
-0.01089341960836987 -0.630546217006617 -12.879433726197394 111 42 23
-0.007175907137300985 -0.6151242487831139 -12.926162125614537 98 37 22
0.00033353582549922045 -0.585032036382807 -12.985777710902187 83 30 18
0.009989552879529962 -0.5466298595929775 -13.052861930259262 73 31 24
0.012711570801337668 -0.5350393405771632 -13.09686052997684 64 37 30
0.015516695478264841 -0.5231224934746574 -13.141299124222217 46 31 26
-0.027178111055428555 -0.6872218141549249 -13.031569734209008 38 32 31
-0.0036883010726553866 -0.5952818766916668 -13.146243030063031 38 36 38
-0.041359070368762296 -0.7389054664703725 -13.087651923356596 40 35 34
-0.042315418143061834 -0.741541001410476 -13.11930769453959 36 31 29
-0.04486485475258606 -0.750339359492898 -13.145566565115423 34 27 24
-0.04513089669146653 -0.750298293034148 -13.179763258334594 37 28 26
-0.043722947139713586 -0.7437745177059014 -13.219857728084687 57 48 46
-0.046770453557546166 -0.7544939555539925 -13.244615904889695 88 80 78
-0.04582174704703257 -0.7497411482773089 -13.283338307431713 92 86 83
-0.04835994739280469 -0.7584846720256495 -13.31000802138933 99 94 90
-0.050902198952620825 -0.7672421558839702 -13.336720152020945 108 104 100
-0.054974864722974415 -0.7819241652355764 -13.358111361186523 122 118 114
-0.06430462574923945 -0.8169642332063205 -13.36100048051398 116 113 107
-0.07019662454420361 -0.8386925604986866 -13.375956969721207 114 111 104
-0.06883775679027604 -0.832336678459912 -13.416605932905862 120 117 108
-0.06938858169857443 -0.8333739261387709 -13.45060399244888 123 120 111
-0.07147588527986537 -0.8403603196581244 -13.479222540203057 125 122 113
-0.07768688458915918 -0.8633208118243685 -13.493160019315532 121 118 109
-0.08165920352925626 -0.877607990221744 -13.515108987637433 120 117 108
-0.08478491733325533 -0.8886138116434728 -13.540132168662199 122 120 111
-0.0885839626925542 -0.9022275140047853 -13.56277214752219 123 123 113
-0.09188913101453378 -0.9139261961227634 -13.587231810751856 114 114 104
-0.10943815247817335 -0.9808306884446472 -13.560032553987389 110 110 100
-0.11051686824972284 -0.9839012640077174 -13.592531012388939 114 113 103
-0.11476774452857907 -0.999265984511073 -13.613537945877473 115 116 105
-0.11788635790845903 -1.010240406719185 -13.638714109036638 125 121 111
-0.12341070405117893 -1.0305408198222183 -13.65510168923865 130 117 105
-0.12998972051495583 -1.0549308607057144 -13.66759948149169 145 121 107
-0.14151177600321763 -1.0984900339465673 -13.661806713101873 159 129 116
-0.14678350182172983 -1.1178135196414445 -13.679039343763204 153 120 107
-0.15291894919828497 -1.1404869333607621 -13.693062492859504 143 104 92
-0.15249626927002513 -1.1377229908593307 -13.731513239831617 130 90 79
-0.14497805054627055 -1.107430357730185 -13.796617900071478 132 87 72
-0.14798925003350605 -1.117978076015529 -13.822524460417196 128 67 50
-0.15273183973697146 -1.135241762052079 -13.84197105852002 136 66 41
-0.15570722389183023 -1.1456479515575646 -13.868096614927051 140 61 26
-0.17172791146525035 -1.2066752599054578 -13.844922614135491 133 50 7
-0.178328365056992 -1.2311511298779898 -13.857252676528477 132 53 4
-0.1860857367098685 -1.2601181304438374 -13.86515111008377 137 69 23
-0.19287302467453116 -1.2853213711685942 -13.87669715752356 125 59 25
-0.19900910207585154 -1.307997691023572 -13.890702794962305 94 20 4
-0.20301823527287532 -1.3224172451614882 -13.912856279340886 97 20 2
-0.212807724341173 -1.3592787144772451 -13.912779288547998 101 27 6
-0.21439813369089422 -1.3643066875639702 -13.9442682506766 92 24 6
-0.2154981593997065 -1.3674277552102394 -13.977742129732015 81 18 5
-0.21553383565527207 -1.3664123054367714 -14.015448367941213 77 15 4
-0.2178655346629983 -1.3743108962500363 -14.04432906781657 79 20 9
-0.2221105470341429 -1.3896393631143082 -14.065800862159836 92 36 25
-0.23415993960958081 -1.4352848220853165 -14.056703393959538 98 48 36
-0.2416125978325212 -1.4630764390550324 -14.065522850237379 98 52 40
-0.24367160354042272 -1.4699129536122753 -14.095562463178043 103 61 47
-0.23160120888308344 -1.4194898802506932 -14.258745620655432 100 53 38
-0.22861508213623605 -1.4067006665147161 -14.309443434187248 102 54 38
-0.22592931733418364 -1.3950729674462163 -14.35913774164395 101 52 36
-0.21971248584884506 -1.369712063421999 -14.423200170397784 111 56 38
-0.22129291010384633 -1.3746580484958697 -14.456144954314901 117 61 42
-0.22228913892469593 -1.3773296860754884 -14.491541135903615 116 59 41
-0.2421775113967295 -1.4534637067501404 -14.450520135743773 112 54 38
-0.23712369763159713 -1.4326068356400166 -14.510480976834172 104 50 37
-0.23709927237708706 -1.4313036599857112 -14.550201882285675 102 51 36
-0.23803942139672318 -1.4337484393758126 -14.586113199031377 108 56 38
-0.2363185287322691 -1.4258379717615481 -14.633042258364359 117 59 42
-0.22462446929015112 -1.3791211225453512 -14.72115063046406 79 45 34
-0.23115431120823082 -1.4032991182305077 -14.734530412054792 47 34 34
-0.13309952344578124 -1.0115145575370432 -15.475398472681439 42 39 40
-0.19612286994506878 -1.2530781629075332 -15.33537325272119 47 46 50
-0.20147665451894814 -1.2726428437480024 -15.354828368402366 47 48 52
-0.21478654877060266 -1.3232035676233824 -15.340180193527548 47 48 52
-0.1991708038282829 -1.2610673360574012 -15.449721579388028 46 47 51
-0.19072093565459314 -1.2268375836361507 -15.528904798693913 46 46 48
-0.20840653834876832 -1.294448960771085 -15.495388265669394 45 45 48
-0.20334734951067102 -1.2734223183575075 -15.560252957731784 45 45 47
-0.19841501138324058 -1.2528815765240502 -15.624845925731343 44 43 47
-0.22969424277700567 -1.3734954043533927 -15.531640827830195 42 41 46
-0.2238213712886592 -1.3492853189001934 -15.600433860032929 39 38 44
-0.22889066967488314 -1.3677304521467164 -15.621476481068925 36 35 41
-0.22970583769341046 -1.369586135290211 -15.661274626214874 35 34 39
-0.23066503756806522 -1.371999582285727 -15.700565803821325 31 29 31
-0.23061023610753217 -1.3704542639507116 -15.744476881551002 69 34 30
-0.2456685826453615 -1.4278563274343217 -15.721364016461774 119 51 32
-0.25649460266552726 -1.4687552204122447 -15.716869453056876 101 48 40
-0.2672173329026939 -1.5092553466842382 -15.712698333703958 54 35 38
-0.27831087102189334 -1.5512065051873147 -15.706727578180914 21 16 22
-0.2979671906808117 -1.6265772274510866 -15.662085401165438 11 9 14
-0.31285694743605963 -1.6833567415663202 -15.638571776861216 12 10 14
-0.3302478063426546 -1.7499062586701744 -15.603484347538231 14 12 15
-0.34187245730170224 -1.793956578493547 -15.59425286202342 17 15 18
-0.3683155665804456 -1.895863708648279 -15.517374793292749 27 25 28
-0.38141920372293203 -1.9457050501927808 -15.500850405279738 40 38 42
-0.38160362702582096 -1.9451048292485638 -15.543306240803718 43 40 47
-0.3925851097618507 -1.986665837924206 -15.536293997885648 50 49 56
-0.40242608873363483 -2.023776975338799 -15.534387090065024 60 59 66
-0.41617654614719224 -2.0761628187437715 -15.514284455979308 46 45 51
-0.4021956304977632 -2.0188855637262453 -15.666341764339384 17 18 20
-0.42858386464072296 -2.119322807495588 -15.630891931325753 57 59 58
-0.4075981036040415 -2.0359656326200755 -15.773290108098731 86 86 87
-0.43874506950286785 -2.1285333458899434 -16.583508567184193 148 148 148
0.7104845884514753 2.1915544444251056 -12.704754057025745 156 132 123
0.6635462984818637 2.010869453274881 -12.610826371996456 110 64 53
0.27305335300132616 0.5335925955155405 -12.570680553772647 123 50 33
0.2534503833829638 0.45978352117317023 -12.578715728392163 129 53 35
0.24315555693663082 0.4209580855977766 -12.58112138901653 129 54 35
0.27939446853199246 0.5629392174646073 -12.724708087289066 127 52 32
0.2611784692849437 0.49334151782801516 -12.703236086531303 126 51 30
0.2392634840943615 0.4093607999575086 -12.670237230689285 125 51 31
0.2243766061076924 0.35268442573311365 -12.658466087852705 132 58 39
0.2109221036974438 0.3015694155760835 -12.650922670573493 128 54 34
0.19877474196744216 0.2555303023945612 -12.647259440041497 130 53 33
0.18767172442909086 0.21354670247373608 -12.646699425380152 130 52 32
0.18640954087343165 0.20981838650464635 -12.6765336753368 129 51 31
0.1795782178131835 0.18443932106928518 -12.68913103208413 127 49 27
0.16071394428793861 0.11227015014612007 -12.664186202075097 127 49 27
0.16835634649049425 0.14316984322528192 -12.721875129069309 129 51 29
0.16193745170599327 0.11939263109941756 -12.735705612372284 128 51 29
0.15837993867547318 0.10674373762719025 -12.758516164985737 127 50 30
0.14381310228455058 0.05127289419099501 -12.746628456312958 127 50 29
0.1351271557297078 0.01867291972287166 -12.753175845182106 127 50 29
0.11313003513330333 -0.06571458445849743 -12.71741854134007 126 48 27
0.11158052493513493 -0.0705576491079567 -12.746428502469456 124 46 25
0.09999609179664315 -0.11444435844596512 -12.74347542129158 126 48 25
0.09085579367106278 -0.14882422594939815 -12.748228858682442 127 51 28
0.08999149447054466 -0.15099908282672825 -12.779484459113645 127 51 28
0.08597384765592686 -0.1654438826337259 -12.800668268224776 125 47 25
0.06711628362610855 -0.23764994100987735 -12.77394144367802 120 42 20
0.059539922624402 -0.2659509351513991 -12.783502907667483 121 43 21
0.04454395195930272 -0.32313812537206665 -12.768911931417236 123 45 23
0.030967602595780575 -0.37480476324972845 -12.758760336766406 123 45 23
0.020099061601187795 -0.415933646452717 -12.757298783827652 118 38 19
0.021358353172529876 -0.4098402473281917 -12.795485548496703 119 38 19
0.015474292705891957 -0.431561262690912 -12.81031176734615 123 42 23
0.004139801616141581 -0.47451052510117275 -12.80715218583732 122 41 21
-0.0004776298497124465 -0.4913006971858973 -12.82608935956523 121 41 21
-0.0019362856300151332 -0.4957858003994984 -12.855516595821747 120 42 23
-0.00334832347615599 -0.5000867065037351 -12.885172968178221 118 41 22
-0.0012329838375235713 -0.4906420654738204 -12.926674710411127 116 37 21
-0.004556224470618542 -0.5023833264570516 -12.95012069740525 116 38 21
-0.010958603955908197 -0.5261219253709069 -12.963269639358025 112 39 19
-0.01762909775570165 -0.5509061895598322 -12.975493237592099 110 39 23
-0.04699100565183301 -0.6641302601390828 -12.911072479076008 110 40 24
-0.03920610131327429 -0.6325800721744015 -12.97196506627392 95 30 17
-0.036980661397805425 -0.6226924447225635 -13.014235779603402 83 33 20
-0.03181562240947233 -0.6013395286814527 -13.066670232449738 79 46 36
-0.03800250105351988 -0.6242388128367429 -13.080529891714004 54 35 32
-0.04463008774807653 -0.6488571636389242 -13.092860710424667 37 32 31
-0.07204314144423374 -0.7545308064997673 -13.033727612860716 35 34 32
-0.07265700381597662 -0.7557054239936702 -13.066520813037744 37 35 33
-0.07188404204943732 -0.7514677520633608 -13.104202700326613 40 36 34
-0.07358098304082605 -0.7568599778850542 -13.133443288815357 45 40 37
-0.07409499278180554 -0.7576350513004062 -13.16687058698497 55 49 45
-0.07522673484871722 -0.7608167116417759 -13.198240736603312 83 77 74
-0.07589725627309463 -0.7621958441211385 -13.231309593254164 123 119 115
-0.0768571147528665 -0.7647006686344406 -13.263458400718385 124 123 118
-0.07944549155887692 -0.7735575605783955 -13.289965861681736 108 104 99
-0.08199138478443202 -0.782246690179413 -13.316679301148525 117 114 109
-0.08716982402584006 -0.8012090978927082 -13.334130743178413 121 119 113
-0.09088439410479032 -0.8144571613100711 -13.356781829930792 118 116 109
-0.09482388601373981 -0.8285821442657744 -13.378665000290013 117 114 107
-0.09770331981082836 -0.8385673775836695 -13.404362664613249 128 125 116
-0.10039801786035096 -0.8478295016549877 -13.430773097974924 121 118 109
-0.10514275250261562 -0.8650951198015093 -13.44987340662508 122 119 110
-0.10957042631418101 -0.8811220824179982 -13.470127972690413 122 119 110
-0.11179986462956881 -0.8885626165250393 -13.498345794041809 122 119 110
-0.11625558296855987 -0.9046970000432584 -13.518559532074526 131 128 119
-0.12107697500596726 -0.9222592545941728 -13.537462062369823 124 123 114
-0.12469289729805322 -0.9351115112563866 -13.560770619301525 112 111 102
-0.13216405268675402 -0.9630259067938081 -13.570016378566478 114 113 103
-0.13501921804123174 -0.9729042974041535 -13.59614689364238 123 123 114
-0.14097975916910044 -0.994916708649475 -13.610906238150566 120 121 112
-0.14728293758488853 -1.018268783310563 -13.624387043223706 122 121 111
-0.15219617990283352 -1.0361886535569864 -13.642989949453888 139 133 123
-0.15896473526512622 -1.061360961979605 -13.654714874667498 142 124 116
-0.162343200969014 -1.0732806437185527 -13.67902839127288 143 118 112
-0.16651207639773635 -1.0882892952504317 -13.700433190747589 142 113 109
-0.1708178729862666 -1.1038324712553509 -13.721350489387113 134 102 95
-0.17102069458828995 -1.1033292736391571 -13.757701595833327 143 113 105
-0.17166557485380207 -1.1045510303540311 -13.792501445261376 140 104 92
-0.17566104173244046 -1.1188749583571749 -13.81474571113564 137 85 70
-0.16657811013571266 -1.0820365046187872 -13.886584303375358 136 66 41
-0.19003947732166382 -1.1725094338002426 -13.835044816024102 136 53 12
-0.20276630964749898 -1.220995821797798 -13.824019665762943 132 56 8
-0.20871964272045962 -1.2429828244612358 -13.838726495231388 131 67 16
-0.214844188195642 -1.2656403748889238 -13.852762060128912 124 65 27
-0.22082267708088144 -1.2877269281428294 -13.86734081321616 91 27 4
-0.2245934078841676 -1.3011722363978064 -13.890421768250036 101 24 6
-0.2292700805388619 -1.3181627837304228 -13.910032500926775 110 33 6
-0.23681606341534045 -1.346386411651653 -13.918521884045681 103 28 5
-0.2349659911166997 -1.3378217023677337 -13.963534892090795 88 21 3
-0.23943814443406208 -1.3540083522069315 -13.984030616610422 76 14 2
-0.2402668361426077 -1.355925420777461 -14.018813476085985 73 13 3
-0.2425489569609336 -1.3635314810809716 -14.047992867344277 78 21 11
-0.24740661578451761 -1.3812237352322452 -14.067097836805344 95 41 31
-0.2607298625019552 -1.4320797930846263 -14.052765790219667 99 49 38
-0.2670084511697768 -1.4553418767790465 -14.066162245356258 100 53 41
-0.26767372053213134 -1.4552667635945467 -14.14029527643083 96 55 41
-0.2643879092651067 -1.4410416106334 -14.192008560320849 95 50 37
-0.24665784803942326 -1.370193496747281 -14.301856565082048 99 52 37
-0.25131647273972746 -1.3870902291484262 -14.322200248369858 101 53 38
-0.25008668952656143 -1.380901169427971 -14.36631843262597 101 51 35
-0.24626347807290916 -1.3645380371482263 -14.421091111272197 113 58 39
-0.24838427514478312 -1.3714752786991546 -14.451962229022406 118 61 41
-0.2608288279023079 -1.4188965506709508 -14.440886570928622 117 60 42
-0.2595312667111789 -1.4124252970324074 -14.48574983100665 109 51 37
-0.2616628591977759 -1.4193993996923968 -14.516733753621796 103 49 36
-0.2625379854662955 -1.4214415661138204 -14.552959541805969 96 47 32
-0.2587680082020263 -1.4052550828184307 -14.608435057753312 112 58 39
-0.2571659351660869 -1.3975672028164325 -14.655179729887555 104 57 45
-0.2514435484103441 -1.3737038890394917 -14.719176906389361 53 34 30
-0.2569330928467479 -1.393834638814445 -14.7368426352857 44 37 38
-0.1921881811677586 -1.128031103918465 -15.340871296907522 43 40 42
-0.22554987579041397 -1.256140004267511 -15.283104601119309 49 43 47
-0.24296398663446506 -1.323090815573181 -15.250643313994736 51 48 51
-0.21710814379255572 -1.2185046720189678 -15.447134706889042 47 47 51
-0.2328252091705978 -1.2787889639796308 -15.421902270906562 47 47 50
-0.22545947783130416 -1.2483339895206464 -15.49679570721333 48 46 49
-0.21314338584956527 -1.198402770970202 -15.593626203848196 47 46 49
-0.21307950957289612 -1.1966350042595524 -15.637322738227471 47 46 48
-0.24376721697575432 -1.3142892516254943 -15.58952650666922 42 42 45
-0.2589249319905269 -1.3723976047056947 -15.566065153190971 41 40 45
-0.2555755480785149 -1.3577039470210135 -15.624312278331825 41 40 45
-0.2593800760159406 -1.371150199110211 -15.651023089918109 42 40 43
-0.26217585299920176 -1.3806250942188738 -15.68227909027972 39 28 30
-0.26412376925195913 -1.3867603971790468 -15.717402432869124 90 43 34
-0.2743109223987672 -1.4253226033913622 -15.715693542458215 121 55 37
-0.28695209042318504 -1.4735494934595685 -15.702828408017997 97 50 45
-0.2975950790509805 -1.5139160840300203 -15.698784983642238 52 38 41
-0.3058815042644729 -1.545008390488543 -15.705265683011797 37 32 36
-0.32120459801551027 -1.6038136976376096 -15.679745892398364 17 13 19
-0.33669173032907507 -1.663274389947964 -15.65321270024116 13 10 14
-0.35371480585472614 -1.7287946583136637 -15.619394965293361 14 11 14
-0.3667827394423686 -1.7787448585657417 -15.603370917196244 18 16 19
