ply
format ascii 1.0
element vertex 827
property float x
property float y
property float z
property float nx
property float ny
property float nz
property uchar diffuse_red
property uchar diffuse_green
property uchar diffuse_blue
property uchar class
property uchar detection
end_header
-0.0280 -2.0168 -15.5174 -0.017 -0.210 0.977 28 28 31 0 0
-0.0144 -2.0507 -15.5174 -0.191 -0.461 0.866 15 14 16 0 0
0.0021 -2.0903 -15.5096 -0.303 -0.496 0.813 16 15 17 0 0
0.0279 -2.1491 -15.4761 -0.259 -0.532 0.806 24 24 24 0 0
0.0884 -2.3645 -15.8670 0.229 -0.592 0.773 123 123 123 0 0
-0.0610 -2.1413 -16.7626 -0.197 -0.178 0.964 137 137 139 0 0
-0.0061 -2.2711 -16.7222 0.211 0.117 0.970 148 148 150 0 0
-0.0162 -2.2577 -16.7917 0.218 -0.276 0.936 151 152 154 0 0
0.1264 -2.6086 -16.7684 -0.018 -0.713 0.701 181 182 184 0 0
0.1376 -2.6509 -16.8552 0.595 -0.302 0.745 185 186 190 0 0
0.5501 -3.6692 -16.8056 -0.128 0.510 0.851 191 192 194 0 0
0.6183 -3.8084 -16.6216 -0.302 0.013 0.953 192 193 195 0 0
0.6122 -3.8031 -16.6820 -0.221 0.200 0.954 192 193 195 0 0
0.6289 -3.8422 -16.6670 -0.254 0.211 0.944 192 193 195 0 0
-1.1362 1.1766 -12.4416 0.020 -0.495 0.869 125 47 26 0 0
-1.1313 1.1558 -12.4935 0.001 -0.366 0.931 128 47 26 0 0
-1.1105 1.1002 -12.5170 0.158 -0.240 0.958 130 48 27 0 0
-1.0633 0.9923 -12.4624 0.140 -0.264 0.954 129 47 26 0 0
-1.0521 0.9628 -12.4723 0.163 -0.220 0.962 129 47 26 0 0
-1.0403 0.9321 -12.4813 0.163 -0.220 0.962 129 47 25 0 0
-1.0173 0.8718 -12.5001 0.080 -0.092 0.993 129 47 25 0 0
-0.9570 0.7254 -12.4805 0.516 -0.675 0.528 130 48 26 0 0
-0.9520 0.7095 -12.5015 0.260 -0.699 0.666 130 48 26 0 0
-0.9498 0.6996 -12.5278 0.177 -0.328 0.928 131 49 27 0 0
-0.9143 0.6022 -12.5833 0.343 -0.479 0.808 131 49 27 0 0
-0.9052 0.5772 -12.5965 0.081 -0.672 0.736 132 50 28 0 0
-0.8431 0.4376 -12.5107 0.219 -0.105 0.970 129 47 25 0 0
-0.8232 0.3844 -12.5337 0.320 -0.252 0.913 131 47 23 0 0
-0.8134 0.3581 -12.5454 -0.032 -0.230 0.973 131 47 23 0 0
-0.7123 0.0991 -12.5944 0.214 -0.174 0.961 136 52 28 0 0
-0.5298 -0.3752 -12.7203 -0.100 -0.288 0.952 134 51 30 0 0
-0.2701 -1.1744 -13.6386 0.456 -0.689 0.564 111 95 89 0 0
-0.2644 -1.1919 -13.6578 0.180 -0.734 0.655 113 92 84 0 0
-0.2668 -1.1922 -13.6959 0.035 -0.649 0.760 112 88 72 0 0
-0.0692 -1.9839 -15.4831 0.867 -0.144 0.476 25 25 27 0 0
-0.0698 -1.9889 -15.5214 0.641 -0.408 0.650 29 30 34 0 0
-0.0510 -2.0333 -15.5076 -0.210 -0.517 0.830 41 40 43 0 0
-0.0281 -2.0920 -15.5195 -0.367 -0.681 0.634 17 16 19 0 0
0.0213 -2.2167 -15.5325 -0.211 -0.834 0.510 80 80 85 0 0
-0.0875 -2.1602 -16.7988 0.084 0.350 0.933 143 143 144 0 0
-0.0661 -2.2095 -16.7766 0.110 0.145 0.983 148 148 149 0 0
-0.0537 -2.2410 -16.7805 0.128 -0.195 0.972 151 151 153 0 0
0.1115 -2.6562 -16.8110 0.499 -0.494 0.712 186 187 191 0 0
0.5352 -3.7004 -16.7684 0.203 0.452 0.869 192 193 195 0 0
0.5472 -3.7304 -16.7694 0.286 0.333 0.899 193 194 196 0 0
0.6043 -3.8541 -16.6621 -0.093 0.421 0.902 193 194 196 0 0
0.6854 -4.0708 -16.7545 0.088 -0.727 0.681 197 197 199 0 0
-1.1426 1.1088 -12.4966 0.533 -0.455 0.714 128 46 25 0 0
-1.1327 1.0822 -12.5092 0.410 -0.464 0.785 129 48 27 0 0
-1.0657 0.9213 -12.4795 0.163 -0.220 0.962 129 48 26 0 0
-0.8542 0.3920 -12.5131 0.219 -0.105 0.970 131 47 24 0 0
-0.7836 0.2041 -12.5910 0.411 -0.438 0.800 132 47 24 0 0
-0.5827 -0.3091 -12.6843 0.269 -0.347 0.898 135 53 29 0 0
-0.3424 -0.9449 -12.9236 0.548 -0.506 0.666 84 16 3 0 0
-0.2951 -1.1839 -13.6375 0.212 -0.892 0.399 89 63 51 0 0
-0.2927 -1.1944 -13.6644 0.107 -0.823 0.557 91 61 42 0 0
-0.3517 -1.3052 -15.1647 -0.385 -0.917 0.109 107 76 70 0 0
-0.1103 -2.1728 -16.7446 0.080 0.285 0.955 145 145 147 0 0
-0.1157 -2.1691 -16.7999 -0.033 0.079 0.996 147 148 149 0 0
0.5177 -3.7264 -16.7398 0.212 0.530 0.821 193 194 196 0 0
0.5235 -3.7443 -16.7612 0.164 0.305 0.938 194 195 197 0 0
0.6544 -4.0634 -16.7311 0.129 -0.989 -0.076 196 197 199 0 0
0.6536 -4.0686 -16.7743 -0.119 -0.988 0.102 196 197 199 0 0
0.6512 -4.0709 -16.8228 -0.458 -0.091 0.884 197 198 200 0 0
0.6656 -4.1054 -16.8146 -0.471 0.000 0.882 198 198 200 0 0
0.6799 -4.1394 -16.8069 -0.471 0.000 0.882 199 199 201 0 0
-0.6478 -0.2173 -12.6719 -0.031 -0.384 0.923 135 49 26 0 0
-0.5104 -0.5667 -12.7313 0.168 -0.516 0.840 146 72 50 0 0
-0.5046 -0.5842 -12.7499 0.243 -0.233 0.942 145 73 52 0 0
-0.4895 -0.6215 -12.7496 0.232 -0.203 0.951 146 75 57 0 0
-0.2907 -1.3223 -13.9597 -0.287 -0.780 0.556 84 23 7 0 0
-0.3007 -1.3131 -14.0488 -0.248 -0.959 0.140 87 44 29 0 0
-0.0691 -2.1599 -15.6339 0.213 -0.502 0.839 29 28 33 0 0
-0.0611 -2.1822 -15.6493 0.213 -0.502 0.839 23 22 27 0 0
-0.0531 -2.2046 -15.6645 0.033 -0.568 0.822 43 42 46 0 0
-0.1179 -2.2222 -16.6866 0.572 0.363 0.736 147 147 149 0 0
0.1742 -2.9451 -16.6967 0.035 -0.100 0.994 195 196 198 0 0
0.4957 -3.7506 -16.7661 0.668 0.274 0.692 194 195 197 0 0
0.6081 -4.0058 -16.6390 -0.123 0.468 0.875 196 196 198 0 0
0.6125 -4.0489 -16.8249 0.528 -0.579 0.621 197 198 200 0 0
0.6343 -4.1042 -16.8326 -0.430 0.000 0.903 198 198 200 0 0
0.6457 -4.1328 -16.8348 -0.265 0.292 0.919 199 199 201 0 0
-1.2296 1.1854 -12.4354 0.102 -0.599 0.794 126 48 28 0 0
-1.1971 1.0998 -12.4688 0.408 -0.600 0.688 127 46 25 0 0
-1.1909 1.0810 -12.4879 0.420 -0.491 0.763 126 45 24 0 0
-1.1826 1.0579 -12.5035 0.441 -0.514 0.736 129 48 27 0 0
-1.1444 0.9652 -12.4958 0.334 -0.289 0.897 130 49 28 0 0
-1.1306 0.9303 -12.5013 -0.074 -0.148 0.986 128 47 25 0 0
-0.7098 -0.1323 -12.6525 0.134 -0.580 0.804 132 48 24 0 0
-0.3694 -1.0472 -13.0902 0.754 -0.443 0.485 75 11 3 0 0
-0.3559 -1.0917 -13.1542 0.845 -0.391 0.365 84 20 5 0 0
-0.3450 -1.2260 -13.7641 -0.075 -0.890 0.449 78 18 7 0 0
-0.1492 -2.2526 -16.8558 -0.490 -0.587 0.644 160 161 163 0 0
-0.1380 -2.2886 -16.9032 -0.555 -0.599 0.577 166 167 169 0 0
-0.0754 -2.4177 -16.7614 -0.651 -0.230 0.723 168 169 171 0 0
0.0352 -2.6886 -16.7544 0.423 -0.844 0.329 189 190 192 0 0
0.0306 -2.6866 -16.8079 -0.054 -0.781 0.623 189 190 192 0 0
0.4561 -3.7203 -16.7294 0.622 0.237 0.747 195 195 197 0 0
0.4779 -3.7756 -16.7390 0.668 0.274 0.692 194 195 197 0 0
0.5781 -4.0353 -16.8123 0.384 -0.281 0.880 199 199 201 0 0
0.5888 -4.0624 -16.8173 0.528 -0.579 0.621 198 198 200 0 0
0.5949 -4.0810 -16.8370 0.598 -0.470 0.650 197 197 199 0 0
0.6309 -4.1627 -16.7977 -0.027 0.378 0.925 200 200 202 0 0
-1.2222 1.0878 -12.4661 0.206 -0.709 0.674 130 49 28 0 0
-1.2146 1.0663 -12.4830 0.228 -0.786 0.575 129 48 27 0 0
-1.2025 1.0296 -12.5218 0.120 -0.523 0.844 128 47 26 0 0
-0.9866 0.4884 -12.5842 0.347 -0.349 0.871 131 49 27 0 0
-0.7390 -0.1329 -12.6596 0.223 -0.749 0.624 131 47 23 0 0
-0.6549 -0.3478 -12.7069 0.172 -0.207 0.963 137 55 30 0 0
-0.3888 -1.0673 -13.0783 0.754 -0.443 0.485 85 20 2 0 0
-0.3736 -1.1154 -13.1385 0.845 -0.391 0.365 101 38 11 0 0
-0.3812 -1.1331 -13.3416 0.212 -0.899 0.384 93 46 29 0 0
-0.3760 -1.1551 -13.3931 0.302 -0.867 0.396 96 48 33 0 0
-0.3741 -1.2447 -13.8693 -0.148 -0.963 0.225 79 25 11 0 0
-0.2677 -2.0147 -16.7169 -0.607 -0.049 0.793 143 143 145 0 0
-0.1183 -2.3412 -16.4918 0.502 0.489 0.713 151 151 153 0 0
-0.0990 -2.4420 -16.7894 -0.629 -0.192 0.753 174 175 177 0 0
0.5262 -3.9888 -16.8573 0.364 -0.605 0.708 198 198 200 0 0
0.5996 -4.1616 -16.8156 -0.356 0.234 0.905 201 201 203 0 0
-1.3110 1.2447 -12.3943 0.433 -0.216 0.875 127 49 27 0 0
-1.3006 1.2170 -12.4063 0.433 -0.216 0.875 127 49 29 0 0
-1.2827 1.1680 -12.4353 0.487 -0.512 0.708 129 51 31 0 0
-1.2465 1.0745 -12.4622 0.280 -0.679 0.679 131 50 29 0 0
-0.9950 0.4371 -12.5818 0.206 -0.126 0.970 132 49 26 0 0
-0.8809 0.1579 -12.5801 -0.032 -0.378 0.925 131 45 24 0 0
-0.8701 0.1297 -12.5898 -0.176 -0.402 0.899 131 46 24 0 0
-0.8093 -0.0255 -12.6250 0.072 -0.292 0.954 138 56 32 0 0
-0.4421 -0.9839 -12.9538 0.640 -0.498 0.585 97 20 1 0 0
-0.4359 -1.0024 -12.9713 0.608 -0.440 0.660 93 18 1 0 0
-0.4112 -1.0756 -13.0420 0.143 -0.915 0.377 92 22 4 0 0
-0.4086 -1.0865 -13.0673 0.490 -0.803 0.338 99 31 7 0 0
-0.4082 -1.0930 -13.0970 0.507 -0.807 0.302 104 39 12 0 0
-0.4026 -1.1156 -13.1469 0.641 -0.632 0.436 95 38 14 0 0
-0.4042 -1.1292 -13.2433 0.226 -0.822 0.522 91 43 26 0 0
-0.4018 -1.1398 -13.2692 0.305 -0.768 0.563 92 46 30 0 0
-0.3972 -1.1549 -13.2905 0.493 -0.574 0.654 92 47 32 0 0
0.5131 -4.0221 -16.8147 0.371 0.153 0.916 199 199 201 0 0
0.5058 -4.0158 -16.8786 0.438 -0.548 0.713 199 199 201 0 0
-1.3089 1.1639 -12.4046 0.445 -0.325 0.835 126 48 28 0 0
-1.3063 1.1529 -12.4300 0.487 -0.512 0.708 127 49 29 0 0
-1.3046 1.1438 -12.4571 0.078 -0.326 0.942 127 46 26 0 0
-1.2703 1.0600 -12.4574 0.438 -0.601 0.668 128 47 26 0 0
-1.1312 0.7104 -12.5113 0.375 -0.200 0.905 129 49 24 0 0
-1.0521 0.5105 -12.5485 0.315 -0.596 0.739 132 50 28 0 0
-1.0456 0.4913 -12.5667 0.315 -0.596 0.739 130 48 26 0 0
-1.0065 0.3925 -12.5852 0.206 -0.126 0.970 133 49 25 0 0
-0.9158 0.1743 -12.5673 0.295 -0.272 0.916 136 54 30 0 0
-0.9040 0.1440 -12.5753 0.082 -0.234 0.969 131 49 25 0 0
-0.8924 0.1141 -12.5835 0.082 -0.234 0.969 132 50 26 0 0
-0.8072 -0.1084 -12.6623 0.015 -0.468 0.883 134 50 26 0 0
-0.7899 -0.1502 -12.6593 0.559 -0.293 0.776 134 50 26 0 0
-0.4496 -1.0339 -12.9480 0.422 -0.751 0.507 101 25 0 0 0
-0.4435 -1.0523 -12.9656 0.386 -0.821 0.420 104 28 1 0 0
-0.4364 -1.1518 -13.4145 0.152 -0.862 0.483 80 41 33 0 0
-0.4457 -1.1677 -13.6246 -0.086 -0.837 0.541 48 7 6 0 0
-0.2292 -2.2737 -16.7668 -0.053 -0.440 0.897 162 163 165 0 0
-1.1932 0.8049 -12.4253 0.069 -0.296 0.953 130 48 26 0 0
-1.1821 0.7759 -12.4355 0.067 -0.669 0.741 129 47 25 0 0
-1.0917 0.5358 -12.5429 0.215 -0.187 0.958 134 52 30 0 0
-1.0319 0.3826 -12.5840 -0.257 -0.316 0.913 133 49 25 0 0
-0.7138 -0.4087 -12.6735 0.690 -0.251 0.679 139 61 36 0 0
-0.6435 -0.5877 -12.7157 0.247 -0.243 0.938 140 62 43 0 0
-0.4704 -1.0564 -12.9697 0.540 -0.676 0.501 111 39 8 0 0
-0.4704 -1.1312 -13.3703 0.367 -0.643 0.672 81 44 33 0 0
-0.4664 -1.1451 -13.3931 0.152 -0.862 0.483 79 40 31 0 0
-0.4572 -1.2466 -13.8179 0.389 -0.918 -0.077 112 81 65 0 0
-0.6077 -1.1599 -15.3213 -0.432 -0.881 0.193 117 87 84 0 0
-0.6017 -1.1786 -15.3425 -0.506 -0.824 0.255 114 85 82 0 0
-0.2854 -2.0097 -15.6696 -0.089 -0.830 0.551 12 12 14 0 0
-0.2680 -2.2548 -16.7587 -0.515 -0.807 0.290 162 163 165 0 0
-0.2516 -2.3081 -16.8305 0.289 0.016 0.957 171 172 174 0 0
-0.2704 -2.2796 -16.9232 0.478 0.325 0.816 175 176 180 0 0
-1.3597 1.1416 -12.4005 0.496 -0.605 0.623 126 48 28 0 0
-1.1570 0.6374 -12.4638 0.424 -0.492 0.760 127 46 23 0 0
-0.9241 0.0392 -12.6363 0.212 -0.406 0.889 135 53 29 0 0
-0.9155 0.0158 -12.6502 0.221 -0.563 0.796 134 52 28 0 0
-0.7332 -0.4293 -12.6620 0.645 -0.141 0.751 138 59 34 0 0
-0.4911 -1.0792 -12.9913 0.457 -0.851 0.258 57 7 0 0 0
-0.2964 -2.0359 -15.5560 0.259 -0.521 0.813 28 26 30 0 0
-0.3558 -2.0985 -16.6518 -0.281 0.155 0.947 155 156 158 0 0
-0.2913 -2.2435 -16.5904 -0.413 0.073 0.908 159 159 161 0 0
-0.2890 -2.2846 -16.7788 -0.094 -0.460 0.883 168 169 172 0 0
-0.2912 -2.2878 -16.8244 0.298 0.189 0.936 170 171 175 0 0
-0.2836 -2.3097 -16.8423 0.492 0.295 0.819 173 174 178 0 0
-0.2560 -2.3769 -16.8431 0.396 0.077 0.915 178 179 183 0 0
-0.2318 -2.4301 -16.8141 0.088 0.524 0.847 181 182 186 0 0
-0.0597 -2.8141 -16.6342 0.192 -0.822 0.536 193 194 197 0 0
-1.3888 1.1325 -12.4346 0.180 -0.950 0.257 127 49 29 0 0
-1.3756 1.0992 -12.4418 0.401 -0.340 0.851 127 47 27 0 0
-1.3178 0.9553 -12.4614 0.019 -0.585 0.811 128 48 26 0 0
-1.2422 0.7747 -12.4489 0.043 -0.567 0.823 128 47 26 0 0
-1.2385 0.7614 -12.4722 0.251 -0.677 0.692 130 50 27 0 0
-1.2018 0.6790 -12.4373 0.143 -0.532 0.834 127 47 24 0 0
-1.2043 0.6730 -12.5014 0.311 -0.097 0.946 127 45 23 0 0
-1.1745 0.5995 -12.5081 0.248 -0.157 0.956 130 48 24 0 0
-1.1600 0.5635 -12.5120 0.118 -0.006 0.993 129 46 24 0 0
-1.1270 0.4779 -12.5424 0.273 -0.461 0.844 131 49 27 0 0
-0.9498 0.0307 -12.6362 0.267 -0.361 0.894 134 53 28 0 0
-0.7625 -0.4293 -12.6698 0.318 -0.490 0.811 138 57 33 0 0
-0.5188 -1.0937 -13.0576 -0.016 -0.942 0.335 61 9 2 0 0
-0.5335 -1.0991 -13.2725 0.150 -0.951 0.271 87 42 33 0 0
-0.5233 -1.1555 -13.4376 -0.348 -0.715 0.606 93 50 36 0 0
-0.5171 -1.1739 -13.4557 -0.348 -0.715 0.606 93 50 37 0 0
-0.4153 -1.8254 -15.5744 0.473 0.287 0.833 24 19 21 0 0
-0.3454 -2.0021 -15.6132 0.177 -0.787 0.591 28 26 29 0 0
-0.3120 -2.3107 -16.8046 0.003 -0.750 0.661 173 174 178 0 0
-0.2879 -2.3787 -16.8547 0.318 -0.344 0.884 181 182 186 0 0
-1.3443 0.9469 -12.4616 0.141 -0.653 0.744 127 47 24 0 0
-1.2216 0.6457 -12.4855 0.171 -0.229 0.958 128 46 24 0 0
-1.0125 0.1214 -12.5853 0.064 -0.666 0.744 133 51 27 0 0
-1.0058 0.1018 -12.6027 0.369 -0.529 0.764 133 51 27 0 0
-0.7833 -0.4470 -12.6611 -0.086 -0.659 0.748 138 57 33 0 0
-0.5477 -1.0766 -12.9746 0.298 -0.856 0.422 54 10 4 0 0
-0.5438 -1.0905 -12.9967 0.292 -0.754 0.588 61 12 3 0 0
-0.5611 -1.1029 -13.2773 0.339 -0.819 0.463 90 46 37 0 0
-0.5679 -1.1133 -13.4158 -0.279 -0.731 0.623 92 50 41 0 0
-0.6033 -1.2308 -14.4640 -0.510 -0.858 0.058 72 65 63 0 0
-0.8153 -0.9777 -15.8024 -0.110 -0.572 0.813 99 53 37 0 0
-0.3806 -1.9813 -15.5623 0.151 -0.818 0.555 83 81 85 0 0
-0.3730 -2.0098 -15.6151 0.177 -0.787 0.591 28 26 29 0 0
-0.4184 -2.1045 -16.6706 -0.440 -0.056 0.896 159 160 162 0 0
-0.4005 -2.1458 -16.6606 -0.283 0.051 0.958 161 162 164 0 0
-0.2399 -2.5227 -16.6040 0.370 -0.585 0.722 182 183 187 0 0
-0.0890 -2.9018 -16.6788 0.369 0.126 0.921 199 200 202 0 0
-1.3700 0.9365 -12.4601 0.359 -0.406 0.840 127 47 24 0 0
-0.9946 0.0060 -12.5943 0.282 -0.158 0.946 136 54 30 0 0
-0.5820 -1.0545 -12.9331 0.208 -0.850 0.484 57 9 3 0 0
-0.5670 -1.1025 -12.9931 0.328 -0.515 0.791 83 16 2 0 0
-0.5600 -1.1225 -13.0090 0.328 -0.515 0.791 82 17 6 0 0
-0.5779 -1.1284 -13.2596 -0.664 -0.716 0.216 93 58 48 0 0
-0.5918 -1.1310 -13.4437 -0.660 -0.751 0.006 96 66 57 0 0
-0.6101 -1.1502 -13.7669 -0.485 -0.775 0.406 116 81 69 0 0
-0.6232 -1.1621 -13.9883 -0.258 -0.950 0.175 84 46 35 0 0
-0.6294 -1.2271 -14.3966 -0.196 -0.981 -0.003 78 63 59 0 0
-0.4091 -1.9871 -15.5667 0.000 -0.850 0.527 78 76 81 0 0
-0.4012 -2.0163 -15.6187 0.050 -0.812 0.581 19 17 20 0 0
-0.3963 -2.0329 -15.6422 0.050 -0.812 0.581 13 12 14 0 0
-0.3913 -2.0494 -15.6657 0.050 -0.812 0.581 19 19 21 0 0
-0.5348 -1.9095 -16.7155 0.335 0.351 0.874 156 156 158 0 0
-0.4384 -2.1440 -16.7268 -0.665 -0.190 0.722 165 166 168 0 0
-0.4366 -2.1626 -16.7997 -0.708 -0.594 0.381 167 168 170 0 0
-0.3586 -2.3467 -16.7797 0.143 -0.415 0.899 176 177 181 0 0
-1.2976 0.6948 -12.4378 0.183 -0.857 0.482 129 48 27 0 0
-1.2929 0.6792 -12.4592 0.131 -0.690 0.712 126 45 24 0 0
-1.2737 0.6280 -12.4850 -0.088 -0.185 0.979 130 48 27 0 0
-1.0550 0.0917 -12.5391 -0.081 -0.377 0.923 134 52 28 0 0
-1.0514 0.0727 -12.5919 -0.142 -0.583 0.800 134 52 28 0 0
-0.8355 -0.4603 -12.6643 0.297 -0.481 0.825 135 55 31 0 0
-0.8166 -0.5105 -12.6875 -0.035 -0.166 0.985 138 56 34 0 0
-0.8036 -0.5425 -12.6925 -0.035 -0.166 0.985 132 50 29 0 0
-0.7487 -0.6830 -12.7351 0.263 -0.269 0.927 131 50 31 0 0
-0.6605 -0.9257 -12.8904 0.497 -0.540 0.680 132 44 14 0 0
-0.6371 -0.9787 -12.8736 0.458 -0.369 0.809 118 33 5 0 0
-0.6135 -1.0497 -12.9464 0.066 -0.782 0.620 61 10 3 0 0
-0.5723 -1.1442 -12.9230 0.184 -0.626 0.757 87 19 2 0 0
-0.5659 -1.1629 -12.9401 0.184 -0.626 0.757 92 19 3 0 0
-0.5661 -1.1804 -13.0310 0.465 -0.685 0.561 98 60 48 0 0
-0.6624 -1.2164 -14.3782 -0.271 -0.962 -0.029 76 64 64 0 0
-0.6638 -1.2202 -14.4148 -0.196 -0.981 -0.003 75 66 66 0 0
-0.4777 -1.8954 -15.5641 -0.338 -0.169 0.926 28 24 28 0 0
-0.4587 -1.9460 -15.5880 -0.247 -0.320 0.915 61 60 66 0 0
-0.4254 -2.0378 -15.6479 -0.058 -0.826 0.561 20 18 21 0 0
-0.4776 -2.1402 -16.7962 -0.643 -0.312 0.699 167 168 171 0 0
-0.3877 -2.3537 -16.7836 0.509 -0.316 0.801 179 180 184 0 0
-0.3158 -2.4949 -16.6238 0.234 -0.006 0.972 182 183 187 0 0
-1.4910 1.0888 -12.4272 0.263 0.058 0.963 128 47 30 0 0
-1.2245 0.4356 -12.5007 0.003 -0.317 0.949 131 49 27 0 0
-1.1138 0.1566 -12.5694 0.223 -0.785 0.577 130 48 25 0 0
-1.0797 0.0812 -12.5373 0.019 -0.230 0.973 133 51 27 0 0
-1.0932 0.1028 -12.5914 0.165 -0.493 0.855 137 55 31 0 0
-1.0850 0.0801 -12.6061 0.165 -0.493 0.855 133 51 27 0 0
-0.7558 -0.7395 -12.7596 0.350 -0.479 0.805 130 53 34 0 0
-0.7262 -0.8228 -12.8209 -0.242 -0.281 0.929 167 93 78 0 0
-0.6933 -0.9066 -12.8458 0.153 -0.760 0.631 166 91 62 0 0
-0.6475 -1.0222 -12.8743 -0.200 -0.759 0.619 80 14 2 0 0
-0.6829 -1.1580 -13.9727 -0.105 -0.430 0.897 80 39 30 0 0
-0.7278 -1.1424 -14.4319 -0.489 -0.872 -0.006 75 64 64 0 0
-0.5084 -1.8976 -15.5733 -0.399 -0.177 0.900 27 26 29 0 0
-0.4751 -1.9822 -15.5976 -0.036 -0.466 0.884 28 26 32 0 0
-0.4671 -2.0045 -15.6135 -0.040 -0.698 0.715 19 17 22 0 0
-0.4604 -2.0243 -15.6326 -0.040 -0.698 0.715 33 32 35 0 0
-0.4215 -2.3443 -16.7615 0.403 -0.092 0.911 179 180 184 0 0
-0.3882 -2.4137 -16.7087 0.046 -0.899 0.436 181 182 186 0 0
-1.4504 0.9186 -12.4322 0.378 -0.803 0.461 126 48 25 0 0
-1.4473 0.9062 -12.4564 0.378 -0.803 0.461 128 48 25 0 0
-1.3123 0.5768 -12.4905 -0.127 -0.516 0.847 135 53 32 0 0
-1.0461 -0.0831 -12.6067 0.104 -0.463 0.880 131 48 24 0 0
-0.9402 -0.3385 -12.6179 0.348 -0.674 0.651 133 51 27 0 0
-0.7442 -0.8513 -12.8369 -0.052 -0.299 0.953 160 79 54 0 0
-0.7269 -0.8919 -12.8327 -0.071 -0.543 0.837 165 92 64 0 0
-0.7158 -0.9201 -12.8407 0.059 -0.459 0.887 149 66 41 0 0
-0.7124 -0.9451 -12.9236 0.233 -0.631 0.740 81 14 3 0 0
-0.7091 -0.9578 -12.9471 0.211 -0.475 0.854 72 11 4 0 0
-0.7209 -1.1366 -13.9664 -0.385 -0.501 0.775 82 39 31 0 0
-0.7113 -1.1619 -13.9780 -0.385 -0.501 0.775 74 28 17 0 0
-0.7065 -1.1778 -13.9999 -0.401 -0.754 0.521 83 31 17 0 0
-0.5290 -1.9043 -15.4863 0.939 -0.218 0.267 139 142 143 0 0
-0.5448 -1.8890 -15.5968 -0.322 -0.105 0.941 49 50 52 0 0
-0.5994 -2.0065 -16.8175 -0.618 -0.720 0.315 168 169 171 0 0
-1.5780 1.1526 -12.4244 0.200 -0.131 0.971 125 47 26 0 0
-1.5110 1.0039 -12.3717 0.075 -0.122 0.990 126 46 28 0 0
-1.2762 0.4177 -12.4999 0.389 -0.315 0.866 127 45 22 0 0
-0.9626 -0.3530 -12.6123 0.125 -0.430 0.894 136 55 30 0 0
-0.7400 -0.9361 -12.8689 -0.012 -0.734 0.679 97 20 1 0 0
-0.7423 -0.9377 -12.9033 0.204 -0.659 0.725 82 14 1 0 0
-0.7321 -0.9703 -12.9429 0.392 -0.172 0.904 72 11 6 0 0
-0.7544 -1.1309 -13.9823 -0.451 -0.484 0.750 74 28 19 0 0
-0.7461 -1.1536 -13.9968 -0.490 -0.648 0.583 78 29 15 0 0
-0.5437 -1.9435 -15.4920 0.834 0.110 0.540 146 148 149 0 0
-0.6608 -1.9471 -16.8668 0.341 -0.371 0.864 169 170 172 0 0
-1.1744 0.0848 -12.5981 -0.044 -0.253 0.966 132 49 26 0 0
-1.1621 0.0541 -12.6056 -0.073 -0.285 0.956 133 50 26 0 0
-1.0823 -0.1363 -12.6087 0.175 -0.616 0.768 132 50 26 0 0
-0.9708 -0.4078 -12.6393 0.275 -0.516 0.811 133 51 28 0 0
-0.9491 -0.4693 -12.6874 0.116 -0.524 0.844 130 48 26 0 0
-0.8447 -0.7256 -12.7263 0.328 -0.496 0.804 133 54 34 0 0
-0.7674 -0.9399 -12.8735 -0.012 -0.734 0.679 79 12 1 0 0
-0.7696 -0.9419 -12.9075 0.106 -0.679 0.727 71 10 2 0 0
-0.7887 -1.1238 -13.9998 -0.361 -0.702 0.614 79 30 19 0 0
-1.0186 -0.3593 -12.6219 0.024 -0.508 0.861 135 53 29 0 0
-1.0055 -0.3915 -12.6272 0.051 -0.420 0.906 135 53 29 0 0
-0.9875 -0.4396 -12.6526 -0.049 -0.564 0.825 130 48 25 0 0
-0.8757 -0.7161 -12.7080 0.310 -0.427 0.849 126 46 27 0 0
-0.8684 -0.7368 -12.7235 0.328 -0.496 0.804 130 50 32 0 0
-0.8003 -0.9143 -12.7996 0.476 -0.537 0.696 128 45 16 0 0
-0.7976 -0.9384 -12.8833 -0.194 -0.544 0.816 66 11 2 0 0
-0.8298 -1.0968 -13.9995 -0.130 -0.656 0.743 78 29 20 0 0
-0.7059 -1.9876 -16.8366 -0.144 -0.737 0.660 174 175 177 0 0
-0.7246 -1.9618 -16.9241 -0.741 -0.593 0.315 175 176 178 0 0
-1.7682 1.3924 -12.3973 0.119 -0.113 0.986 122 49 30 0 0
-1.6677 1.1521 -12.4107 0.334 -0.158 0.929 122 44 23 0 0
-1.2581 0.1502 -12.5666 0.033 -0.527 0.849 130 47 26 0 0
-1.2239 0.0635 -12.5942 -0.130 -0.317 0.939 131 47 24 0 0
-1.2121 0.0338 -12.6026 -0.130 -0.317 0.939 132 47 24 0 0
-1.0454 -0.3649 -12.6245 0.024 -0.508 0.861 136 54 30 0 0
-0.9870 -0.5176 -12.6930 -0.112 -0.316 0.942 124 41 23 0 0
-0.8387 -0.8901 -12.7959 0.219 -0.296 0.930 134 56 29 0 0
-0.8347 -0.9044 -12.8176 0.258 -0.719 0.645 105 29 7 0 0
-0.8372 -0.9184 -12.9115 -0.067 -0.468 0.881 68 13 3 0 0
-0.8355 -0.9343 -12.9678 -0.160 -0.373 0.914 76 19 10 0 0
-0.8648 -1.0818 -13.9862 -0.045 -0.706 0.707 77 31 21 0 0
-0.6302 -1.9525 -15.4712 0.207 0.154 0.966 149 153 154 0 0
-0.7293 -2.0061 -16.8239 0.135 -0.660 0.739 177 178 180 0 0
-1.8155 1.4374 -12.3710 -0.037 -0.270 0.962 121 48 31 0 0
-1.2776 0.1291 -12.5553 0.362 -0.450 0.817 133 51 29 0 0
-1.2690 0.1059 -12.5696 0.356 -0.160 0.921 132 50 28 0 0
-1.2625 0.0866 -12.5874 0.207 -0.092 0.974 127 45 23 0 0
-1.2483 0.0523 -12.5918 0.276 -0.213 0.937 130 48 26 0 0
-1.2372 0.0240 -12.6014 0.276 -0.213 0.937 130 48 24 0 0
-1.0408 -0.4513 -12.6574 0.332 -0.428 0.840 131 48 29 0 0
-1.0324 -0.4741 -12.6712 0.117 -0.534 0.837 124 42 25 0 0
-1.0261 -0.4928 -12.6890 -0.026 -0.305 0.952 122 41 24 0 0
-1.6398 0.9339 -12.4532 0.203 -0.314 0.928 126 48 25 0 0
-1.5584 0.7400 -12.4646 0.501 -0.429 0.752 127 46 24 0 0
-1.5545 0.7259 -12.4875 0.428 -0.714 0.554 126 44 23 0 0
-1.3497 0.2372 -12.5188 0.155 -0.462 0.873 129 47 25 0 0
-1.3158 0.1450 -12.5771 0.110 -0.147 0.983 130 48 26 0 0
-1.0693 -0.4472 -12.6338 0.362 -0.387 0.848 135 53 33 0 0
-0.9878 -0.6508 -12.6884 0.206 -0.400 0.893 122 44 25 0 0
-0.8992 -0.8804 -12.7860 0.089 -0.317 0.944 114 39 10 0 0
-1.1261 -0.5689 -13.8076 0.241 -0.104 0.965 54 19 11 0 0
-1.0495 -0.7501 -13.8125 -0.076 -0.319 0.945 72 14 4 0 0
-1.2620 -0.6791 -15.7838 -0.386 -0.691 0.611 85 39 24 0 0
-1.2570 -0.6962 -15.8087 -0.350 -0.678 0.647 99 57 43 0 0
-0.6664 -2.2719 -16.6663 -0.540 0.088 0.837 182 183 185 0 0
-0.6602 -2.2913 -16.6879 -0.584 -0.067 0.809 183 184 186 0 0
-0.6204 -2.3786 -16.6593 -0.151 0.106 0.983 186 187 189 0 0
-1.8879 1.4630 -12.3708 0.083 -0.155 0.984 123 50 33 0 0
-1.7854 1.2135 -12.4126 -0.249 -0.328 0.911 124 47 29 0 0
-1.6650 0.9225 -12.4510 0.454 -0.337 0.825 126 48 25 0 0
-1.2450 -0.0981 -12.6117 0.112 -0.304 0.946 132 50 27 0 0
-1.0791 -0.4988 -12.6638 0.343 -0.418 0.841 123 44 25 0 0
-1.0189 -0.6414 -12.6700 0.004 -0.270 0.963 125 46 28 0 0
-1.0371 -0.6124 -12.7330 0.205 -0.491 0.847 127 48 30 0 0
-0.9953 -0.9957 -14.0301 -0.267 -0.657 0.705 75 28 20 0 0
-1.3033 -0.6570 -15.7767 -0.331 -0.742 0.583 83 40 27 0 0
-1.2976 -0.6756 -15.7997 -0.274 -0.764 0.584 96 58 44 0 0
-1.4829 -0.4390 -16.7013 -0.526 -0.830 0.187 110 112 114 0 0
-1.9121 1.4487 -12.3664 0.047 -0.381 0.923 125 52 35 0 0
-1.2813 -0.0795 -12.6011 0.205 -0.293 0.934 128 46 23 0 0
-1.2706 -0.1068 -12.6115 0.112 -0.304 0.946 134 52 29 0 0
-1.1119 -0.4862 -12.6482 0.236 -0.361 0.902 128 50 30 0 0
-1.0645 -0.6105 -12.7074 0.156 -0.540 0.827 127 48 28 0 0
-1.0621 -0.6216 -12.7323 0.205 -0.491 0.847 133 53 38 0 0
-1.2466 -0.4230 -13.7821 -0.094 -0.853 0.513 10 2 1 0 0
-1.3390 -0.6535 -15.7925 -0.331 -0.742 0.583 97 58 46 0 0
-1.9805 1.5417 -12.3433 -0.021 -0.344 0.939 121 48 29 0 0
-1.7755 1.0444 -12.4273 -0.013 -0.294 0.956 126 48 28 0 0
-1.7437 0.9751 -12.4049 0.303 -0.072 0.950 126 48 28 0 0
-1.5787 0.5659 -12.5125 0.296 -0.517 0.803 128 46 25 0 0
-1.5705 0.5432 -12.5280 0.293 -0.462 0.837 130 48 27 0 0
-1.5604 0.5170 -12.5403 0.266 -0.224 0.938 125 43 22 0 0
-1.3359 -0.0123 -12.5643 0.127 -0.685 0.718 131 49 27 0 0
-1.3267 -0.0366 -12.5774 0.167 -0.730 0.663 130 48 26 0 0
-1.3228 -0.0509 -12.5996 -0.077 -0.478 0.875 136 54 32 0 0
-1.3082 -0.0856 -12.6033 0.086 -0.512 0.855 134 52 29 0 0
-1.2988 -0.1105 -12.6158 -0.066 -0.503 0.862 139 57 33 0 0
-1.2870 -0.1399 -12.6242 0.107 -0.160 0.981 134 52 28 0 0
-1.1491 -0.4589 -12.6112 0.254 -0.459 0.852 127 49 27 0 0
-1.0008 -0.8421 -12.7767 0.044 -0.658 0.752 103 43 17 0 0
-1.0025 -0.8455 -12.8091 0.280 -0.154 0.948 76 17 6 0 0
-1.2857 -0.4011 -13.7748 -0.015 -0.922 0.386 8 2 2 0 0
-1.2795 -0.4201 -13.7942 -0.006 -0.813 0.582 36 18 12 0 0
-1.2630 -0.4584 -13.7938 0.015 -0.430 0.903 65 31 17 0 0
-2.0093 1.5361 -12.3459 -0.081 -0.305 0.949 121 48 29 0 0
-1.9592 1.4175 -12.3554 0.145 -0.216 0.966 120 47 30 0 0
-1.9186 1.3042 -12.4378 -0.433 -0.402 0.807 124 51 32 0 0
-1.7418 0.8908 -12.4462 0.407 -0.447 0.797 127 47 24 0 0
-1.6686 0.7145 -12.4721 0.210 -0.108 0.972 127 46 24 0 0
-1.6663 0.7034 -12.4976 0.073 -0.293 0.953 129 47 26 0 0
-1.6458 0.6567 -12.4928 -0.021 -0.348 0.937 127 45 24 0 0
-1.6341 0.6273 -12.5026 -0.089 -0.431 0.898 127 45 24 0 0
-1.3609 -0.0092 -12.5048 0.522 -0.230 0.821 129 47 25 0 0
-1.3681 -0.0017 -12.5463 0.070 -0.307 0.949 128 46 24 0 0
-1.3645 -0.0154 -12.5691 0.137 -0.587 0.798 132 50 28 0 0
-1.3532 -0.0438 -12.5786 0.167 -0.730 0.663 134 52 30 0 0
-1.3472 -0.0621 -12.5971 0.042 -0.479 0.877 136 54 32 0 0
-1.3348 -0.0925 -12.6047 0.086 -0.512 0.855 131 49 26 0 0
-1.3270 -0.1143 -12.6201 -0.066 -0.503 0.862 133 50 27 0 0
-1.1558 -0.5163 -12.6357 0.121 -0.198 0.973 121 43 23 0 0
-1.1330 -0.5732 -12.6526 0.305 -0.322 0.896 117 38 22 0 0
-1.0294 -0.8373 -12.7538 0.007 -0.606 0.795 103 45 18 0 0
-1.2891 -0.4683 -13.7927 0.253 -0.257 0.933 54 15 6 0 0
-1.1951 -0.6884 -13.7977 -0.053 -0.416 0.908 77 16 1 0 0
-1.9942 1.4243 -12.3678 -0.154 -0.464 0.872 121 48 31 0 0
-1.9836 1.3969 -12.3806 -0.154 -0.464 0.872 120 47 30 0 0
-1.6857 0.6811 -12.4860 0.257 -0.693 0.674 128 46 25 0 0
-1.6738 0.6512 -12.4954 -0.021 -0.348 0.937 125 43 22 0 0
-1.6638 0.6252 -12.5082 0.121 -0.232 0.965 125 43 22 0 0
-1.3543 -0.1198 -12.6228 -0.227 -0.591 0.774 132 47 26 0 0
-1.1949 -0.4851 -12.6024 -0.047 -0.365 0.930 126 48 30 0 0
-1.1610 -0.5697 -12.6285 0.477 -0.523 0.706 117 38 21 0 0
-1.0566 -0.8685 -12.8747 -0.122 -0.728 0.675 98 38 24 0 0
-1.3301 -0.4430 -13.7890 -0.027 -0.570 0.821 48 12 7 0 0
-1.8372 0.9959 -12.3396 0.594 -0.394 0.701 124 46 25 0 0
-1.4039 -0.0423 -12.4902 0.274 -0.197 0.941 128 46 24 0 0
-1.3737 -0.1269 -12.5538 0.509 -0.508 0.695 139 57 33 0 0
-1.3636 -0.1530 -12.5652 0.440 -0.472 0.764 139 57 33 0 0
-1.2055 -0.8504 -13.9977 -0.273 -0.731 0.625 73 35 26 0 0
-2.0385 1.3741 -12.4111 0.366 -0.605 0.707 122 49 32 0 0
-2.0344 1.3592 -12.4338 0.306 -0.736 0.603 121 50 32 0 0
-1.6853 0.5409 -12.4857 0.172 -0.448 0.877 124 41 20 0 0
-1.2780 -0.4270 -12.6019 -0.075 -0.496 0.865 123 46 27 0 0
-1.4071 -0.4020 -13.7715 -0.125 -0.084 0.989 58 16 6 0 0
-1.2379 -0.8485 -14.0094 -0.301 -0.618 0.726 70 31 21 0 0
-1.2378 -0.8710 -14.1045 -0.474 -0.846 0.245 105 65 54 0 0
-2.0053 1.2348 -12.3753 0.458 -0.010 0.889 121 47 28 0 0
-1.9397 1.0875 -12.3596 0.185 -0.421 0.888 121 44 25 0 0
-1.7204 0.5560 -12.4711 0.172 -0.448 0.877 129 47 26 0 0
-1.7114 0.5318 -12.4853 0.172 -0.448 0.877 128 47 26 0 0
-1.4082 -0.1827 -12.5535 0.490 -0.558 0.669 129 48 24 0 0
-1.2176 -0.6382 -12.6227 0.050 -0.707 0.706 133 60 43 0 0
-2.1087 1.3874 -12.4358 0.194 -0.609 0.769 121 48 31 0 0
-2.1021 1.3677 -12.4549 -0.025 -0.746 0.665 121 49 30 0 0
-1.9671 1.0799 -12.3605 -0.142 -0.624 0.769 122 45 26 0 0
-1.7483 0.5503 -12.4736 0.119 -0.216 0.969 124 43 21 0 0
-1.7353 0.5185 -12.4813 0.368 -0.117 0.922 126 45 24 0 0
-1.5642 0.1106 -12.5445 0.183 -0.442 0.878 129 47 25 0 0
-1.4316 -0.1955 -12.5496 0.048 -0.807 0.589 136 54 30 0 0
-1.4135 -0.2434 -12.5760 0.156 -0.381 0.911 129 45 24 0 0
-1.3463 -0.4042 -12.6035 -0.117 -0.340 0.933 118 40 20 0 0
-1.2718 -0.5716 -12.5878 0.071 -0.322 0.944 121 45 24 0 0
-2.1350 1.3771 -12.4346 0.110 -0.478 0.871 121 48 30 0 0
-2.1322 1.3646 -12.4594 -0.025 -0.746 0.665 120 47 28 0 0
-2.1214 1.3369 -12.4720 0.110 -0.698 0.708 120 47 28 0 0
-1.7866 0.5715 -12.4642 0.119 -0.216 0.969 129 49 26 0 0
-1.7787 0.5495 -12.4803 0.347 -0.173 0.922 133 52 30 0 0
-1.7653 0.5171 -12.4874 0.226 -0.164 0.960 130 49 28 0 0
-1.6408 0.2255 -12.5136 0.292 -0.635 0.715 129 47 25 0 0
-1.6348 0.2071 -12.5324 0.292 -0.635 0.715 125 43 21 0 0
-1.6027 0.1256 -12.5655 -0.011 -0.375 0.927 132 50 28 0 0
-1.4060 -0.3347 -12.6053 -0.156 -0.406 0.901 127 49 27 0 0
-2.1898 1.4494 -12.3604 0.331 -0.590 0.736 122 49 32 0 0
-2.1831 1.4295 -12.3793 0.331 -0.590 0.736 121 48 31 0 0
-2.1571 1.3515 -12.4559 -0.109 -0.617 0.780 122 49 30 0 0
-2.0484 1.1297 -12.3460 0.272 0.046 0.961 121 46 27 0 0
-1.9371 0.8545 -12.4317 -0.005 -0.021 1.000 126 47 28 0 0
-1.4095 -0.7270 -13.9795 -0.370 -0.699 0.612 77 35 26 0 0
-1.4029 -0.7467 -13.9981 -0.370 -0.699 0.612 72 33 24 0 0
-2.1832 1.3406 -12.4543 0.080 -0.574 0.815 119 46 27 0 0
-2.1618 1.2928 -12.4505 0.605 -0.429 0.671 119 46 27 0 0
-1.9513 0.8152 -12.4409 -0.028 -0.168 0.985 129 51 31 0 0
-1.8229 0.5091 -12.4954 0.168 -0.585 0.793 125 45 22 0 0
-1.6872 0.1905 -12.5329 0.470 -0.308 0.827 130 48 26 0 0
-1.6658 0.1363 -12.5550 0.467 -0.157 0.870 124 42 20 0 0
-1.4440 -0.7218 -13.9945 -0.297 -0.751 0.590 72 33 26 0 0
-2.2250 1.3668 -12.4475 0.092 -0.640 0.763 119 46 27 0 0
-2.2075 1.3264 -12.4499 0.605 -0.300 0.738 119 46 27 0 0
-1.5027 -0.3090 -12.5820 0.127 -0.128 0.984 118 40 20 0 0
-1.4669 -0.4036 -12.6355 -0.077 -0.541 0.837 123 46 30 0 0
-1.4503 -0.4485 -12.6644 0.351 -0.059 0.935 127 53 39 0 0
-1.5781 -0.4286 -13.7602 -0.115 -0.479 0.870 40 7 3 0 0
-1.5696 -0.4516 -13.7755 -0.180 -0.686 0.705 58 10 3 0 0
-1.4934 -0.6742 -13.9753 -0.324 -0.572 0.753 79 37 29 0 0
-1.4862 -0.6950 -13.9928 -0.402 -0.651 0.643 74 36 29 0 0
-1.8395 -0.3370 -15.7953 -0.090 -0.872 0.482 94 69 65 0 0
-1.7475 0.1959 -12.5176 0.207 -0.324 0.923 129 47 25 0 0
-1.7312 0.1583 -12.5195 0.277 -0.174 0.945 130 48 26 0 0
-1.7053 0.0959 -12.5343 0.072 -0.285 0.956 128 46 24 0 0
-1.4829 -0.4368 -12.6478 0.294 -0.417 0.860 129 54 40 0 0
-1.4660 -0.4750 -12.6474 0.147 -0.446 0.883 132 60 47 0 0
-1.5500 -0.6139 -13.9693 -0.337 -0.391 0.856 89 40 19 0 0
-1.5377 -0.6440 -13.9772 -0.257 -0.395 0.882 76 35 22 0 0
-1.5252 -0.6741 -13.9849 -0.154 -0.690 0.707 74 37 26 0 0
-1.8916 -0.2885 -15.7725 -0.332 -0.783 0.527 91 57 48 0 0
-1.8723 -0.3401 -15.8031 0.128 -0.927 0.352 80 67 66 0 0
-2.1909 1.1756 -12.3422 -0.499 -0.543 0.676 119 46 27 0 0
-2.1785 1.1378 -12.3809 0.042 -0.596 0.802 120 47 28 0 0
-2.0324 0.7989 -12.4142 0.674 -0.024 0.738 124 45 25 0 0
-1.8444 0.3546 -12.4890 0.228 -0.229 0.946 126 45 23 0 0
-1.8327 0.3257 -12.4988 0.228 -0.229 0.946 132 52 29 0 0
-1.7300 0.0850 -12.5322 0.029 -0.427 0.904 128 47 25 0 0
-1.5580 -0.3183 -12.5889 -0.178 -0.275 0.945 120 42 22 0 0
-1.5088 -0.4446 -12.6484 0.532 -0.239 0.812 133 59 46 0 0
-1.4827 -0.5069 -12.6608 0.147 -0.446 0.883 144 66 44 0 0
-1.5802 -0.6169 -13.9755 -0.390 -0.555 0.735 77 37 22 0 0
-1.5686 -0.6454 -13.9851 -0.110 -0.353 0.929 72 34 25 0 0
-2.2072 1.1397 -12.3547 -0.022 -0.797 0.603 120 47 28 0 0
-2.2072 1.1323 -12.3835 0.042 -0.596 0.802 120 47 28 0 0
-2.1838 1.0814 -12.3767 0.343 0.075 0.936 120 46 27 0 0
-1.8687 0.3426 -12.4860 0.228 -0.229 0.946 125 44 22 0 0
-1.8562 0.3122 -12.4945 0.225 -0.186 0.956 129 49 26 0 0
-1.8153 0.2149 -12.5144 0.278 -0.090 0.956 127 47 24 0 0
-1.8048 0.1882 -12.5259 0.285 -0.175 0.942 124 44 21 0 0
-1.6088 -0.2808 -12.6314 0.504 -0.705 0.499 121 43 23 0 0
-1.5628 -0.3867 -12.6394 0.304 -0.607 0.735 122 45 31 0 0
-2.2373 1.1369 -12.3595 -0.022 -0.797 0.603 120 47 28 0 0
-2.1766 0.9946 -12.3822 0.314 -0.139 0.939 123 46 26 0 0
-2.0173 0.6184 -12.4509 0.230 -0.536 0.812 124 44 21 0 0
-1.8066 0.1277 -12.5151 0.042 -0.317 0.947 125 45 22 0 0
-1.7952 0.0994 -12.5251 0.042 -0.317 0.947 124 42 21 0 0
-1.7835 0.0707 -12.5346 0.223 -0.671 0.708 124 42 21 0 0
-1.6060 -0.3485 -12.6119 0.212 -0.467 0.858 122 45 27 0 0
-1.5493 -0.5547 -12.9185 -0.628 -0.631 0.456 104 60 49 0 0
-2.0975 0.7384 -12.4200 -0.053 -0.305 0.951 124 45 23 0 0
-2.0849 0.7078 -12.4291 -0.053 -0.305 0.951 122 41 20 0 0
-2.0578 0.6282 -12.5016 0.140 -0.138 0.980 124 44 21 0 0
-2.0064 0.5262 -12.4495 -0.244 -0.475 0.846 124 44 21 0 0
-1.8526 0.1629 -12.5187 0.384 -0.173 0.907 126 46 23 0 0
-1.8255 0.0988 -12.5321 0.322 -0.218 0.921 124 44 22 0 0
-1.8008 0.0390 -12.5491 -0.116 -0.551 0.827 131 52 31 0 0
-1.6185 -0.3882 -12.6183 0.357 -0.452 0.818 131 55 35 0 0
-1.5612 -0.5509 -12.7501 -0.364 -0.860 0.357 69 17 10 0 0
-1.9121 0.2301 -12.5153 -0.126 -0.287 0.950 128 48 25 0 0
-1.8757 0.1490 -12.5139 0.371 -0.129 0.920 127 47 24 0 0
-1.8684 0.1283 -12.5307 0.282 -0.326 0.902 126 46 23 0 0
-1.5999 -0.5509 -12.8300 -0.348 -0.895 0.279 87 30 19 0 0
-1.5962 -0.5650 -12.8525 -0.302 -0.930 0.211 101 55 45 0 0
-2.0777 0.5502 -12.4497 -0.156 -0.316 0.936 124 44 21 0 0
-2.0764 0.5403 -12.4763 0.208 -0.353 0.912 124 44 21 0 0
-2.0500 0.4772 -12.4922 0.754 -0.417 0.507 129 49 26 0 0
-1.8776 0.0818 -12.5321 0.084 -0.481 0.872 128 47 27 0 0
-1.8712 0.0627 -12.5503 0.177 -0.632 0.754 124 46 24 0 0
-1.8604 0.0356 -12.5613 0.080 -0.169 0.982 127 49 27 0 0
-1.6412 -0.5163 -12.7991 -0.422 -0.849 0.318 84 22 11 0 0
-1.6348 -0.5431 -12.8457 -0.274 -0.883 0.381 99 52 42 0 0
-1.7856 -0.5043 -13.9824 -0.244 -0.687 0.685 79 40 30 0 0
-2.2047 -0.0457 -15.8036 -0.377 -0.423 0.824 94 62 55 0 0
-2.1917 -0.0773 -15.8128 -0.484 -0.328 0.811 92 66 61 0 0
-2.1077 0.5480 -12.4552 -0.138 -0.396 0.908 121 40 18 0 0
-2.1018 0.5297 -12.4746 0.208 -0.353 0.912 122 42 19 0 0
-1.9625 0.2095 -12.5122 -0.176 -0.332 0.927 128 48 25 0 0
-1.8916 0.0438 -12.5411 0.051 -0.833 0.552 130 52 30 0 0
-1.6708 -0.5333 -12.8632 -0.454 -0.847 0.276 103 67 59 0 0
-1.8222 -0.4965 -14.0000 -0.415 -0.719 0.558 77 32 21 0 0
-2.2490 -0.0209 -15.7978 -0.337 -0.669 0.662 95 64 57 0 0
-2.2418 -0.0424 -15.8187 -0.354 -0.542 0.763 88 64 58 0 0
-2.1295 0.5233 -12.4765 0.252 -0.357 0.900 126 45 24 0 0
-1.7022 -0.4860 -12.7007 -0.389 -0.857 0.338 64 15 4 0 0
-1.7064 -0.5167 -12.8511 -0.414 -0.868 0.272 103 69 60 0 0
-2.2980 0.0117 -15.8009 -0.299 -0.569 0.766 96 66 61 0 0
-2.2888 -0.0133 -15.8179 -0.277 -0.501 0.820 87 63 59 0 0
-2.1613 0.5321 -12.4564 0.424 -0.235 0.874 122 44 22 0 0
-2.1508 0.5055 -12.4687 0.424 -0.235 0.874 126 48 26 0 0
-2.1236 0.4488 -12.4550 0.719 -0.374 0.586 119 41 19 0 0
-2.0130 0.1967 -12.4809 -0.024 -0.614 0.789 127 46 25 0 0
-2.0382 -0.0835 -13.7319 -0.091 -0.383 0.919 33 4 0 0 0
-2.0151 -0.1405 -13.7530 0.048 -0.397 0.917 35 5 1 0 0
-1.9436 -0.4320 -14.2477 -0.572 -0.726 0.382 126 79 68 0 0
-1.9457 -0.4369 -14.2832 -0.521 -0.798 0.302 126 86 78 0 0
-2.3457 0.0421 -15.8013 -0.107 0.017 0.994 100 69 61 0 0
-2.3333 0.0116 -15.8122 -0.204 -0.532 0.822 86 64 58 0 0
-2.1876 0.5230 -12.4560 0.174 -0.223 0.959 119 41 21 0 0
-2.0271 0.1513 -12.5186 0.165 -0.280 0.946 123 43 22 0 0
-1.7905 -0.4147 -12.6765 -0.090 -0.506 0.858 115 54 21 0 0
-1.7840 -0.4340 -12.6942 -0.414 -0.787 0.458 72 19 4 0 0
-1.7864 -0.4374 -12.7267 -0.233 -0.851 0.470 65 16 9 0 0
-1.9970 -0.3879 -14.2636 -0.470 -0.711 0.523 129 81 70 0 0
-1.9912 -0.4064 -14.2846 -0.043 -0.764 0.644 124 85 76 0 0
-2.3896 0.0659 -15.7942 -0.045 0.261 0.964 97 66 61 0 0
-2.3707 0.0244 -15.7925 0.066 0.218 0.974 77 55 52 0 0
-1.8290 -0.4008 -12.6975 -0.339 -0.774 0.535 77 22 10 0 0
-1.8198 -0.4248 -12.7107 -0.414 -0.787 0.458 64 16 6 0 0
-2.1138 -0.0565 -13.7378 -0.239 -0.412 0.879 34 7 3 0 0
-2.0414 -0.3594 -14.2627 -0.345 -0.699 0.626 128 84 75 0 0
-2.0410 -0.3687 -14.2936 -0.189 -0.551 0.813 114 80 73 0 0
-2.0308 -0.3949 -14.3066 -0.358 -0.929 0.094 95 76 70 0 0
-2.4455 0.1098 -15.8098 -0.157 0.096 0.983 88 62 60 0 0
-2.6659 1.4723 -12.3444 -0.077 -0.184 0.980 119 51 32 0 0
-2.4945 1.0693 -12.4384 0.564 -0.509 0.651 119 44 25 0 0
-2.2732 0.5795 -12.4490 0.242 -0.565 0.789 123 44 24 0 0
-2.2658 0.5586 -12.4662 0.242 -0.565 0.789 123 44 24 0 0
-2.2590 0.5386 -12.4842 0.210 -0.617 0.758 121 43 23 0 0
-1.8589 -0.4022 -12.7041 -0.392 -0.820 0.417 72 18 14 0 0
-2.0603 -0.3747 -14.2158 0.515 -0.152 0.844 119 82 74 0 0
-2.0700 -0.3668 -14.2646 0.625 -0.424 0.655 101 75 68 0 0
-2.7818 1.6547 -12.3557 0.282 -0.161 0.946 114 47 31 0 0
-2.6955 1.4675 -12.3477 -0.077 -0.184 0.980 116 47 30 0 0
-2.5149 1.0488 -12.4287 0.336 -0.694 0.637 119 44 25 0 0
-2.4967 1.0084 -12.4305 0.310 -0.237 0.921 119 44 25 0 0
-2.2900 0.5458 -12.4626 0.187 -0.856 0.483 122 43 23 0 0
-2.2279 0.4121 -12.4531 -0.216 -0.547 0.809 119 40 23 0 0
-2.2193 0.3890 -12.4681 -0.201 -0.448 0.871 120 42 24 0 0
-2.1251 0.1677 -12.5207 -0.214 -0.472 0.855 122 44 23 0 0
-2.0070 -0.1183 -12.6179 -0.065 -0.765 0.640 121 44 25 0 0
-1.9296 -0.2931 -12.6353 -0.132 -0.205 0.970 149 74 40 0 0
-1.9173 -0.3224 -12.6438 -0.138 -0.332 0.933 147 76 41 0 0
-1.9019 -0.3728 -12.7039 -0.437 -0.816 0.379 67 16 9 0 0
-2.1211 -0.3098 -14.2126 -0.270 -0.962 -0.024 110 74 65 0 0
-2.1240 -0.3135 -14.2492 -0.401 -0.898 0.182 108 80 71 0 0
-2.5466 0.1788 -15.8194 -0.414 -0.201 0.888 69 50 50 0 0
-2.7959 1.6136 -12.3653 0.173 -0.022 0.985 123 56 40 0 0
-2.5225 0.9975 -12.4287 0.616 -0.135 0.776 120 45 26 0 0
-2.4475 0.8403 -12.4034 0.223 -0.323 0.920 120 45 26 0 0
-2.4257 0.7936 -12.3994 0.614 -0.365 0.700 120 45 26 0 0
-2.3253 0.5604 -12.4475 -0.052 -0.645 0.762 121 43 24 0 0
-2.3179 0.5395 -12.4647 -0.052 -0.645 0.762 120 41 23 0 0
-2.1459 0.1495 -12.5123 -0.025 -0.606 0.795 121 43 21 0 0
-2.0869 0.0146 -12.5332 0.374 -0.677 0.635 117 39 19 0 0
-2.0813 -0.0031 -12.5527 0.319 -0.575 0.753 119 41 21 0 0
-2.0419 -0.1035 -12.6037 -0.065 -0.765 0.640 120 43 24 0 0
-1.9685 -0.2711 -12.6279 -0.066 -0.300 0.952 148 73 39 0 0
-1.9559 -0.3008 -12.6360 -0.233 -0.475 0.849 152 78 44 0 0
-1.9420 -0.3488 -12.6985 -0.515 -0.773 0.371 68 17 12 0 0
-2.5484 0.9867 -12.4270 0.592 -0.370 0.716 121 46 27 0 0
-2.3413 0.5333 -12.4317 -0.188 -0.472 0.862 121 44 26 0 0
-2.3307 0.5066 -12.4440 -0.188 -0.472 0.862 120 43 25 0 0
-2.1736 0.1436 -12.5146 0.137 -0.701 0.700 120 42 20 0 0
-2.1144 0.0164 -12.5072 -0.027 -0.798 0.603 118 40 20 0 0
-2.1088 -0.0012 -12.5267 -0.146 -0.672 0.726 119 41 21 0 0
-2.2053 0.1446 -12.5231 0.482 -0.425 0.766 119 41 21 0 0
-2.8330 1.4898 -12.3585 0.749 -0.318 0.581 113 46 29 0 0
-2.5861 0.9407 -12.4035 0.443 -0.417 0.794 119 44 25 0 0
-2.4413 0.6141 -12.4451 0.269 -0.291 0.918 120 45 26 0 0
-2.3996 0.5250 -12.4394 -0.164 -0.623 0.765 118 43 24 0 0
-2.2696 0.2183 -12.5251 0.051 -0.275 0.960 119 40 23 0 0
-2.2305 0.1342 -12.5215 0.305 -0.656 0.691 120 41 24 0 0
-2.4428 -0.0205 -14.6806 -0.447 -0.749 0.488 104 56 44 0 0
-2.4679 0.6134 -12.4169 -0.002 -0.739 0.674 118 43 24 0 0
-2.4627 0.5962 -12.4374 0.069 -0.837 0.543 115 40 21 0 0
-2.4133 0.4778 -12.4766 0.126 -0.510 0.851 114 38 20 0 0
-2.2988 0.2145 -12.5294 -0.055 -0.311 0.949 118 39 22 0 0
-2.2876 0.1871 -12.5406 -0.192 -0.371 0.909 116 37 20 0 0
-2.1245 -0.1911 -12.6261 -0.169 -0.503 0.848 158 89 56 0 0
-2.6682 0.9887 -12.3875 0.238 -0.594 0.768 116 43 26 0 0
-2.5311 0.7008 -12.3580 0.267 -0.513 0.816 118 43 24 0 0
-2.5234 0.6793 -12.3749 0.132 -0.432 0.892 118 43 24 0 0
-2.4653 0.5295 -12.4581 -0.121 -0.434 0.893 117 42 23 0 0
-2.4459 0.4797 -12.4857 0.222 -0.670 0.708 116 40 22 0 0
-2.1449 -0.2173 -12.6455 -0.407 -0.842 0.354 83 27 10 0 0
-2.4488 0.1378 -13.6888 0.342 -0.602 0.721 25 4 1 0 0
-2.5342 0.6431 -12.3518 0.171 -0.504 0.846 117 42 23 0 0
-2.5530 0.6594 -12.4354 -0.091 -0.621 0.779 118 43 24 0 0
-2.2110 -0.1248 -12.5955 0.129 -0.336 0.933 152 80 53 0 0
-2.2048 -0.1436 -12.6139 -0.006 -0.522 0.853 154 87 53 0 0
-2.5830 0.6562 -12.4401 0.042 -0.631 0.775 117 42 23 0 0
-2.3542 0.1400 -12.5218 -0.145 -0.611 0.779 116 40 25 0 0
-2.3385 0.1051 -12.5261 0.101 -0.445 0.890 122 46 30 0 0
-2.2450 -0.1118 -12.5795 0.076 -0.532 0.843 152 80 56 0 0
-2.2396 -0.1292 -12.5992 -0.070 -0.652 0.755 162 94 60 0 0
-2.5290 0.4843 -12.4065 0.269 -0.553 0.788 117 42 23 0 0
-2.5198 0.4603 -12.4211 0.091 -0.504 0.859 119 44 25 0 0
-2.2818 -0.0938 -12.5680 0.537 -0.607 0.586 150 80 55 0 0
-2.2628 -0.1510 -12.6228 -0.353 -0.810 0.469 93 39 12 0 0
-2.3577 -0.0751 -13.0561 -0.587 -0.807 -0.056 31 9 3 0 0
-2.3177 -0.0777 -12.5549 0.193 -0.774 0.603 151 81 60 0 0
-2.5731 0.0980 -13.8028 -0.085 -0.822 0.562 95 55 41 0 0
-2.5678 0.0801 -13.8245 -0.143 -0.775 0.616 71 34 21 0 0
-2.8739 1.0914 -12.4026 0.069 -0.491 0.869 115 42 25 0 0
-2.5521 0.3827 -12.4746 0.032 -0.434 0.901 114 38 22 0 0
-2.5064 0.2800 -12.4910 0.404 -0.550 0.731 115 38 22 0 0
-2.4891 0.2340 -12.5214 0.295 -0.720 0.628 115 39 23 0 0
-2.5927 0.1388 -13.5789 -0.112 -0.988 0.107 71 34 20 0 0
-2.6077 0.1002 -13.8140 0.251 -0.793 0.556 60 22 13 0 0
-2.6026 0.0828 -13.8362 0.083 -0.622 0.778 82 44 28 0 0
-2.9434 1.1634 -12.4335 -0.097 -0.320 0.943 115 41 24 0 0
-2.9023 1.0846 -12.4043 0.069 -0.491 0.869 116 43 26 0 0
-2.6547 0.5533 -12.4174 0.109 -0.150 0.983 112 36 18 0 0
-2.5355 0.2843 -12.4671 0.081 -0.493 0.866 113 37 21 0 0
-2.5333 0.2723 -12.4918 0.146 -0.876 0.460 116 39 23 0 0
-2.5170 0.2363 -12.4956 0.107 -0.670 0.734 114 38 22 0 0
-2.5182 0.2299 -12.5254 0.553 -0.304 0.775 112 40 22 0 0
-2.6296 0.0724 -13.8350 0.231 -0.591 0.773 104 66 36 0 0
-2.6252 0.0561 -13.8583 0.249 -0.671 0.699 115 78 50 0 0
-2.6604 0.4922 -12.4429 0.566 -0.633 0.528 117 42 23 0 0
-2.5931 0.3449 -12.4568 0.169 -0.201 0.965 111 35 19 0 0
-2.5631 0.2776 -12.4688 -0.136 -0.521 0.843 110 35 19 0 0
-2.5533 0.2527 -12.4823 -0.087 -0.531 0.843 113 37 21 0 0
-2.5449 0.2301 -12.4978 0.250 -0.430 0.867 115 41 24 0 0
-2.4752 0.0542 -12.5901 0.001 -0.327 0.945 144 77 56 0 0
-2.6628 0.0816 -13.8138 0.408 -0.756 0.511 109 66 36 0 0
-2.6572 0.0355 -13.9262 -0.114 -0.622 0.775 65 28 19 0 0
-2.9321 1.0082 -12.4263 0.004 -0.093 0.996 114 42 23 0 0
-2.8556 0.8530 -12.4033 0.196 -0.678 0.709 115 40 23 0 0
-2.8454 0.8272 -12.4169 0.537 -0.483 0.692 118 43 27 0 0
-2.6259 0.3469 -12.4660 0.340 -0.171 0.925 112 36 20 0 0
-2.9010 0.2809 -14.5921 0.018 -1.000 -0.006 111 59 41 0 0
-2.9091 0.2843 -14.6375 -0.020 -1.000 -0.007 104 50 35 0 0
-2.9814 1.0540 -12.4008 0.499 -0.555 0.665 115 43 26 0 0
-2.8806 0.8410 -12.4006 0.368 -0.680 0.635 114 41 24 0 0
-2.8757 0.8240 -12.4216 0.368 -0.680 0.635 115 42 25 0 0
-2.7700 0.6035 -12.4119 -0.273 -0.520 0.809 114 38 21 0 0
-2.7358 0.5291 -12.4189 -0.131 -0.390 0.912 115 40 22 0 0
-2.7469 0.1377 -13.7690 -0.170 -0.973 0.157 94 59 37 0 0
-2.7483 0.1213 -13.8316 -0.303 -0.889 0.342 104 71 52 0 0
-2.7454 0.1074 -13.8574 -0.456 -0.733 0.506 98 66 53 0 0
-2.9163 0.2790 -14.4750 -0.374 -0.926 0.053 108 59 42 0 0
-2.6988 0.3798 -12.4390 0.106 -0.271 0.957 109 33 19 0 0
-2.7246 0.1756 -13.2755 -0.163 -0.979 0.126 73 45 34 0 0
-3.0017 0.9444 -12.4660 0.068 -0.497 0.865 112 41 24 0 0
-2.8651 0.6555 -12.4707 0.050 -0.501 0.864 111 39 24 0 0
-2.7837 0.5113 -12.3834 0.033 -0.770 0.637 111 39 24 0 0
-2.7533 0.4349 -12.4235 -0.052 -0.400 0.915 110 39 21 0 0
-2.7419 0.4073 -12.4350 -0.052 -0.400 0.915 110 37 20 0 0
-2.7361 0.3890 -12.4544 0.099 -0.610 0.787 111 36 21 0 0
-2.6512 0.1792 -12.5543 0.671 -0.148 0.726 127 57 41 0 0
-2.6379 0.1487 -12.5629 0.565 -0.054 0.823 140 74 53 0 0
-2.6225 0.1146 -12.5681 0.156 -0.507 0.848 153 88 57 0 0
-2.7550 0.1809 -13.2511 -0.076 -0.981 0.179 85 52 38 0 0
-2.7592 0.1787 -13.2868 -0.027 -0.982 0.188 86 54 40 0 0
-2.8192 0.1465 -13.7956 -0.048 -0.998 0.029 93 65 49 0 0
-3.0799 1.0734 -12.3681 0.133 -0.433 0.891 111 41 25 0 0
-3.0301 0.9376 -12.4676 0.068 -0.497 0.865 112 42 24 0 0
-3.0187 0.9099 -12.4799 0.299 -0.408 0.863 113 42 24 0 0
-2.8948 0.6514 -12.4748 0.462 -0.513 0.723 110 38 23 0 0
-2.7437 0.3228 -12.5106 0.248 -0.683 0.687 110 38 23 0 0
-2.6764 0.1772 -12.5247 0.467 -0.531 0.707 127 56 41 0 0
-2.6595 0.1320 -12.5557 -0.057 -0.800 0.597 152 84 53 0 0
-2.7982 0.2069 -13.2462 0.211 -0.972 0.108 85 53 41 0 0
-2.7987 0.1986 -13.2761 0.202 -0.946 0.255 86 53 41 0 0
-2.7993 0.1905 -13.3064 0.064 -0.954 0.293 88 57 44 0 0
-2.8060 0.1922 -13.3458 0.027 -0.946 0.322 90 61 47 0 0
-2.7950 0.1651 -13.3582 0.274 -0.675 0.685 94 65 51 0 0
-2.8756 0.2304 -13.6903 -0.440 -0.679 0.588 99 70 50 0 0
-4.0499 2.9947 -12.5079 -0.351 0.242 0.905 136 119 110 0 0
-2.7624 0.3012 -12.4993 0.142 -0.064 0.988 107 37 23 0 0
-2.9244 0.2645 -13.6931 -0.151 -0.833 0.533 102 69 54 0 0
-2.9201 0.2482 -13.7164 -0.130 -0.677 0.724 105 72 57 0 0
-3.0231 0.8009 -12.4389 0.239 -0.880 0.410 112 44 25 0 0
-2.7857 0.2872 -12.4946 0.116 -0.060 0.991 109 40 25 0 0
-2.9667 0.2880 -13.6855 -0.171 -0.819 0.547 98 63 49 0 0
-2.9637 0.2737 -13.7107 0.087 -0.644 0.760 99 64 53 0 0
-2.9530 0.2470 -13.7241 -0.097 -0.619 0.780 105 72 61 0 0
-4.0681 2.8982 -12.4870 -0.314 0.224 0.923 127 105 99 0 0
-3.0024 0.3009 -13.6676 -0.443 -0.726 0.526 85 50 41 0 0
-2.9986 0.2852 -13.6916 -0.027 -0.616 0.787 80 44 33 0 0
-2.9930 0.2668 -13.7130 0.267 -0.396 0.878 96 63 44 0 0
-3.0979 0.8262 -12.4395 -0.065 -0.439 0.896 109 42 25 0 0
-3.0753 0.7713 -12.4642 0.223 -0.758 0.613 111 44 26 0 0
-2.9047 0.4036 -12.5046 0.427 0.071 0.901 105 36 22 0 0
-2.8788 0.2629 -12.7754 0.144 -0.963 0.228 86 37 34 0 0
-2.8799 0.2556 -12.8053 0.144 -0.963 0.228 94 51 44 0 0
-2.8810 0.2484 -12.8352 0.144 -0.963 0.228 114 81 73 0 0
-2.8855 0.2465 -12.8700 0.209 -0.971 0.119 114 85 80 0 0
-3.0554 0.3412 -13.6761 -0.363 -0.616 0.699 82 47 36 0 0
-3.0386 0.3048 -13.6802 -0.309 -0.539 0.784 91 54 46 0 0
-3.0294 0.2807 -13.6962 -0.074 -0.682 0.728 100 63 46 0 0
-3.1378 0.8473 -12.4291 -0.002 -0.598 0.802 109 43 26 0 0
-3.0998 0.7583 -12.4606 0.060 -0.355 0.933 106 39 22 0 0
-2.9142 0.2860 -12.7315 -0.069 -0.888 0.455 80 30 23 0 0
-2.9119 0.2731 -12.7562 -0.069 -0.888 0.455 89 38 32 0 0
-2.9095 0.2603 -12.7810 -0.069 -0.888 0.455 96 52 47 0 0
-2.9119 0.2551 -12.8127 0.182 -0.971 0.157 115 82 74 0 0
-3.0309 0.3438 -13.3025 -0.702 -0.712 0.010 34 7 4 0 0
-3.0754 0.3097 -13.6938 -0.111 -0.717 0.688 113 76 60 0 0
-3.0212 0.5241 -12.4817 0.176 -0.349 0.921 101 32 17 0 0
-3.0082 0.4940 -12.4913 0.147 -0.207 0.967 103 34 19 0 0
-3.1206 0.3278 -13.7201 0.288 -0.596 0.749 116 82 62 0 0
-3.0421 0.5058 -12.4735 -0.223 -0.536 0.815 104 37 22 0 0
-2.9750 0.2706 -12.7696 -0.486 -0.863 0.139 119 86 80 0 0
-3.2543 0.5435 -13.6995 0.139 -0.062 0.988 123 81 56 0 0
-3.2103 0.4449 -13.7234 0.535 0.038 0.844 86 49 41 0 0
-3.1587 0.3442 -13.7055 -0.147 -0.601 0.786 113 77 53 0 0
-4.0169 2.4955 -12.3315 -0.444 0.266 0.856 97 66 60 0 0
-4.0415 2.4607 -12.3834 -0.387 0.126 0.914 98 58 49 0 0
-3.0674 0.3233 -12.7963 -0.473 -0.869 0.144 113 88 81 0 0
-3.3457 0.5995 -13.6915 -0.099 -0.271 0.957 122 82 58 0 0
-3.2438 0.7283 -12.4724 -0.129 -0.675 0.726 103 35 22 0 0
-3.3921 0.6283 -13.6882 -0.099 -0.271 0.957 121 82 58 0 0
-4.1898 2.6003 -12.4654 -0.387 0.126 0.914 100 75 66 0 0
-3.3341 0.8482 -12.4740 0.140 -0.639 0.757 101 34 21 0 0
-3.2829 0.7478 -12.4607 0.182 -0.582 0.793 103 35 22 0 0
-3.1525 0.4756 -12.4776 -0.135 -0.337 0.932 125 55 34 0 0
-4.2345 2.6165 -12.4843 -0.323 0.093 0.942 116 95 87 0 0
-4.1928 2.5389 -12.4623 -0.323 0.093 0.942 95 64 56 0 0
-3.3622 0.8407 -12.4751 0.140 -0.639 0.757 101 34 21 0 0
-3.3120 0.7421 -12.4634 0.120 -0.745 0.656 100 32 19 0 0
-3.1943 0.4998 -12.4704 -0.028 -0.282 0.959 124 58 36 0 0
-3.1779 0.4646 -12.4756 -0.276 -0.688 0.671 143 76 39 0 0
-3.7233 1.5241 -12.4362 0.290 -0.515 0.807 106 46 33 0 0
-3.3926 0.8462 -12.4516 0.309 -0.588 0.747 105 40 25 0 0
-3.3769 0.8119 -12.4584 0.195 -0.388 0.901 104 38 23 0 0
-3.3611 0.7774 -12.4650 -0.151 -0.616 0.773 102 35 20 0 0
-3.3447 0.7421 -12.4708 -0.059 -0.649 0.759 99 33 18 0 0
-3.5758 0.8035 -13.6818 -0.134 -0.270 0.953 107 52 31 0 0
-3.5602 0.7693 -13.6893 -0.134 -0.270 0.953 121 77 52 0 0
-3.4835 0.6104 -13.6976 -0.068 -0.319 0.945 94 54 42 0 0
-3.6421 1.2842 -12.4641 0.482 -0.489 0.727 107 45 29 0 0
-3.2911 0.4743 -12.7510 -0.586 -0.780 0.221 115 87 84 0 0
-3.5926 0.7659 -13.6948 -0.134 -0.270 0.953 122 86 64 0 0
-3.5423 0.6682 -13.6821 0.172 -0.238 0.956 78 41 35 0 0
-3.5315 0.6414 -13.6963 -0.006 -0.362 0.932 88 51 39 0 0
-3.4695 0.9108 -12.3431 0.093 -0.952 0.290 104 42 27 0 0
-3.4700 0.9022 -12.3712 0.093 -0.952 0.290 104 42 26 0 0
-3.4416 0.8198 -12.4443 0.593 -0.624 0.508 101 35 20 0 0
-3.4296 0.7820 -12.4837 0.109 -0.664 0.739 99 33 17 0 0
-3.7112 0.9462 -13.6739 -0.137 -0.437 0.889 62 16 6 0 0
-3.6676 0.8586 -13.6717 -0.064 -0.200 0.978 109 60 34 0 0
-3.5750 0.6654 -13.6882 0.021 -0.344 0.939 94 56 44 0 0
-3.5731 0.6523 -13.7153 -0.274 -0.574 0.772 115 78 59 0 0
-3.4607 0.7888 -12.4612 0.344 -0.557 0.756 98 32 19 0 0
-3.4505 0.7633 -12.4754 -0.047 -0.586 0.809 98 32 19 0 0
-4.4920 2.7594 -12.5892 -0.282 -0.067 0.957 210 209 206 0 0
-4.2071 2.2441 -12.4182 -0.365 0.139 0.921 100 55 48 0 0
-4.1626 2.1633 -12.3926 -0.310 0.150 0.939 102 53 45 0 0
-3.7943 0.9770 -13.6801 -0.261 -0.274 0.926 97 46 26 0 0
-3.7067 0.7916 -13.7056 -0.187 -0.285 0.940 90 57 49 0 0
