ply
format ascii 1.0
element vertex 706
property float x
property float y
property float z
property uchar diffuse_red
property uchar diffuse_green
property uchar diffuse_blue
end_header
1.3936703611704013 -1.2008372566072356 -13.681206796572988 154 91 61
1.4293904948646254 -1.1910236673570114 -13.685085825920968 115 50 27
1.4656436514008409 -1.180929759286823 -13.688275990452837 109 45 27
1.5015615279681116 -1.1709828273498406 -13.691735759429612 129 58 25
1.5229986078421005 -1.1681701114406193 -13.711225577523212 177 110 66
1.549778566052833 -1.1627145866015334 -13.72474207070694 194 140 104
1.587298895550318 -1.1519340167990608 -13.726181620801988 145 88 60
1.6188276335442566 -1.1441034565681591 -13.734243452483266 166 100 79
1.6568570152506963 -1.1330332180536766 -13.734902649668095 139 65 41
1.6872067088669152 -1.1257584636227262 -13.744129827185574 131 51 26
1.7765238126361957 -1.0891305218595815 -13.686397103152622 139 55 28
1.7781136894994525 -1.0961240890072212 -13.728014881482064 129 51 27
1.8314382425957971 -1.0773347333025978 -13.710717966427328 115 46 21
1.8728864644824652 -1.0644364250446743 -13.706790917727709 141 66 30
1.9117389399560931 -1.052810239237616 -13.705699859011233 138 57 26
1.958546896071879 -1.0371779106983876 -13.6953183869343 174 107 79
1.9954283418063197 -1.0264891060331938 -13.696221366370118 157 100 71
2.030894714794396 -1.0164900375881145 -13.698649403144223 126 69 52
2.118493671858528 -0.9802704965927389 -13.640375152358455 131 77 69
2.1275863906329695 -0.983472464482207 -13.673156411650801 140 91 81
2.1485496641556594 -0.980707676706791 -13.692136039530128 119 59 38
2.163328039944158 -0.981062541421043 -13.718366965635685 126 52 20
2.198806995617004 -0.9709677807993862 -13.720281898362458 128 47 22
2.2311518907162764 -0.9624388442020522 -13.725787649156125 120 39 20
2.269190758903295 -0.9510108445549762 -13.724466891453456 113 42 18
2.3133201408569457 -0.9364715493042793 -13.715786562963793 117 42 21
2.348975949741173 -0.9262036993807055 -13.717026256111534 122 44 23
2.3770948588917635 -0.9197475328398403 -13.72715860420545 138 61 21
2.386131124409771 -0.9229950656831671 -13.76010137526342 158 84 34
2.4287872920028715 -0.9091212313923298 -13.752715290056639 181 112 76
2.467340438594941 -0.8973119543123231 -13.750111780002062 154 84 62
2.498669586032438 -0.8891701209277493 -13.756109858865148 146 83 62
2.529657233898268 -0.8811883050876412 -13.762440078170151 188 145 127
2.54838097455385 -0.8794756024641688 -13.783612922891567 190 143 133
2.55092250595166 -0.8860667061334262 -13.82454751867947 180 126 118
2.562377101030342 -0.8881029271844747 -13.854702345846196 171 117 105
2.6239659881889246 -0.8643636055361175 -13.823357387794427 161 100 88
2.71758956641692 -0.8240692697223068 -13.7522412232174 161 95 83
2.736017862585185 -0.822455006888323 -13.773478316736878 163 94 82
2.7683191427785783 -0.8136789624356462 -13.777534174953985 161 95 82
2.8016138149417706 -0.804372541971825 -13.780261871099466 168 106 92
2.8448775287882775 -0.7898863341041449 -13.770457078058353 176 116 97
2.9118708767597195 -0.7630654771985989 -13.730792722413819 187 127 112
3.213203354537151 -0.7008662608187026 -13.878349117282488 133 47 20
3.1858640464874783 -0.7233073580384366 -13.95865695723025 128 41 8
3.282748806317719 -0.6962610778680884 -13.966787536120528 113 50 14
3.2906388988628805 -0.7001563701706108 -14.001462495249715 126 52 13
3.336440559893477 -0.6839288809601464 -13.986109985231884 111 31 0
3.362242110643206 -0.6783027978574936 -13.9970695545835 113 36 4
3.40358887926197 -0.6643866631269527 -13.987298780309285 117 49 16
3.3136734965306127 -0.7451639372096026 -14.290306150008771 81 20 7
3.3394532910630224 -0.7396287549500788 -14.301737044358186 89 26 8
3.354972275400634 -0.7395969552251984 -14.32702658194836 86 26 9
3.3718316516723004 -0.7388508921126943 -14.350531701956925 71 16 3
3.3874956354915424 -0.7387536034517654 -14.375693901486684 67 15 5
3.3982596312574884 -0.7413063737302334 -14.407596655366016 71 25 16
3.4070007582513187 -0.7449661543693471 -14.44235453763973 70 31 20
3.4152456583102486 -0.7489117612644702 -14.47789238683485 75 31 17
3.4251950990427007 -0.7519521171916259 -14.511178100799473 79 29 12
3.4308766020691213 -0.7573237234142658 -14.55046332128471 93 44 30
3.4427894076672647 -0.7593321172533276 -14.58121486469911 57 13 7
3.4450604184403524 -0.7665994545876167 -14.625477432172278 54 11 3
3.446577471423722 -0.7743055768189746 -14.670950199663295 94 48 22
3.447012095672714 -0.7826316508345847 -14.718104654747346 114 65 28
3.4549501592829506 -0.7868885949951859 -14.754875559261755 92 40 8
3.4844407401762467 -0.7793704749051321 -14.76133547202619 79 29 8
3.49565991643947 -0.7818512133220651 -14.793583404856456 66 24 11
3.496814889012432 -0.789869969608026 -14.84020580464949 45 11 5
3.4986512826953238 -0.7975447767926231 -14.886027946246529 39 5 1
3.5013972555491835 -0.8047485798292893 -14.930715552343695 53 13 7
3.5072376559630127 -0.810274963780482 -14.971124846288461 52 11 5
3.4589227292073392 -0.8457214513371587 -15.089552898906259 46 11 2
3.4637430670159466 -0.8519029169899522 -15.131942172175018 44 9 0
3.395326912240966 -0.9076250652439684 -15.330477488097412 42 6 1
3.4584828041213873 -0.8815531661018655 -15.288693344913918 52 10 4
3.4743559675529054 -0.8817073026425053 -15.315601212766978 69 20 7
3.4912582965857863 -0.8812962140966211 -15.341045242272191 72 24 9
3.512600155854015 -0.8784150879886158 -15.3599972229256 49 8 2
3.529211403898243 -0.8781755911302159 -15.385920688932199 117 70 54
3.5700813951686667 -0.8643709717449805 -15.37598952614793 110 45 23
3.6089022420135928 -0.8516806692188771 -15.368911127210216 123 48 16
3.6488432028629285 -0.8383312384511458 -15.359994364134351 113 40 9
3.64211742481195 -0.8511757336791121 -15.420601359525332 107 30 8
3.6613268430543267 -0.8494691428720088 -15.442605299738654 115 41 11
3.6859134270419505 -0.8447339327985449 -15.456540205857117 138 75 39
3.804338136946968 -0.7870151726901221 -15.328933042558635 113 52 22
3.892670768965033 -0.7461428819230085 -15.24591062675351 65 18 1
3.9772955387029176 -0.7072531714436684 -15.167861996693928 39 5 2
4.0820603576480465 -0.656829788741556 -15.05853092939503 43 8 4
4.205411155029755 -0.5957022751342902 -14.91999418991239 87 33 19
4.253658902507604 -0.5948688706422512 -14.99452097356803 112 61 44
4.53705048276907 -0.5305163958777668 -15.100625599957542 111 64 50
4.5904779335062456 -0.5085145996178331 -15.06557916992932 111 65 51
4.6442096090902005 -0.48627319663056046 -15.029695497959374 111 65 51
4.691410140429615 -0.4677782637533453 -15.003991195335134 111 63 51
4.7580765670863165 -0.4378584722110046 -14.94650509873938 110 60 49
4.803339024328067 -0.4203760344428584 -14.923267886193015 102 51 39
4.84157501818645 -0.40696353445961897 -14.9112014561716 99 47 34
4.85972398315658 -0.4053083769319066 -14.93175205988189 99 46 32
4.882825132192831 -0.400743427606683 -14.944199024148205 98 44 30
4.90440239605808 -0.3970689171240762 -14.959111963147823 98 42 29
4.927657977572153 -0.3924000278692352 -14.971232596856076 93 36 24
4.950893668149864 -0.38773539017772674 -14.983344303605806 92 34 19
4.974111428883487 -0.38307385455960075 -14.995443889949433 92 34 18
4.9923739609197195 -0.38134249635309914 -15.015755826456942 91 33 17
5.018150221150839 -0.3751513999639604 -15.023522358885064 91 34 17
5.010597897437443 -0.38877150151010653 -15.087099161093793 89 32 15
5.025994236269452 -0.3887719825378928 -15.112367491169195 89 31 15
5.075337892729804 -0.36852173105690567 -15.080389264899004 89 32 15
5.114015307922346 -0.36377379090406603 -15.117376452457886 88 30 16
5.059227709812844 -0.44336423983805284 -15.471409217467944 90 32 19
5.087010893719269 -0.43603715308590774 -15.476132810489155 91 33 20
5.133039343583129 -0.4176400519438275 -15.449050789238163 92 35 21
5.163482001595461 -0.40864688410129735 -15.448845545428117 92 36 21
5.166820991514651 -0.41610703123274617 -15.495936140099992 92 40 26
5.1869296809289 -0.4133894270570976 -15.51377656229292 94 47 34
5.203242908075612 -0.41298578262578967 -15.538295387677488 95 51 40
5.236847254973155 -0.40202405557646004 -15.532298285411951 94 55 44
5.2491626539209255 -0.4040628206807737 -15.563879896220012 95 56 46
5.254572851126372 -0.41035046170214984 -15.607829364184974 97 59 50
5.267208550664283 -0.4122304368278802 -15.639050893796293 98 61 50
5.279838303439528 -0.414128878184464 -15.670365665733476 98 62 51
5.288715981169786 -0.4183546228867647 -15.70850446803909 99 62 52
5.303870956365116 -0.4187280272843775 -15.735456810773709 98 62 53
5.314379358964473 -0.42198477111698507 -15.770866760277189 98 62 52
5.322649015200817 -0.42664828570843283 -15.810449584961104 99 62 52
5.353064716474011 -0.4175924609858179 -15.809850616744741 99 63 52
5.377210558846958 -0.41241126428540076 -15.82057463148231 100 63 53
5.393082763216597 -0.41237311720888925 -15.846408404695582 101 65 56
5.422801344537705 -0.4037045523750997 -15.846825511805665 106 78 68
5.418465259120617 -0.41629823849948344 -15.90995506774345 109 91 84
5.305651087636786 -0.5581556525787068 -16.516078345796757 142 137 134
5.279671660360852 -0.6059542897674008 -16.740057223055455 163 159 158
5.379426181621432 -0.5633851844496275 -16.666313813475362 172 170 169
5.3903137954595906 -0.5669444288730858 -16.704033344653766 177 176 174
5.4052268495474545 -0.5679455399272895 -16.734089917093556 182 180 180
5.415690923346472 -0.5824438248895809 -16.832130263120302 188 186 187
0.35593015517009974 -1.5972067106875643 -14.010316136826809 144 120 108
0.46248214867585613 -1.5536117997026486 -13.943086525045159 139 113 93
0.5224153645095901 -1.5325086900079525 -13.924215918959888 108 81 65
0.5581517964933385 -1.523100008896773 -13.930558365168217 132 96 77
0.5967230460505268 -1.5122985501881674 -13.933821140431693 125 75 59
0.6565185033387166 -1.491157368971739 -13.914514056462952 112 53 43
0.7112977243113887 -1.472414318915853 -13.9002884502097 109 49 38
0.8257610405459062 -1.4245419878150607 -13.822299867513077 107 42 29
0.9183188622298717 -1.3872514824749174 -13.767107931287294 107 40 25
0.9744837271551683 -1.36765895948346 -13.75044203942656 110 41 25
0.9863649047455922 -1.369687858741449 -13.781132948984094 111 42 26
1.073129500160161 -1.3350534086400936 -13.731180327155094 113 44 25
1.0823703231479058 -1.3383552045095657 -13.764604749738911 118 47 29
1.1422307032546621 -1.3168203000432506 -13.743221733903638 122 49 32
1.1675344031391033 -1.3122252463961324 -13.759168279040775 123 50 33
1.2460274382138614 -1.281449597387865 -13.717064855602985 123 50 33
1.3489466534831314 -1.2385702618335621 -13.647855540351745 119 49 32
1.3738345692309384 -1.2340873711537506 -13.663743231870587 108 45 29
1.3990066946820878 -1.2294594390526183 -13.679292202925186 105 47 32
1.434349438886544 -1.219796858303163 -13.683583077555515 104 46 30
1.46913135341953 -1.210394601467297 -13.688398877867984 115 49 23
1.506864446167115 -1.199512575325097 -13.689843306878608 162 83 37
1.5332828199471278 -1.194226115545082 -13.703782148607337 171 98 45
1.5594243345041772 -1.1890705270413722 -13.717993203990385 165 105 68
1.5944881965270978 -1.1794690470451301 -13.722166281824432 146 81 56
1.6187730853948166 -1.1752200632625787 -13.738363420209716 155 87 70
1.6494289453338702 -1.1677890352974298 -13.74735156880763 144 70 50
1.6895246351769524 -1.1556314647611217 -13.745593205804656 130 53 28
1.7677168813322686 -1.1244001814667244 -13.700472153937218 132 49 23
1.7767441561877364 -1.127725800825584 -13.733679104218982 132 52 26
1.8205792811849415 -1.1136172750554636 -13.727227981144626 119 47 22
1.8719420497325334 -1.0957015543622568 -13.711996120725138 119 45 19
1.9125577296812377 -1.0831481601862776 -13.70889499003465 135 51 23
1.9541525334986032 -1.0700769024839847 -13.704526152997822 141 62 35
1.9999046076329314 -1.0548846140065222 -13.69520578898462 178 113 85
2.035932266365559 -1.044565786004727 -13.69698044228684 149 95 69
2.12501692461138 -1.0074290438006615 -13.636956227662658 123 68 52
2.129760576671159 -1.0128577364938625 -13.674808376513171 156 102 94
2.1467728118194334 -1.0120941715967098 -13.6984201654153 139 82 69
2.17317082797919 -1.0065763504806655 -13.711043379819774 130 62 36
2.2027598469196237 -0.9994309084438355 -13.719868282262137 124 47 23
2.2363997673109894 -0.990214510203486 -13.72384510024494 120 42 19
2.2729740680284065 -0.9794874470321422 -13.724251816548318 111 35 15
2.3129509226536804 -0.9670053008966369 -13.720500013422637 116 46 30
2.353210715093268 -0.9543530990339189 -13.716268767653895 139 66 36
2.3859435790641674 -0.9455203607541081 -13.720887428007263 166 90 38
2.4055367003207984 -0.9433932372650294 -13.741165882907982 158 82 33
2.440716572123092 -0.9332828706433809 -13.742708355543435 167 98 69
2.4700256471871906 -0.9261638790549369 -13.751221676012209 160 97 76
2.5082052409317805 -0.9144771960542881 -13.748937121410133 157 98 77
2.546745138656375 -0.9025812511991131 -13.746082450915566 186 145 127
2.563086361244622 -0.9020910252247358 -13.770110964938699 178 125 111
2.559894221957431 -0.9116770266076187 -13.818016325765734 187 131 118
2.575465888775261 -0.9116076483833362 -13.8431178399076 173 122 116
2.633535282940173 -0.8895759988677103 -13.816050346224824 157 97 88
2.7241133084090228 -0.8506659217512773 -13.748641699063135 159 96 85
2.7513936817688247 -0.8444667957605567 -13.75893296462841 162 95 83
2.7683199502849014 -0.8436313684789996 -13.782005759017848 158 91 78
2.8052496307387917 -0.8324050484789498 -13.7802270179215 162 99 85
2.8531200868120417 -0.815462307652518 -13.76467200404674 167 106 88
2.909209349993139 -0.7941985997431724 -13.738619920017213 181 121 106
3.20827894168523 -0.7411723793694751 -13.934209988289728 133 41 10
3.225381056742153 -0.7401964657705364 -13.956791951402877 135 61 15
3.2404844296604223 -0.7402873157809473 -13.982015068800468 134 82 38
3.309733092743822 -0.711555003100413 -13.936106530802125 96 38 8
3.332711835943396 -0.7074208805770394 -13.950802522153321 130 57 17
3.3735494869546363 -0.6937466014612972 -13.941852243598854 118 37 6
3.3329692161523825 -0.7648127667094091 -14.269315312594221 77 18 7
3.349775063062326 -0.7640895398856042 -14.292812878964153 86 24 9
3.367535946748812 -0.7628555134900422 -14.315042467410745 89 27 9
3.385415472123311 -0.7615607591960459 -14.33712965467481 79 20 7
3.39701540181831 -0.7636693538038901 -14.367801955071386 77 20 8
3.4131838021114254 -0.763313752757932 -14.392293763689977 95 45 25
3.4219652371551605 -0.7669751312292955 -14.426959277036625 119 72 46
3.4339659751086247 -0.7689033761684756 -14.457287998896444 114 58 31
3.4459865589861405 -0.7708333131408193 -14.487658580448471 105 42 16
3.4490515699340962 -0.7776593966364902 -14.530508274707092 100 42 19
3.461210619580024 -0.7795458599435897 -14.560864531700107 79 34 20
3.462559799295935 -0.7873565201875713 -14.606362902172133 48 7 2
3.4640355195622217 -0.7951274530916008 -14.651848193975997 60 17 3
3.46567719364777 -0.8028369069588885 -14.697264356890255 81 37 14
3.47031597931438 -0.8089296342742447 -14.738625248929235 65 21 3
3.498324955066038 -0.8021924800521658 -14.747127019553664 50 9 2
3.5083327288952795 -0.8053588521788111 -14.78105612623564 39 4 2
3.5113646328793937 -0.8123898848159316 -14.824987554491614 35 5 1
3.5166812543717185 -0.8181864724978544 -14.865816517250714 38 6 1
3.5165484972426 -0.8270222126054143 -14.914570863666615 45 8 2
3.5177612396154707 -0.8351456444481755 -14.961579448370166 50 11 3
3.472504384701823 -0.8690856470972531 -15.07561856305456 48 10 1
3.471589282659412 -0.8784920719103476 -15.126255441204638 47 10 1
3.395375182414057 -0.9388683933629559 -15.336148965956177 44 7 0
3.4987996614022974 -0.8902027427463662 -15.235696262646325 51 8 3
3.506756858203625 -0.9038063073193223 -15.324116799317235 77 27 11
3.5143935029343902 -0.908598898864318 -15.363178331789754 52 6 1
3.523814796832858 -0.9124113126592099 -15.399728203106289 114 73 61
3.5682736326822724 -0.8965392288368677 -15.384523474667649 111 50 29
3.621547651012378 -0.8756623156388396 -15.356007488400758 135 59 23
3.652633923433533 -0.8672450871261373 -15.360234124988848 123 43 9
3.664292209584854 -0.8697849587962801 -15.393392267636404 117 36 10
3.6929001030657274 -0.8627507891084928 -15.401228090023736 117 39 14
3.7066649530860865 -0.8641132373647372 -15.43130822326699 172 112 91
3.7430592645063943 -0.8526457655078816 -15.42731667577857 145 86 60
3.856178751584732 -0.7975446869963693 -15.307063701387218 90 33 9
3.933263750846188 -0.7627941338114308 -15.240625056220928 55 13 3
4.029314827535177 -0.7171324349080399 -15.14475360221318 27 4 2
4.145686310669444 -0.6597359127867355 -15.017100770679619 45 9 6
4.275185578127526 -0.594663225155305 -14.868389345599716 91 37 23
4.510461177864235 -0.5667483237190687 -15.09874640524218 110 64 49
4.5702237826675844 -0.5409890641434358 -15.053790093194168 111 65 50
4.619641189374283 -0.5212024392689708 -15.025004883583918 110 64 49
4.665128955869281 -0.5036609458624177 -15.00223158319055 111 65 52
4.710830785693066 -0.48594546227830326 -14.978844307274215 107 61 47
4.754552309520997 -0.4693439124057235 -14.958389797782875 102 51 38
4.801490115394744 -0.4508045787005106 -14.932459288952316 99 46 33
4.837870003755162 -0.43843412957402683 -14.923439430881377 98 46 31
4.850635159322357 -0.4399682401254885 -14.952834800455832 97 42 28
4.88181820806759 -0.4306275729103852 -14.952101719298877 96 40 27
4.899234340377594 -0.4294155652211282 -14.973889093085285 100 46 32
4.947605303158528 -0.40984933646783983 -14.94461270995863 109 59 44
4.952691802839165 -0.4159390319840195 -14.986689568837527 103 54 40
4.965230043954641 -0.41762261899467945 -15.016542014584422 105 54 41
4.980192219824496 -0.4178748883729113 -15.042428694184 103 50 38
5.0137554153201815 -0.40703183296954626 -15.037264274504667 92 36 23
5.06588318479543 -0.3850603832627095 -15.000805819107702 88 31 15
5.065455299104639 -0.39450104837283173 -15.052429895951157 88 30 16
5.0728248969329925 -0.39930295385616266 -15.091105976624142 88 30 16
5.019198173613598 -0.45951446616544733 -15.337054658811546 86 28 14
5.016678169869614 -0.48943604522314765 -15.498768978749101 87 29 15
5.030786147320158 -0.490420177072153 -15.527313907311136 89 31 18
5.060036444236422 -0.48220913763080997 -15.529678407677094 89 34 20
5.100846937273981 -0.4669378359335662 -15.511832265422457 90 37 23
5.134201359451966 -0.4561715632632424 -15.50675171219513 93 40 26
5.128863718991218 -0.46902198022800967 -15.569238399341533 89 39 25
5.155953858266405 -0.46207363030534476 -15.575065775498208 88 41 27
5.162883775096941 -0.4674720508864446 -15.61632838716767 90 45 32
5.167582674863484 -0.4742676744735892 -15.661683433494515 92 49 37
5.182755462601895 -0.47465024415292056 -15.688637002710575 93 52 40
5.208160561719467 -0.47849481961464924 -15.751525711793592 95 53 44
5.223486580437441 -0.47881700831268315 -15.778395414651428 95 56 45
5.315512910607424 -0.43162607049281276 -15.667460958863192 96 58 47
5.3233928245179465 -0.43650607033465805 -15.707405104249132 98 59 49
5.3415203068816455 -0.43504004600476476 -15.728948865753129 98 59 49
5.3661535714259125 -0.4295252109262033 -15.738700273356653 99 61 49
5.38086182386286 -0.4301920254893383 -15.766468953314778 99 62 51
5.402387401707079 -0.4266085602163636 -15.781838548097884 102 66 59
5.430182463203696 -0.4190953314030107 -15.785688853762567 110 80 75
5.45460485038351 -0.4136795027243807 -15.795643857654948 112 93 89
5.423997573404505 -0.44283164203397407 -15.907123352129096 110 98 95
5.308408005005311 -0.5873061899371371 -16.51868135811083 145 140 138
5.3474917328207985 -0.5728395791942233 -16.502468988845006 153 147 147
5.261201498198881 -0.6383950491166134 -16.724576134676603 159 153 153
5.291390729985374 -0.62967746713449 -16.725669897612917 165 159 159
5.400674375857869 -0.5913476849259343 -16.692092864220655 179 178 176
0.34331779762938197 -1.6441385281208682 -14.071554395163943 146 130 122
0.46462332269408435 -1.593136806698078 -13.988683341653848 122 98 89
0.5090615787673984 -1.5794901709424138 -13.986066245267992 141 108 94
0.5872109596787993 -1.5493652608467023 -13.947725550810496 114 67 54
0.6906159950288302 -1.5068347300342526 -13.882288572408669 106 51 41
0.817322319349918 -1.452810219745503 -13.791585840728338 105 44 32
0.9350529034384225 -1.403059183773674 -13.709767146695516 107 40 26
0.925191547263073 -1.415762541680317 -13.763633212913774 109 40 24
0.9836666982343818 -1.3949523356367135 -13.74447676582008 110 41 25
0.9929895081628253 -1.3982591034395226 -13.77790760491105 111 42 26
1.04317887567644 -1.3814681128257513 -13.76736116086402 113 43 25
1.0719227280780617 -1.3752098197533487 -13.779815599358418 118 47 29
1.1214840199552993 -1.358672888181537 -13.769643105387521 121 48 31
1.183632919574559 -1.3358848858215104 -13.745591019149643 123 50 33
1.2377813511337052 -1.317004322070675 -13.729999078318798 123 50 33
1.3266984763530791 -1.280869282198044 -13.676134993391326 123 50 32
1.3741253187099165 -1.2652204303122487 -13.667369291272234 118 48 33
1.397152199828711 -1.2616501871396864 -13.685295701240022 104 42 31
1.4328778929660277 -1.2517669317575981 -13.689182907804504 103 46 33
1.4715898815422106 -1.2403799126188408 -13.689663003946247 156 91 54
1.510194001881878 -1.2290249602351635 -13.690143621816015 171 94 38
1.5396398731404801 -1.2222162658709068 -13.700712706778996 157 79 30
1.5670959650157412 -1.216390764019001 -13.71344858180469 137 68 36
1.5794296798078946 -1.2181184733174337 -13.743097796331732 150 82 58
1.6282049849751896 -1.2016131899645166 -13.73181654354644 133 71 49
1.651864160078782 -1.1976626778403885 -13.748680786335932 162 97 78
1.6918437051548123 -1.1855179807465581 -13.747057145227515 144 75 49
1.7620383429003592 -1.1581664337549342 -13.711005298338186 131 55 27
1.783105067192941 -1.1554703252699907 -13.730546217052737 134 53 24
1.8179382641465418 -1.1458389296746776 -13.734363615365513 133 56 28
1.8667600673919305 -1.1291341247850268 -13.722059398799827 112 40 18
1.9051711876474942 -1.1176512940215728 -13.721520666751088 118 45 23
1.9533569041358465 -1.1012033694077599 -13.709592860726351 129 47 24
2.0096316450278318 -1.08062492524288 -13.688120848522733 154 76 52
2.1297318413145083 -1.0276457567203237 -13.592391366340035 172 112 80
2.132901249120101 -1.0338896167652076 -13.631953342584074 148 97 70
2.138294552948717 -1.03902543026365 -13.669043070176308 122 66 55
2.152891931596887 -1.039497040399797 -13.695469551629959 148 90 82
2.176417919678517 -1.0354269904490891 -13.711458020392303 131 66 54
2.2133560458404737 -1.024510561124886 -13.711634206098129 120 49 25
2.2462986138898646 -1.0156135795460528 -13.71641009808451 123 47 18
2.2846088569086627 -1.003954772618031 -13.71473750010197 115 37 18
2.3217308110679937 -0.9928809632062864 -13.714346997144341 112 39 27
2.357446178767095 -0.9825063231259451 -13.71551103864344 143 75 42
2.3954894229639114 -0.9709160761536768 -13.713780181060338 165 91 40
2.4087442123332865 -0.9720463406716808 -13.741642540596672 142 66 24
2.437879821345975 -0.9650108433657681 -13.750456025610854 133 60 34
2.4689889769521347 -0.9569462549458171 -13.756823434470181 140 70 44
2.5040511438784785 -0.9468269044183187 -13.758327188282168 152 86 58
2.5389390730376844 -0.9367776631671723 -13.759932640580631 200 152 127
2.5614541707024143 -0.9331111542495542 -13.776493418799319 157 98 74
2.575907202114469 -0.9336188312023029 -13.802882903270095 164 102 83
2.592085540986486 -0.9332391917003504 -13.827201906938592 181 132 120
2.6220961056530108 -0.9256791098436119 -13.834554530376845 167 113 100
2.695978005577305 -0.8952840882015143 -13.787759862553685 166 109 96
2.742766176179492 -0.8789278569941765 -13.77405567501491 167 103 90
2.7672296377684216 -0.8741787047680327 -13.787834328714776 157 90 77
2.796362791911971 -0.8669846634270664 -13.795770622373752 164 98 83
2.849567837455888 -0.8471894974229718 -13.773601490065383 174 110 95
2.9152838422503002 -0.8207967297431852 -13.735519118049615 172 113 99
3.2219253931530822 -0.7636173409270887 -13.921171043722122 129 44 13
3.241226964916314 -0.7614685678926505 -13.940844948104562 149 72 33
3.25640239264321 -0.7615255646870729 -13.965931559493562 143 88 36
3.3472663198889707 -0.7210856070100921 -13.891536068709996 105 48 16
3.3681949208916366 -0.7180173343902914 -13.90880181163042 121 52 15
3.2630804852580617 -0.8326442446774682 -14.368520365330568 72 15 4
3.3527910183832725 -0.7924802210470612 -14.293761760185198 83 20 8
3.3854703641842736 -0.7831582299804491 -14.295767215416717 87 25 8
3.4234987194618283 -0.7709100245822329 -14.2903883355998 83 23 9
3.4113150818830507 -0.7859590918104009 -14.35338249283136 79 19 4
3.4240882804621675 -0.7874571834400461 -14.382484507095985 99 46 20
3.429567471878423 -0.792947146054714 -14.421664921756042 124 76 39
3.4414108511437433 -0.794981595301829 -14.452203077321563 107 48 17
3.453142496255917 -0.7970900216286753 -14.482966265634886 99 37 14
3.459819597786095 -0.8019818394179733 -14.520807882187789 87 33 14
3.4670976701021177 -0.8065648997521008 -14.557930049670667 68 26 13
3.5002737331677656 -0.7969330863181703 -14.559040005079144 43 7 2
3.499730870091904 -0.8058413320318073 -14.607216138480304 42 5 2
3.503845449199086 -0.8122150237870706 -14.64903608341287 48 9 2
3.5079724736115843 -0.8186074521806133 -14.690979536688804 44 8 2
3.512185988888211 -0.824977794430807 -14.732942539734928 43 6 2
3.520430636832267 -0.8291420135252713 -14.769335791181323 44 5 1
3.5262688001742504 -0.8346599079566352 -14.809256034430792 53 14 6
3.5333369941751345 -0.8395181777662059 -14.847551312828381 55 15 6
3.529762932522602 -0.8503159830354335 -14.90118603271938 44 5 0
3.5374472117942988 -0.854882984817482 -14.938882858583838 47 8 1
3.4877264802439267 -0.8914869318229415 -15.059314508982501 49 10 1
3.4901024888686276 -0.8991077669649218 -15.105165036824838 49 9 1
3.4243153903545798 -0.9539556924361946 -15.299848620023518 47 8 0
3.5017500073570904 -0.937795638777201 -15.337252813954038 78 28 10
3.5413333995069296 -0.9246307512459134 -15.329363767924765 57 10 3
3.5500946787427976 -0.9288298681407401 -15.366792579836282 91 50 43
3.5639956693513843 -0.9301440168975114 -15.396722558004292 119 66 46
3.6216002031146237 -0.9067293247117574 -15.361800644530774 151 82 43
3.6414105676144954 -0.9046790247850944 -15.38284745563746 136 58 16
3.6734111067233535 -0.895708458674997 -15.385680290891191 128 45 8
3.710956008907707 -0.8835654094325583 -15.380091360975744 124 48 18
3.696904953790253 -0.9007788732706766 -15.451957556108486 160 102 79
3.7256723908144087 -0.8936286292530836 -15.459538059636664 170 109 80
3.8216004912925685 -0.8480969481225129 -15.36536668251366 134 71 37
3.893685514928051 -0.816075363892917 -15.306680433332883 77 22 3
3.9861677805400557 -0.772274912316779 -15.216418776162222 43 8 2
4.077687536447833 -0.7288997110881518 -15.126927970601724 26 2 4
4.19410316973937 -0.6710882375385446 -14.998569724860825 50 14 9
4.320438962027244 -0.6073946750876483 -14.854009659127641 94 39 24
4.286374041855666 -0.6359948152670126 -14.955917096493913 113 62 40
4.454131114620793 -0.6112602410574015 -15.093541327374933 111 63 49
4.497230975156928 -0.5952177943979334 -15.075544435449101 112 64 50
4.544598031500616 -0.576632800684644 -15.050510286215385 111 65 50
4.599005078817533 -0.5538664556695484 -15.013939508923624 111 65 50
4.6417920505464165 -0.5378627279913026 -14.995645095904838 109 63 48
4.7162298354638255 -0.503188752470666 -14.92619145556205 110 64 51
4.743378867755273 -0.49628566405236185 -14.93249125343259 110 62 50
4.777658994584843 -0.48515785536034617 -14.927164287348306 106 54 42
4.79908948012472 -0.481600486365386 -14.942555610963367 99 47 33
4.830705059276874 -0.47200662275153116 -14.941327207536197 96 44 28
4.840972979303312 -0.4750541765510454 -14.974873239512103 97 41 26
4.881707917895661 -0.4600150096544533 -14.958541377591809 95 38 23
4.899254896909955 -0.4587359547140084 -14.980141033558125 93 37 22
4.92372309694976 -0.45333427122568926 -14.99033359536994 91 37 23
4.943951781977359 -0.4504542542310479 -15.007493601185605 89 36 23
4.964142111528451 -0.4475955022100948 -15.024708111886149 92 39 27
4.9824046429737505 -0.44589008526630036 -15.045127655317513 93 40 29
5.012387129093391 -0.43715384584377626 -15.045956734897366 89 35 22
5.058528646092962 -0.418683713517237 -15.019554589441825 87 30 16
5.011294577738766 -0.49398607104095626 -15.357177678264557 86 28 14
5.1833052261728065 -0.5140986758759786 -15.748742141559191 92 55 44
5.213781460544163 -0.5050373229115006 -15.748586658229561 93 55 45
5.244227141137386 -0.49597187881273286 -15.748358766251586 93 57 47
5.272773308526267 -0.488066440442846 -15.751418818624982 94 59 48
5.342767621298104 -0.4542792634932682 -15.679595615269136 96 62 50
5.367934755453242 -0.44840214361428843 -15.688310658419685 97 64 53
5.380790708813937 -0.4502216173299409 -15.71931778071396 101 70 59
5.408776202387656 -0.4425656797700388 -15.722836706832354 109 80 72
5.436303801488063 -0.4351789049073478 -15.727090574123057 115 90 85
5.451358629333974 -0.43562588874253017 -15.754128175893591 115 99 96
5.475405651374445 -0.430412449049154 -15.764669953421656 111 100 97
5.307893937006537 -0.6185649462660873 -16.52747324493125 148 143 143
5.339897451708279 -0.6403213918002162 -16.699540477519445 172 168 167
5.576284342577624 -0.5941321090130044 -16.83103535364644 201 201 201
0.30697340678131724 -1.69477987394834 -14.113445560429273 177 169 169
0.4292021180209806 -1.6431176320341248 -14.029710832626684 139 123 120
0.506942632183291 -1.613129989999535 -13.992165549051489 149 120 111
0.5881495239753338 -1.5813775237111625 -13.950605334683397 112 67 57
0.6704499019585235 -1.5490188842872135 -13.907507947485113 103 49 41
0.8492892870676183 -1.469134177975453 -13.76148511436731 103 41 29
0.9199174965777548 -1.4423210918508709 -13.7297339257022 106 38 24
0.9355589085467004 -1.4425443619203906 -13.756423263633717 108 39 22
0.9900091573710901 -1.4236287083895067 -13.74155378317738 109 40 23
1.0157368539308642 -1.4188607112873175 -13.757348394547321 111 42 26
1.0789747626996835 -1.3955378003985235 -13.732666053503515 114 45 26
1.0906454883442152 -1.3976968750551289 -13.763484982184732 118 46 29
1.1064427219536386 -1.397821884319328 -13.789890247240034 119 46 29
1.1708270611982003 -1.3738386166338432 -13.763460389847973 120 47 30
1.1958751853774752 -1.3693505756013213 -13.779680721356156 121 48 31
1.3455668394142606 -1.3028437928724805 -13.659416950423502 123 49 30
1.3524974657727844 -1.3072958514620152 -13.695067554839774 119 46 30
1.3924600419871433 -1.2952904534415 -13.69442908686894 110 43 31
1.4527745063167368 -1.2730990193240852 -13.671179366880327 107 48 33
1.481702062579501 -1.266552003040517 -13.682447413488909 160 101 66
1.5136328368030334 -1.2584918038391555 -13.690323646356873 158 90 43
1.546658535293874 -1.2498692599234191 -13.69690492109341 128 54 24
1.5747411840728862 -1.2437122774395808 -13.708931944978755 114 44 18
1.598983115122282 -1.2394761340033926 -13.72521826826 130 65 32
1.632014826595988 -1.2308139458165812 -13.731592360007067 163 112 73
1.6610489383220415 -1.2241501430164217 -13.742394727115084 178 124 95
1.6904211736839345 -1.2173055720263144 -13.752758282408351 173 109 82
1.7445416307146768 -1.1979536082341968 -13.73496390551162 146 74 49
1.7853249116688374 -1.1853026686700179 -13.732128657844019 131 52 27
1.8214902961628257 -1.174964047659661 -13.73442987530603 138 57 30
1.864037659783122 -1.161371102481827 -13.729311308153347 127 52 28
1.8927759860071047 -1.1547582894220252 -13.73991114385662 109 41 20
1.9446948085395421 -1.1363564391411343 -13.72373203821641 122 49 26
2.0014798369185742 -1.115438670376432 -13.701706461629964 130 51 27
2.1376005714908297 -1.0540592745589084 -13.58740871169498 173 100 76
2.140780858938056 -1.06033867101016 -13.626954037918274 164 108 85
2.140473343746505 -1.0684216412793544 -13.670691487294423 131 79 62
2.158079242419669 -1.067371297846507 -13.693608911987155 133 79 67
2.1756946353794486 -1.0663197934972048 -13.716535441594143 154 97 84
2.193248333094351 -1.0653036251162944 -13.739554912848703 122 60 38
2.253582788051073 -1.042330639594545 -13.712060305973463 127 56 29
2.286578266852101 -1.0333569774841385 -13.716670704898327 127 46 22
2.3237373602756444 -1.0222238168339848 -13.71624136094352 116 38 21
2.3629244943072374 -1.0100232712866042 -13.71327227277895 118 45 21
2.4030008017010225 -0.997338807589811 -13.709102451506666 142 70 34
2.4340038159965784 -0.9893156220280311 -13.715670679610835 129 54 24
2.457544748484052 -0.9851383276197645 -13.731137716670927 124 44 18
2.479916835747969 -0.981562061607464 -13.747991069636402 142 62 26
2.5134050225844504 -0.9722173444361912 -13.751372910166257 166 90 52
2.566654783993438 -0.9525915557186205 -13.730662219339722 194 135 103
2.5791173050998966 -0.9541313206566252 -13.759380865118603 159 92 60
2.600393979226827 -0.951091982983482 -13.777389276258205 140 78 55
2.604953624194062 -0.9567673075263001 -13.81587438597196 196 154 141
2.6156088789601712 -0.959281687336297 -13.846984510160325 172 127 115
2.6725518415222966 -0.9376113571551737 -13.8210973090547 177 126 115
2.7076262690802357 -0.9273375791894934 -13.821977114551466 165 105 96
2.7601592087443345 -0.9078920805963003 -13.801086022036014 157 91 81
2.785428390841072 -0.9027109240761567 -13.813872855156237 153 86 74
2.835732712127397 -0.884365210527991 -13.795372251918415 167 102 88
2.962200417411573 -0.8258957405802057 -13.681283461917044 174 112 97
3.255292321235739 -0.7836373955664573 -13.927216125095093 131 49 14
3.2590846152248165 -0.7898137033843962 -13.967193716913814 141 72 22
3.27967445863682 -0.7869797072455774 -13.985207664343287 132 70 31
3.352296327711378 -0.7808985197168035 -14.07016836549591 101 28 1
3.373783761982887 -0.7775800393795812 -14.086992187214657 107 40 12
3.3038708487573496 -0.8406902393820117 -14.31856235140787 67 14 3
3.373411363531215 -0.8112939304304324 -14.270902181412731 78 17 8
3.403362371808556 -0.8034132752709178 -14.276537600905318 86 24 9
3.442778477679445 -0.7903477247399588 -14.269207147542819 86 25 11
3.443568775100765 -0.7983779833620707 -14.314443566525473 79 17 6
3.4361414455344246 -0.8109389539602541 -14.37109664282834 79 22 7
3.4452387106636433 -0.8144789919521851 -14.405283478623438 100 48 26
3.4575240391204645 -0.8162849942273072 -14.435170737553932 93 42 19
3.465342184529029 -0.8205604403798359 -14.47129980137169 63 16 7
3.4723623766909615 -0.8252947546347129 -14.508641024016374 47 8 4
3.500363457162724 -0.8184756387305434 -14.51691137791182 40 6 3
3.5066067655434168 -0.8236639287994012 -14.555472289206278 37 5 4
3.509190064998461 -0.830899186581912 -14.599277033315378 37 5 2
3.5181099857350624 -0.8346517489450289 -14.634338263799266 51 13 1
3.521813962471766 -0.8413164178260167 -14.676844860401179 75 33 11
3.5260238625327425 -0.8477265324473446 -14.718782025373958 83 35 9
3.5336261352266494 -0.8522747983634135 -14.756052749041604 88 33 8
3.540129835991233 -0.857455798629714 -14.794997734621987 90 33 11
3.546763654569758 -0.8625866117008872 -14.833879903468153 83 33 16
3.544127111239513 -0.8729211234392298 -14.886147924769642 55 14 6
3.549256545799178 -0.8789464385080727 -14.927476267393931 50 10 4
3.517212796726896 -0.9058348215102644 -15.0224628549748 51 10 3
3.497551429470869 -0.9258586903392689 -15.100040933847422 50 9 1
3.4980681455290963 -0.934604698864129 -15.148749210728656 49 8 1
3.4645372787250235 -0.9716879736853388 -15.297111176076644 48 7 1
3.5568003043957823 -0.9562307144585739 -15.362736350837938 75 25 18
3.5475924826044807 -0.9706922108563492 -15.426892015451036 137 84 62
3.5812984843486158 -0.9607872507271709 -15.427562289494142 160 102 66
3.603979533418567 -0.9571426349444994 -15.444544615998275 144 79 39
3.614323254303682 -0.9605358206560686 -15.479957210206253 136 64 30
3.651548986523638 -0.9485815908825109 -15.475142651290204 130 64 37
3.674211441596288 -0.9449355430637782 -15.492086865467087 148 90 64
3.740531184407942 -0.9162559071967871 -15.44310498409456 143 78 48
3.7658538938097825 -0.9110371710259579 -15.455773296823638 175 115 78
3.8755525207245256 -0.8572861925622789 -15.340205391646412 106 45 16
3.9328939777878063 -0.8335341394379525 -15.303573737578631 71 16 2
4.026091640928208 -0.7890323422813048 -15.211759755374516 39 6 4
4.116832997096338 -0.7458198286177435 -15.123002665583124 26 3 1
4.2113037887134945 -0.7003230359294399 -15.027815977114098 55 18 11
4.295234097883185 -0.6608013059124332 -14.948168808163713 94 44 29
4.364656767871087 -0.6295851235278749 -14.89035658449465 114 62 45
4.404378307491267 -0.6155460932217024 -14.87819557816973 113 64 50
4.3989544698801115 -0.6368514622954882 -14.985968891148303 112 65 50
4.449403342447514 -0.6256348291092269 -15.006721147497199 111 64 49
4.497007549619818 -0.6160472469894448 -15.031757520297537 112 64 50
4.53607863880016 -0.6022670101548553 -15.019953827485004 112 65 50
4.579423590878859 -0.5859344310811232 -15.00113986226932 111 64 50
4.628256943894342 -0.5663210719447291 -14.973306393296575 110 63 48
4.681363097901604 -0.5441290978566946 -14.938317132204268 107 61 46
4.710561378983727 -0.5360167038874933 -14.94145865177595 106 59 46
4.741087774462755 -0.5270989889393487 -14.942355083271647 110 63 48
4.7698383758189 -0.5192141097593788 -14.946012879631386 97 46 32
4.80428851926989 -0.5079235077837546 -14.940311140356219 97 45 31
4.828462254415662 -0.5027225140179366 -14.951205795107027 97 45 30
4.847802682271502 -0.5003947142100968 -14.96995585718106 93 38 23
4.88374195736227 -0.48815218527208004 -14.96146882298555 93 36 19
4.902308563023147 -0.48627150208327197 -14.98140601817413 91 35 19
4.924501606678161 -0.48221918570778377 -14.995362425383119 92 33 18
4.946078415008555 -0.47853125819594355 -15.010309779459703 90 31 16
4.964441259463227 -0.4767713729351938 -15.030576338036054 90 31 16
4.987488979875698 -0.4721921098102516 -15.043040348899824 88 31 17
5.007883610100136 -0.4692059663671484 -15.059903746674891 88 30 17
5.036556782139386 -0.46121568059289353 -15.0628585815179 88 29 15
5.070545075718559 -0.4499898890845335 -15.056759565409983 88 29 15
5.0812878442083145 -0.4622046140273707 -15.141102228501712 86 28 14
5.081068848806522 -0.47175484052768635 -15.193014108406505 85 27 13
5.009287081204696 -0.5249466355070238 -15.367257908017882 85 27 13
5.20792616903468 -0.5387364969277751 -15.766154480270304 97 66 57
5.244179177908624 -0.5260174162943867 -15.755570097697628 98 69 59
5.276904571684779 -0.5154713181314781 -15.75113479138825 100 74 63
5.38434802492825 -0.46790609567155506 -15.665749688601714 108 84 76
5.407022593658985 -0.46355449845438024 -15.67885215004268 112 90 85
5.435507283128512 -0.45553213830850803 -15.681324553939982 115 97 94
5.4509116051870015 -0.45575290082294106 -15.707614137722283 114 100 97
5.472950613237066 -0.45178426757918866 -15.7217777421366 112 103 99
5.571642441109888 -0.6065169385846992 -16.7293208462238 197 197 197
5.583580959449767 -0.6204234414503668 -16.82486954273524 201 201 201
0.2808354117452554 -1.7406064214900514 -14.144679187829007 199 200 201
0.3615416114134815 -1.7091390607920163 -14.104600620448547 191 188 186
0.4307171946399162 -1.6832782930958683 -14.076289697508269 175 156 150
0.5677757061504689 -1.6239127880835773 -13.975993691661516 119 82 74
0.6502061073706544 -1.591362271504622 -13.932824098983048 102 53 46
0.8591329770459799 -1.4962595863329442 -13.754873427819376 100 40 29
0.931661803458848 -1.476364907407086 -13.76445728825297 107 38 20
0.9508512790956685 -1.4748554227201254 -13.787411675935807 109 41 24
0.985919828591852 -1.465467638761031 -13.793304855195512 113 44 28
0.9873834792500702 -1.472762178619372 -13.835356201533688 115 45 27
1.0989992980447143 -1.4252785031596251 -13.758364606570568 117 46 28
1.106531501794457 -1.4295318265397863 -13.793730585448765 118 46 28
1.1119083343793088 -1.4348767583653734 -13.831533328797736 118 46 28
1.275120003482507 -1.3614292980306781 -13.697120449014653 118 46 29
1.3159308586075822 -1.3490019786116996 -13.695807567173548 120 49 29
1.3503794919595373 -1.3397351958574246 -13.701352096748113 120 48 29
1.4009122180701263 -1.322391231738116 -13.689086673925239 114 43 27
1.4416675184410463 -1.3099171167247858 -13.687429052423603 111 45 29
1.501390584619629 -1.2878892565050855 -13.664613763211632 123 68 43
1.5135030236396325 -1.2897623830590295 -13.694472522784046 130 71 43
1.5547473333550972 -1.2769745110879973 -13.691902573275293 106 42 25
1.5803166840305227 -1.2720656095091505 -13.706728971488879 113 46 20
1.61722898958124 -1.261423945284827 -13.708796731683428 157 91 45
1.6373457004393348 -1.2592526153288548 -13.729657264272856 179 125 75
1.6702960063821735 -1.2505865657965578 -13.73603579376871 166 110 77
1.6983225597545397 -1.2444004992156796 -13.747906386781121 158 95 69
1.7260774574495743 -1.2383431768512878 -13.76003603001794 148 78 57
1.77281520832116 -1.2226328730729519 -13.750492771340074 135 58 37
1.8154407546340066 -1.2089813226052972 -13.74546852749561 131 51 27
1.8501563628965911 -1.199330540818094 -13.749358097712367 129 49 23
1.8826705932848222 -1.190784448759727 -13.755680863894298 121 50 23
1.9381908717763805 -1.1704759952984347 -13.73539180494 106 40 19
1.9957265868315242 -1.1490921119577302 -13.712526716877024 126 53 28
2.0465329404261547 -1.1311051782641441 -13.697208621792544 141 57 36
2.148658144995931 -1.0867749989174083 -13.621955533724524 173 106 87
2.148926759149896 -1.094612217581374 -13.665017681709447 149 96 70
2.165893963323822 -1.093894969816621 -13.688671931475724 116 65 47
2.1828704120470412 -1.0931775236471877 -13.712340115587493 131 77 63
2.199857303281955 -1.0924592666043607 -13.736020848413983 146 91 74
2.2608662989426023 -1.0690369720968291 -13.707709751176221 120 57 36
2.295540672234578 -1.0591628984330712 -13.710317890520923 123 48 23
2.3318518678897115 -1.0484232516691985 -13.710876510594915 127 47 25
2.3731804942882446 -1.0350640208570698 -13.705335926071339 117 42 23
2.4035562873444647 -1.0273558333845407 -13.712743085918294 113 43 21
2.440230591843208 -1.016363956946929 -13.712519552681371 118 44 23
2.46471044532014 -1.0116893932274542 -13.726851113842926 133 53 20
2.477724743606073 -1.0129774033951966 -13.754992128261044 157 76 28
2.5085775214718398 -1.004977432719902 -13.761586945090354 172 95 50
2.557456205744474 -0.9875551925141578 -13.74620956783389 180 115 80
2.5861348548329213 -0.9806500558514801 -13.755228229720803 163 93 64
2.614929668168905 -0.9736724667318559 -13.764041483909022 179 119 103
2.6454233865536683 -0.9657928221076341 -13.770707618702714 189 149 142
2.652905451670776 -0.9699721263460505 -13.80558958751418 175 131 125
2.685092536518165 -0.96119017147427 -13.810098222544887 173 124 119
2.7057434845471375 -0.9584600367213252 -13.828787085988271 169 109 99
2.758251329320882 -0.9389486379399097 -13.807940843124797 162 100 90
2.7865733788849774 -0.9321486149352217 -13.816952079222517 162 98 90
2.8479424012194388 -0.907883129441164 -13.784639639028473 169 106 92
2.8902778649848404 -0.8936253840551321 -13.77584725336682 170 110 92
3.248525726486763 -0.8169861163197958 -13.940819579576871 127 46 11
3.2686467772669268 -0.8144004587647942 -13.959433670726408 136 58 14
3.2959644177173164 -0.807924556771683 -13.968576577891263 150 83 36
3.3048917684346417 -0.8113912526549063 -14.001929926613812 109 44 15
3.358045505396035 -0.8075563818850017 -14.06739582444833 104 29 1
3.3791221914646687 -0.8044563863974832 -14.084764461946804 107 38 10
3.2908445166717 -0.8694416516513007 -14.294847499151928 72 15 3
3.346160862169703 -0.8477214945716024 -14.266549120510765 63 12 1
3.393936409750646 -0.8300743983226938 -14.248157241915592 69 13 4
3.421212011401594 -0.8236208781740264 -14.257353609484504 81 20 7
3.453528951339261 -0.8143887448505154 -14.259624654328757 88 27 10
3.4644567810738938 -0.8168946087765652 -14.291000969933041 80 18 5
3.471476914051613 -0.8215656282524707 -14.327807139696151 71 12 5
3.4769682124454055 -0.8270997343070571 -14.366824680452718 65 13 3
3.4871001826528287 -0.8300948076908943 -14.399569259309914 60 14 4
3.495501042454836 -0.834062510715949 -14.434792501232675 48 7 4
3.5064671188549195 -0.8366284702884771 -14.46655778535305 43 5 2
3.5149380587904124 -0.8405922641217035 -14.50187357796954 45 8 2
3.518398608246887 -0.8473565162928444 -14.544283767390162 45 10 5
3.5245355267445593 -0.8526593010502407 -14.583091681090355 40 4 1
3.529304536092754 -0.8587463147680998 -14.623943414634443 58 15 3
3.5345684028167277 -0.8645822307638518 -14.664233115371296 103 60 26
3.5406622666194485 -0.8699788176779278 -14.703481288122205 106 57 16
3.5485052214432997 -0.8744201478427572 -14.740374488473112 96 36 4
3.5522350275721974 -0.8811854936719924 -14.783227907837324 87 28 5
3.5583860886107423 -0.8866198215823066 -14.822774240568268 78 26 10
3.561580879101345 -0.8937381009039602 -14.86667834977532 57 16 8
3.5611135344644778 -0.90294491090723 -14.915994357660342 47 7 1
3.528554558449831 -0.9302669182738817 -15.01171939557103 53 10 3
3.4999963338625655 -0.9554198476063762 -15.10214436911919 52 9 2
3.491825635469196 -0.96913432390848 -15.163466660128396 51 8 1
3.4287542239875455 -1.0139664990491588 -15.304874693687648 50 8 1
3.465588166306019 -1.002317165914368 -15.301334571122023 49 9 1
3.5756853320442454 -0.9766782849402358 -15.340688457335556 67 16 6
3.5205144851311827 -1.0174609768788776 -15.472902500200908 116 63 44
3.6046141788111346 -0.9787263290372421 -15.3988089732097 141 90 61
3.635604953341023 -0.9703008137116799 -15.403313403009852 151 91 58
3.6833234225642615 -0.9522618114016749 -15.382697286358509 135 70 46
3.7786312274281384 -0.9347864415600015 -15.442433351520894 150 93 62
3.8142134375408716 -0.9236084338066036 -15.439423870232925 153 92 58
3.8857823162133034 -0.891570068645284 -15.381400354219558 97 34 9
3.9778752304465668 -0.8475402070775127 -15.29148789940307 61 14 5
4.056239930293089 -0.8113539817538531 -15.221941190091073 32 4 2
4.149490294815474 -0.7664053254263632 -15.12891123238473 31 5 3
4.230900241476027 -0.728221843182178 -15.053447207179861 62 21 13
4.319990612878085 -0.6854458926334717 -14.965478431089679 97 46 30
4.402645253163922 -0.6463045226872965 -14.886825966115751 113 64 48
4.492921009473436 -0.6025877221643594 -14.795665097590565 114 66 51
4.471311284540426 -0.6426176352543207 -14.978289204905497 110 64 50
4.502272839204011 -0.6335829191831008 -14.979432793992785 111 65 52
4.608793085793189 -0.5982829910224451 -14.960432101561132 108 62 49
4.648599359626635 -0.5839081244195987 -14.94689521726951 107 59 46
4.686010094083974 -0.5709170498664602 -14.936994216110477 104 56 42
4.722076145521128 -0.5586915207162682 -14.92907313664163 102 54 40
4.745453482099316 -0.553991467834613 -14.941475541114976 100 51 36
4.785414182330708 -0.53939128622293 -14.926963982780045 100 50 35
4.808049711226204 -0.5351034694769439 -14.940403781665744 97 47 33
4.82040521134466 -0.5369617872707853 -14.970576736926715 108 58 43
4.846428218499494 -0.5306409250000548 -14.978460364055216 96 45 30
4.882492610449489 -0.5182781324403439 -14.969790026494607 92 38 22
4.894396344835447 -0.5204130340915163 -15.000733613540131 93 38 23
4.914869963194489 -0.5174002925093355 -15.017597415311306 89 33 20
4.9356607911261685 -0.5141940561784955 -15.03392397569792 90 32 17
4.962425254182238 -0.507374793091709 -15.04030099535618 89 32 15
4.992572090561248 -0.4984932854852093 -15.040954742031804 87 30 14
5.00899301997843 -0.49791319773183385 -15.064467824392786 85 29 13
5.028099536659016 -0.4957078857532884 -15.083502943526579 85 29 14
5.06164097465204 -0.4847211655185937 -15.078219576783109 84 29 14
5.084755663663084 -0.4800597517645351 -15.090405587674393 84 27 13
5.030523423155719 -0.5321397101615628 -15.285588748823447 85 26 12
4.95918955630685 -0.5854044287670562 -15.459442111294248 85 27 13
5.242611513894759 -0.5470755527508457 -15.711261412296984 98 71 63
5.286877930014549 -0.5292340451710795 -15.686113204189002 101 77 68
5.319535588478948 -0.5186461655402602 -15.681563807876506 103 81 73
5.48414441553221 -0.6734055638692441 -16.790616024675856 192 192 192
