ply
format ascii 1.0
element vertex 693
property float x
property float y
property float z
property uchar diffuse_red
property uchar diffuse_green
property uchar diffuse_blue
end_header
-0.45768755512862036 -1.1903178053577843 -15.84775183092738 118 40 30
-0.4583391849630125 -1.1922079735772755 -15.894100192906084 89 41 33
-0.4973695887416163 -1.2246346869738822 -15.886855517887629 50 32 28
-0.4724761394372283 -1.2062084351678344 -15.969180112921066 39 30 30
1.8629899177747156 0.8512734613883817 -13.880828117907527 179 171 170
1.7655079079066676 0.7711953301121754 -13.822869423652104 125 95 89
1.508917583734572 0.560053962777701 -13.683346973574675 118 62 50
1.4598620608887378 0.5192076236449843 -13.673989765626747 116 59 46
1.4407953313934412 0.5026279197739685 -13.69574784566839 114 56 43
1.3708698543091815 0.4449072650117909 -13.664251516135142 112 57 45
1.3264803537591963 0.4078501062135498 -13.659249091042945 110 56 43
1.2768072906872021 0.36652433678992047 -13.64851937792659 107 53 39
1.242321810551739 0.33748587358251925 -13.653632047913765 107 52 37
1.1930221981819473 0.29647169982876775 -13.642950473789774 106 51 38
1.14941211001556 0.2600629732953994 -13.638116552029798 104 50 39
1.119919982458204 0.23507200081142265 -13.648160443715359 104 50 40
1.0800649781081724 0.20170640611601343 -13.647058274835599 105 50 42
1.0396874640624283 0.16792235338369466 -13.645256925366631 110 54 43
0.9934292880867748 0.12938971633260898 -13.636993520299647 113 57 40
0.9531352009423353 0.0956815328162941 -13.634976997759379 114 55 36
0.9120954573370801 0.06137484750454103 -13.632010840958666 118 57 39
0.8756266135818525 0.030765152370243243 -13.633849963335237 121 60 42
0.8369152571459271 -0.0016527385285636242 -13.633130528376176 128 63 43
0.7899923016477137 -0.0406996565126434 -13.62332380894479 131 65 43
0.740245163553304 -0.08202231310319963 -13.610241741992203 135 73 50
0.7513139827673028 -0.07422680400058468 -13.66363458622092 131 75 50
0.6309869360491689 -0.1725345646114418 -13.572721522036193 114 64 41
0.5836818474229055 -0.21186748003436673 -13.561680312303778 101 58 39
0.5212103183350685 -0.2634388314641303 -13.533672422818757 80 44 28
0.48007625696912104 -0.29777838232410847 -13.529040172832467 49 20 8
0.41420347941353963 -0.35208068963578043 -13.496734562717496 32 10 3
0.05747040234009759 -0.6455387066061844 -13.29957724291683 37 14 10
-0.012548675366637063 -0.7031300500317084 -13.260583821607032 60 27 17
-0.09547070429587468 -0.7711178302617707 -13.206596697803167 115 77 63
-0.1829045823349169 -0.842731914348505 -13.147039032238123 126 85 70
-0.23814626195435196 -0.8883761777728845 -13.123762247316808 113 67 51
-0.29720984965609354 -0.9370946193191614 -13.095853361175644 106 54 32
-0.3483889735327086 -0.9794493298529954 -13.07671332010904 120 53 22
-0.41151421844660874 -1.0314266189069414 -13.043586757102116 126 56 27
-0.46769062371384695 -1.0777948765971748 -13.018171722731946 113 48 26
-0.5018784439477928 -1.1064361598647756 -13.017952040752094 101 40 23
-0.5091188509874849 -1.1133608892408016 -13.048904837441189 103 40 22
-0.46857252542664174 -1.082886576185726 -13.175253830920134 104 37 19
-0.4563551329505522 -1.0741482667512914 -13.22935530842642 92 22 9
-0.48280955426521555 -1.0965610817945368 -13.238217693781273 86 19 7
-0.4907064162586856 -1.1040276021109205 -13.268871698591655 82 16 4
-0.49695190665266686 -1.11016594143846 -13.301531154616333 84 17 4
-0.4988454000351341 -1.112802274094025 -13.3394129215834 89 22 7
-0.5063066998503656 -1.1199234231154351 -13.370774402472428 95 29 13
-0.5136024107512336 -1.1269128967159459 -13.402391326747846 99 33 17
-0.521908356803606 -1.1347170816030019 -13.432860427230601 102 36 22
-0.5164211763704287 -1.1314229801923208 -13.479913449759987 103 37 23
-0.5276625172186709 -1.1415933328693209 -13.50700759690724 110 46 30
-0.5307434444044716 -1.1451992260188995 -13.543971322142161 115 52 35
-0.5206781879888673 -1.1382322334260504 -13.59691632024158 113 54 39
-0.5232193471836117 -1.1414102058220799 -13.634759621044775 114 58 45
-0.5279524916291889 -1.1463536985997136 -13.670032224914625 101 45 33
-0.5306737734323788 -1.1496815409336314 -13.707837194517577 98 44 31
-0.5399586243260082 -1.1582894757130378 -13.737710317013253 93 40 27
-0.5367505062151814 -1.1568548784624157 -13.782951158498065 96 45 31
-0.538639235433636 -1.15952122648162 -13.822060195866804 97 47 33
-0.5403988918909128 -1.1620866228630913 -13.861429202355406 100 48 34
-0.5443356099455139 -1.1664044854172646 -13.89820769691092 99 47 33
-0.5418787522412645 -1.1655870715938894 -13.943003629644188 102 49 36
-0.5560051597604119 -1.1780975352715934 -13.967304393361289 97 48 32
-0.5701364616002467 -1.190612356302843 -13.991614402981611 86 31 17
-0.5779410346343941 -1.198045501805736 -14.023854771835513 86 22 9
-0.5563039911212497 -1.1818335430643625 -14.093093873096354 97 30 13
-0.564874351092322 -1.1898879760451324 -14.124598161327938 107 44 21
-0.5730048309378875 -1.1975907483641581 -14.15671352726017 110 53 33
-0.5770145901304558 -1.2019867388575243 -14.194102772173178 92 36 21
-0.5875824995955536 -1.2116499357819732 -14.223259000093073 84 32 20
-0.5910868602598862 -1.215644567600207 -14.26144707312339 107 54 40
-0.5891853118286425 -1.2153031562564278 -14.306628651127458 112 53 34
-0.5973608903286678 -1.2230520773581341 -14.339045670994853 116 54 32
-0.5990724066970765 -1.2256160940096974 -14.379820634133395 137 67 43
-0.5875633134476859 -1.2175766093000142 -14.437722636178993 101 54 41
-0.5881372282453681 -1.2192354390562157 -14.480231854576115 54 37 32
-0.5876276903063431 -1.2200285300727707 -14.5242614920599 55 38 35
-0.5859829774949628 -1.2199147503660308 -14.569891235371633 55 38 36
-0.5910549513347805 -1.2251905620638857 -14.606910509614528 53 38 35
-0.5511260574790251 -1.1943889784320678 -14.702777833259947 80 42 31
-0.5290963377374185 -1.1779480336617496 -14.775627690213774 129 62 42
-0.46344183997004595 -1.1265476810092991 -14.906059104432039 123 45 30
-0.4724175070375871 -1.1349765195343924 -14.93881862161043 111 44 33
-0.4668494037457842 -1.1317524742467606 -14.990846943622183 104 38 23
-0.48821830852529313 -1.1501160512523594 -15.007364516700974 106 42 26
-0.5058383028341842 -1.1654753178738222 -15.028828161127546 118 54 35
-0.5210247776667689 -1.1788851171705836 -15.053528130857682 108 47 26
-0.5250417102873541 -1.1833493529765855 -15.093163308345744 121 57 32
-0.5221887166974124 -1.1823147723567944 -15.142101152029515 118 55 28
-0.5137492130044112 -1.176811217990652 -15.198696610723244 107 54 32
-0.5284744868398583 -1.1898588525571414 -15.224273324204233 108 57 37
-0.5252013006397611 -1.1884992728111587 -15.274189067160659 116 63 45
-0.5169563895069826 -1.183164716842949 -15.330998938795592 80 43 35
-0.512569844886146 -1.1809233642730677 -15.38276080151521 104 58 45
-0.4940685089039185 -1.1673923412132101 -15.453926955411486 116 59 48
-0.49307272650110434 -1.1678745989983392 -15.501443112618993 103 52 41
-0.530983268428983 -1.1994841899692146 -15.495770028979114 98 55 43
-0.506722292989509 -1.181361452557634 -15.575399705107447 95 54 41
-0.5067792647993752 -1.182695766707461 -15.621829988404173 79 42 30
-0.5021470416288452 -1.1802841998431104 -15.674878390868628 80 41 27
-0.49705919946314214 -1.1775131432150623 -15.728731273162229 86 31 15
-0.4784400035746055 -1.1639298796135016 -15.801576220852423 113 42 27
-0.4850140525631996 -1.170491513410778 -15.83957608567015 117 40 30
-0.4611672039065491 -1.1527434355928108 -15.920203453016587 97 42 35
-0.4985101572779289 -1.183900008941519 -15.915345531668027 58 35 29
-0.5027133890977229 -1.1885745601280373 -15.956936970844652 39 32 30
-0.473134137569728 -1.1662646831576815 -16.04628381841481 34 32 32
-0.44860090395225694 -1.1656450122255073 -16.765802093019914 115 116 117
1.9030374110904917 0.9283764684364364 -13.90231237763299 206 205 207
1.834885436651744 0.8718777810147902 -13.874732245953815 168 158 157
1.5405405299235824 0.6294092424328737 -13.697020781014494 118 67 54
1.4755434369098879 0.5755120856819191 -13.671244003149186 116 61 49
1.4369183526578784 0.5430412052437594 -13.672674594217053 113 57 44
1.3911655603992594 0.5047852962352781 -13.666525528413672 111 55 41
1.3416162375686502 0.4634510559327145 -13.65622442681421 110 54 43
1.3088767352045254 0.435770463500579 -13.663406038730805 108 53 43
1.2707599162364023 0.40372672011159505 -13.664823314648665 107 52 41
1.228577692560549 0.3683861147680991 -13.661814211104224 107 52 40
1.1967479440468214 0.3414525583368011 -13.669635255909734 106 53 40
1.1484633447015948 0.3011663673098459 -13.659861864704542 111 53 39
1.0916199972202616 0.2539395045731716 -13.64076631439839 116 54 37
1.056517216997352 0.22436047247848023 -13.64469000375744 118 56 39
1.0246296315952304 0.1973930590295625 -13.651953753540234 128 63 39
0.9801739376877912 0.16023170235830086 -13.645600424304115 134 67 43
0.9318680526893797 0.1199515233867352 -13.634922004991498 134 72 47
0.8870103522953006 0.08247336452910847 -13.627782111786559 126 73 47
0.8904503466916172 0.08417111269853006 -13.672901360586813 115 69 47
0.8162280893860538 0.022884733733276263 -13.63359534088238 110 65 43
0.7088569535626501 -0.06527172144797522 -13.557735350612747 97 57 38
0.03618824055979264 -0.6211427504098932 -13.218137347203317 64 27 18
-0.0176495650099735 -0.6658057676558489 -13.197521639031187 86 42 28
-0.11307897450481885 -0.7441457334552215 -13.129651493811448 102 50 35
-0.17983226866391 -0.7992509208781513 -13.093771805196171 111 53 37
-0.2460339046276694 -0.853900721685398 -13.0581890123255 113 53 36
-0.3113674277743481 -0.9078390419280966 -13.023268001899446 119 55 38
-0.3700328559541255 -0.956370899998511 -12.99564753245741 128 57 37
-0.4256483104723108 -1.0024266081566955 -12.971243375713515 131 56 32
-0.480894363569643 -1.0481764307033474 -12.947002046504673 134 61 32
-0.5316806522960942 -1.0903102948511956 -12.927643437394307 98 36 11
-0.4816945278364617 -1.05297986507395 -13.10354789046691 116 47 29
-0.5022674851886659 -1.0706673066839354 -13.119178454765226 126 55 34
-0.49494729709811924 -1.0657935579211824 -13.167410854625134 113 43 21
-0.5247539753445043 -1.0909493546315465 -13.172238314973937 103 38 20
-0.5149592308396196 -1.0840795374259704 -13.223569906517563 96 37 22
-0.5281671641994503 -1.0958130480458932 -13.247930844267815 105 49 35
-0.5294884905451367 -1.097937228374974 -13.28637727960145 106 50 36
-0.5168831613248388 -1.0888061684383548 -13.341451652254449 105 51 36
-0.5252062105181263 -1.096596190804461 -13.371810776455721 102 51 35
-0.5335413289106548 -1.1043973500550859 -13.402207885404192 107 56 40
-0.5363591264456522 -1.1077413629402635 -13.439262212380601 98 48 34
-0.5469875324432723 -1.1173987921301398 -13.467030396154053 95 47 33
-0.5562699241017093 -1.12596973698348 -13.496456337880616 97 47 34
-0.563383555152952 -1.132789934827529 -13.528547532835372 99 49 34
-0.5736886185531223 -1.1421895916328753 -13.556836156033011 99 48 33
-0.5751723130440363 -1.144465798116455 -13.595876983028027 97 47 33
-0.5679927525938755 -1.1397486754593595 -13.645569769123128 97 48 34
-0.5684633112843276 -1.141212987461138 -13.68608173773205 98 46 33
-0.5692660690682265 -1.1429483971829573 -13.726296389003727 97 44 31
-0.5696545526289896 -1.144352216804883 -13.767127597256616 96 44 31
-0.5663694297178017 -1.142793706942114 -13.812595216420936 99 47 34
-0.5662254465142125 -1.1437739958906343 -13.854319756061322 98 46 33
-0.5813599800096325 -1.1570869970406141 -13.877231094117882 97 47 33
-0.5741275419940335 -1.152352308880019 -13.927940680310272 94 45 31
-0.5832583762716439 -1.160824006243372 -13.958428077398409 89 41 27
-0.593148103996711 -1.1699092557222492 -13.988018091095725 83 30 18
-0.6071002376850272 -1.1822725163663597 -14.012562870112578 83 23 12
-0.5851139346951912 -1.1656510784029912 -14.082290918497826 93 26 13
-0.5932766247575127 -1.1733498746736526 -14.114295470277817 105 39 21
-0.6010776317431539 -1.180758592451551 -14.146816219120655 108 50 33
-0.6083165538347775 -1.1877157707009935 -14.18011136947067 100 43 31
-0.6089387199503014 -1.189340662472799 -14.221884195035933 76 23 13
-0.6156240749014259 -1.1958557804131376 -14.256041915609575 102 52 39
-0.618936860170975 -1.1996546536971398 -14.2945824478773 107 52 34
-0.6278605956357284 -1.2079776503188437 -14.32602461509078 116 55 31
-0.6374450253989208 -1.2168344588700766 -14.356672336787383 137 69 45
-0.5930772996947109 -1.1822256428111668 -14.45694363188757 89 48 38
-0.5759369902158111 -1.1695619950127272 -14.522452752420767 53 38 35
-0.5481051063433098 -1.1494480487436798 -14.645832531159101 53 38 38
-0.6808623769878244 -1.2575110376841403 -14.516548298783285 50 37 33
-0.5491099278237659 -1.1525764899978235 -14.732400800274029 72 41 32
-0.5057980104980002 -1.118871953754593 -14.833343790939475 124 58 39
-0.48896862752205195 -1.1076741053908945 -14.944500131615156 111 50 36
-0.48347666772859554 -1.1044348485814206 -14.99649677725947 109 50 35
-0.49781988080391937 -1.1171608460210862 -15.022343131916937 106 50 34
-0.5230616072653742 -1.1386559800654616 -15.033706115313741 109 54 36
-0.5307875731871512 -1.1460585343437248 -15.068380849371007 121 66 46
-0.5389011984184773 -1.153774758717601 -15.102606816173138 119 59 38
-0.5412518296946329 -1.1568577689566784 -15.144635111305037 124 60 37
-0.5355935117655983 -1.1535032028151235 -15.197555526717395 107 53 36
-0.5961839985848423 -1.2034215858849269 -15.16122296128584 108 58 41
-0.6194628168225789 -1.2233338679805064 -15.1750633648431 118 64 46
-0.6706926298839626 -1.265713560231779 -15.150908014656991 85 46 37
-0.6207178387018715 -1.2267421664492755 -15.264275105514532 112 63 48
-0.6046000231636421 -1.2149938642335565 -15.331935147273924 113 57 47
-0.5748402409503335 -1.192290349765602 -15.418533584214941 111 57 45
-0.596646510785555 -1.2110271975441398 -15.43468723055923 108 58 43
-0.561537466191874 -1.1840404200796533 -15.529184410927709 112 62 46
-0.5548543624154059 -1.1798973832773685 -15.584834166277645 88 46 33
-0.5491574391768097 -1.1765513557100622 -15.6393063865267 90 48 35
-0.5280512665373926 -1.1608359932907888 -15.71536358137114 96 39 23
-0.5068825606185632 -1.1450784639543512 -15.791812627221951 105 37 22
-0.5130541096476824 -1.1512783796738493 -15.830374570043439 117 41 29
-0.496536940299773 -1.1392680458649496 -15.900812057235436 102 42 35
-0.5286121288303951 -1.1662656110389085 -15.903249446300656 65 38 32
-0.5188191653013821 -1.1596606894353894 -15.964561373875512 41 33 30
-0.53441456707972 -1.1734331169759402 -15.990217476302435 37 33 31
-0.9763729619477104 -1.5714342141300826 -17.009194072784616 183 183 184
1.9777677944628822 1.0340526696072923 -13.95915958735161 212 212 214
1.8782877361171249 0.9518355928996094 -13.899738087518266 203 202 203
1.77714749443743 0.8682765892821802 -13.838121918495213 154 142 140
1.6790922651503193 0.7872461054493849 -13.779191834320752 118 86 81
1.5151532209146605 0.6514544885233384 -13.693283473002914 115 65 54
1.4591523156901118 0.6047465182260892 -13.676785150546207 112 59 47
1.402036372308511 0.5571353159789147 -13.658890432757973 110 56 43
1.3669850311708913 0.5275169432240405 -13.663861860662553 108 54 40
1.3296868793658376 0.4960698362028335 -13.666367136016142 109 53 40
1.283357336129903 0.45726484191369376 -13.65923919835278 110 52 43
1.2443706934913115 0.4244484336326515 -13.659691605517978 112 53 40
1.1998719561708988 0.38714362288267434 -13.654172522352564 118 57 41
1.1577180593142513 0.3517535713122495 -13.650978461843819 122 60 40
1.1197439751860578 0.31977275564184193 -13.652085728352239 131 64 40
1.0800308349751342 0.2863784076306697 -13.651207265084384 137 68 42
1.0251025623682928 0.2395536619862879 -13.675365865358101 142 73 40
0.9193521471074879 0.15238595808844568 -13.602960555944804 122 70 40
0.8472863297074271 0.09266278489058255 -13.566418997628597 80 44 25
0.08757422253712033 -0.5358617907349679 -13.138428973355925 72 34 28
0.018432925832918556 -0.5931062067765813 -13.101171961903216 96 52 44
-0.060079300072836794 -0.6579642593410009 -13.053087053620871 112 64 54
-0.12430278016555008 -0.7111911508203344 -13.020637920692474 120 71 58
-0.17086389456902928 -0.750046818770234 -13.007759242308431 122 71 57
-0.2315089684574536 -0.8003497701017057 -12.978783648497323 123 70 54
-0.24133106027833673 -0.8093233647645066 -13.007056926209328 122 69 52
-0.30000592815933214 -0.8580141648214026 -12.9799027616972 120 63 49
-0.3655783685355747 -0.912304970428039 -12.944615359605933 116 55 39
-0.42514582237430876 -0.9617066852603879 -12.915859940012396 113 47 30
-0.4632570388676607 -0.9936630606360932 -12.911390007843796 118 45 26
-0.4847388578558123 -1.014069617204528 -13.004356234098434 82 28 12
-0.4934113527441557 -1.0221029430558497 -13.03370851266731 90 32 16
-0.5124855793358352 -1.0385869484516652 -13.05102358842848 113 41 22
-0.5198360366035679 -1.0455480060095894 -13.081977356915635 121 46 24
-0.5239738291234328 -1.0499013364594445 -13.116742184948997 120 50 28
-0.5330101626144463 -1.058234565137246 -13.145845302151981 124 57 36
-0.5497434841852336 -1.0728187366126791 -13.165948625553746 114 58 40
-0.5539961746274864 -1.0772698216705985 -13.200756309698784 98 49 33
-0.5640400626926096 -1.0864242269983446 -13.228797516646638 95 49 34
-0.5676144647903669 -1.0903281972382093 -13.264547566768373 96 48 34
-0.5724286456232894 -1.095240526062768 -13.298907781101025 99 48 36
-0.5792863073079948 -1.1018131499191899 -13.330907594380262 96 46 33
-0.5702173210693546 -1.095463392606563 -13.382012537169935 94 46 31
-0.5707446074616724 -1.0969041718751615 -13.42178248584479 97 47 33
-0.5756852221808861 -1.1019281279534585 -13.456351711471138 97 45 33
-0.5795270708675719 -1.106062673286905 -13.49232248279397 98 45 33
-0.5857434327370417 -1.1121253505532351 -13.52550574977294 99 45 32
-0.5989036880855094 -1.1238214696471953 -13.550334803390301 103 49 32
-0.5979624288291596 -1.1240825217885515 -13.592337211191174 104 50 33
-0.5959385250785401 -1.1234686777786411 -13.635779025267187 105 51 34
-0.604548830901523 -1.131479921673482 -13.666337712911991 106 52 35
-0.6003199170329676 -1.1290839465616438 -13.712701587446993 105 51 34
-0.5995411116236005 -1.1294882025563115 -13.754963574844068 103 49 31
-0.6116911871573096 -1.1403743941927056 -13.781391328090244 103 49 32
-0.6063544019876508 -1.137089638568038 -13.829487472851904 101 48 31
-0.611617690448564 -1.142398254519498 -13.864581119061707 99 48 33
-0.6196022025873926 -1.1499136656195406 -13.896365788899086 94 46 32
-0.6305661156304945 -1.1598443118551467 -13.92449042344646 91 43 30
-0.6436146757975072 -1.1714645929609153 -13.950043292026471 83 31 21
-0.6421255491605473 -1.1713103536683196 -13.993868801626865 77 18 9
-0.6494889084238098 -1.1783287657363442 -14.026677184540572 87 21 10
-0.6206621766887821 -1.1560424298174983 -14.10524154267728 103 34 18
-0.6237232095609357 -1.1617177823130236 -14.22887393451609 75 22 9
-0.6338035756829408 -1.1709485834412927 -14.25873798139499 94 46 33
-0.6314313293410878 -1.1701022299833923 -14.30459691945591 105 52 36
-0.635916262359788 -1.174808447244554 -14.341786305346385 120 58 34
-0.6552469353850938 -1.1915292889291846 -14.359941017264202 135 69 46
-0.6797477041003699 -1.2124324994271998 -14.371395895669275 72 41 32
-0.6872599272867612 -1.2195910977426667 -14.404799598224553 51 37 37
-0.6686639661196079 -1.2067218590308224 -14.515610744275659 51 38 38
-0.7192559192216477 -1.2487264953910566 -14.493049587880641 49 39 35
-0.6376398604607836 -1.1838226533968053 -14.64347771142262 62 39 33
-0.5258172164836505 -1.097868626838201 -14.96808505300599 108 51 36
-0.5292843471657518 -1.1017946226265503 -15.008313807029772 105 52 37
-0.5363354491144712 -1.1086191036665953 -15.043866962766119 102 53 38
-0.531903962137199 -1.1061683914784988 -15.094846284868073 119 66 46
-0.5567709645396377 -1.1273899645684509 -15.106707900089951 118 59 40
-0.6414249522474096 -1.1969019518749446 -15.038121246758543 126 64 43
-0.6179884710463188 -1.1802377858481607 -15.16002452674605 106 55 39
-0.6872972279608227 -1.239611152132067 -15.202061996275651 115 64 49
-0.6680955138257314 -1.2252536747214284 -15.273843703030604 115 58 50
-0.6494862234694114 -1.2113814053587522 -15.34509559894117 109 55 45
-0.6300267106589699 -1.1968300522612463 -15.4177965674255 106 55 41
-0.6051587090766652 -1.1779220422244832 -15.498246612576526 111 58 43
-0.5801094777925746 -1.158876132408464 -15.579278782443627 95 50 36
-0.5607818884741782 -1.1444539977272337 -15.652706158504419 85 40 27
-0.5114711731446331 -1.1058560727741282 -15.768146075217029 99 41 26
-0.5375679880354962 -1.1280843000917349 -15.778884358210753 103 36 24
-0.4892245132813864 -1.0902854208332942 -15.893732657415544 118 42 29
-0.5335595535855076 -1.127222266379805 -15.879030949288982 105 41 30
-0.48725342040237596 -1.0910829187942417 -15.991694444331333 73 41 34
-0.4400364402178063 -1.0566399658946102 -16.20258933330458 37 32 32
1.848171067498117 0.970886053911495 -13.891640564589881 197 195 196
1.7557169028542203 0.8941831453972773 -13.838820106083737 136 124 121
1.6642294340012063 0.818282238132392 -13.78655194605399 115 84 79
1.5931497785808366 0.7590972466917796 -13.754998360071594 113 70 62
1.4974615802183306 0.6797776275646781 -13.697536597889592 112 63 53
1.396643463722281 0.5952815725147458 -13.675903302381737 111 57 44
1.3570679392667575 0.561905621962488 -13.676150599966572 110 56 41
1.3072225978136078 0.5201299050121779 -13.665460920160307 110 57 40
1.260647855165728 0.48103470429678374 -13.658024107799916 117 58 45
1.21661361879851 0.44402205489195534 -13.653097014990852 127 62 40
1.1637170395349408 0.39976388594191015 -13.63860290425524 138 69 37
1.0890093959574951 0.3356994725009592 -13.68369693685575 130 73 46
0.9805962762385434 0.24605976338499325 -13.60898971136212 119 65 41
0.020128171907776604 -0.5494979744464601 -13.006485840618321 109 64 55
-0.043330435624159946 -0.6022711530288793 -12.975532440799602 124 76 67
-0.1276815671119449 -0.6721006852425901 -12.920989815225145 125 75 66
-0.16477706105959555 -0.7033282905585247 -12.918829270162107 121 71 60
-0.3552951803465154 -0.861678266676285 -12.822198627533668 115 57 47
-0.40932764121209253 -0.9067132035896464 -12.800082831079425 112 53 42
-0.37563425100355996 -0.8801343744307735 -12.877199127210984 106 50 37
-0.47381783994446725 -0.9639791792481862 -12.921681641118079 119 43 26
-0.4904891126882367 -0.9785122416767824 -12.94171817446798 125 46 25
-0.4872540753224808 -0.9768056170867361 -12.9847161683346 101 35 15
-0.5052971621732372 -0.9924590003152218 -13.003220312090145 81 27 15
-0.5131105376331648 -0.999768262060964 -13.033580540993974 97 34 17
-0.5102613450596172 -0.9983828151092826 -13.076403089678028 121 44 21
-0.5450805966178214 -1.0277182933906408 -13.075387868541313 117 43 20
-0.5653777270533649 -1.0452093760878758 -13.091243064415877 112 47 27
-0.5751061693328738 -1.054082859234132 -13.119474245629574 105 51 32
-0.5866548743509279 -1.0644412796597509 -13.14560394533129 96 48 34
-0.5930035235800837 -1.0705615065111633 -13.17790202953391 94 49 35
-0.6039411082272448 -1.0804236231354807 -13.204831461338191 97 53 37
-0.605098223928672 -1.0823154537599278 -13.243407887503427 97 50 35
-0.6062571940790438 -1.0842111841042046 -13.282082677835124 98 48 33
-0.6107123247864896 -1.0887951488477636 -13.316922028280352 102 53 36
-0.6113002890114441 -1.090230185399104 -13.356471733424815 102 53 34
-0.6118899597356817 -1.0916691224008526 -13.396125086403377 107 57 37
-0.5968699662151495 -1.080395062621644 -13.45468747161152 104 53 34
-0.5971520415539047 -1.0815897939346826 -13.494979113183348 104 53 34
-0.5998025605304766 -1.0847160471366006 -13.532510657224286 106 55 37
-0.6111655003263197 -1.0949394336508034 -13.559550008667873 107 56 36
-0.6088272218024766 -1.0940072120951019 -13.603316712833717 111 59 38
-0.6075550144437054 -1.0939460234730447 -13.6459095499828 110 57 36
-0.6137858475502664 -1.0999959246713669 -13.679429450298791 115 62 39
-0.6280387165461745 -1.112577515293208 -13.703159866134268 116 63 40
-0.6247623746433844 -1.1108918948049284 -13.748508785414383 115 61 37
-0.6278109634139959 -1.11435704719318 -13.786177042001055 106 51 26
-0.6316738306779612 -1.1184870370880047 -13.822928963616452 117 61 35
-0.6415764793710901 -1.1275335325944429 -13.852260046055516 113 58 37
-0.6491050780695522 -1.134649588910026 -13.884595867153525 100 49 36
-0.6578194332797453 -1.1427317399768935 -13.915511206342124 92 42 29
-0.6625522841099194 -1.1475765308279744 -13.95147281687542 86 35 24
-0.6847828155067113 -1.166654770191558 -13.965513754138227 79 23 13
-0.6683111451726766 -1.154257426644703 -14.028319266611117 85 20 8
-0.65780935901092 -1.146720197653332 -14.083811157246164 98 28 11
-0.5977208353069958 -1.1019207635945447 -14.330861841040818 92 41 29
-0.5965796903177205 -1.1020160617845232 -14.375390552330668 106 53 38
-0.6005272536197221 -1.1062497465231687 -14.413501654577232 126 61 35
-0.6736548058609548 -1.1666982241970283 -14.362439857885326 132 67 44
-0.7488497512604351 -1.2288164468012956 -14.308284002799663 61 36 29
-0.7566160553968917 -1.2381960386904147 -14.427491020437534 50 40 38
-0.7300778351101753 -1.2176730418745878 -14.50555868038214 50 41 37
-0.6449558549100871 -1.1495862480868082 -14.660851649327139 56 39 38
-0.5565677078425129 -1.083107124009575 -14.999803077704243 105 50 36
-0.6010377307532249 -1.120261825070897 -14.985384903700147 102 51 37
-0.5829247339149246 -1.1066320490486348 -15.054571062065659 115 61 42
-0.5459699573568546 -1.0777222678271174 -15.149332263512694 123 65 44
-0.6932505930559945 -1.1982761181561798 -14.996350368914019 127 66 44
-0.6269353851445647 -1.1542583142834335 -15.497389618437303 108 56 42
-0.6176592331089434 -1.1478443354089052 -15.556662537367686 101 54 39
-0.5638049357375685 -1.1053186921949827 -15.678111702468037 85 40 27
-0.5281262979633832 -1.0775304623514375 -15.774789251757014 96 40 26
-0.5823716659056917 -1.122590514074191 -15.74617176945392 99 35 24
-0.5044271877286901 -1.0605826662930289 -15.902596456834083 113 38 25
-0.603626873523555 -1.142045560008241 -15.810707482701941 107 39 27
1.814978837770254 0.9873613903881484 -13.88035246558273 188 183 182
1.726917865387839 0.9140396358639924 -13.831914374208187 128 110 106
1.6249575680006236 0.8293056698711938 -13.768663955728591 118 84 76
1.532926893657807 0.752741997852886 -13.715216994773424 110 69 60
1.4792282585580834 0.707682269401265 -13.701239669755399 111 61 52
1.3712449221974339 0.6170960792395839 -13.672015451926484 118 60 44
1.324756444483203 0.577973573484968 -13.664953323718748 124 63 44
1.2501985758578762 0.5158006844804968 -13.628141465197025 126 64 45
1.1923730654605604 0.46551157318611924 -13.691864151621562 135 76 39
1.1028218094161462 0.3910482823046859 -13.638177542817836 111 60 30
0.9954484579783234 0.3019632593745074 -13.564993424595556 74 36 18
0.12109153000303152 -0.4237568780551699 -12.98187656532561 105 60 54
0.040834914594531924 -0.49047750563154313 -12.933136842134225 120 74 68
-0.22843856631904913 -0.7174594494135427 -12.908914563663378 117 58 45
-0.2591032756490934 -0.7434763637946791 -12.91366333939818 114 52 40
-0.3113261003159211 -0.7871609285178671 -12.893970513626765 112 49 38
-0.3311070885367817 -0.8042520968592033 -12.91078469682208 111 47 36
-0.3676493486557355 -0.8350783741089263 -12.908535255862738 108 45 32
-0.34049968784509677 -0.8145958101271038 -13.018140872468813 110 44 30
-0.3773905924553249 -0.8457060021495071 -13.015415351582037 114 43 26
-0.40110357501384275 -0.8660178289481069 -13.027693479435325 125 46 24
-0.4386079747943272 -0.8976253157695373 -13.02402773261214 133 51 26
-0.4772253776341904 -0.930141189078804 -13.01893245751495 113 43 20
-0.5071258182364264 -0.9555147415219807 -13.023788883720364 85 28 14
-0.5310299533278204 -0.9759758504891884 -13.035521437840515 104 40 20
-0.5595204514952794 -1.000191157264378 -13.041853881655642 120 45 19
-0.5793732116246817 -1.0173324609739969 -13.058199415799077 114 41 19
-0.59635622177231 -1.0321237836751846 -13.07788247970127 108 45 29
-0.5866179413396475 -1.0250410654513864 -13.128976557850802 96 47 33
-0.6116789493960901 -1.0464460501275337 -13.139209165301686 97 49 37
-0.6199874479520169 -1.054138692033641 -13.169190479864875 101 55 41
-0.6186129285199646 -1.0539082453977837 -13.21070707052402 103 59 44
-0.6186968510972042 -1.0548738645176217 -13.250606719570019 105 60 45
-0.6191929810283616 -1.0561791830927953 -13.2901228975734 96 51 37
-0.6204837680874755 -1.0581370112198645 -13.32879429628408 96 52 40
-0.6247811694215999 -1.0625566824092427 -13.36395947560355 82 40 26
-0.628683099844455 -1.066654670383505 -13.399680915690258 73 26 15
-0.6328815518825461 -1.0709970569276885 -13.435128091289375 71 24 12
-0.6358803462780891 -1.0743601683982398 -13.472108746529443 68 21 11
-0.6460654498042615 -1.0836018882606373 -13.500458918712717 65 20 10
-0.6482058800006687 -1.0862666469406843 -13.538640518629649 66 20 10
-0.646847902752345 -1.0860733223681143 -13.581189246226682 70 23 11
-0.6444757051343073 -1.085053599847643 -13.625101554688666 72 25 10
-0.6361012791792069 -1.0791303721392298 -13.676511774064336 78 31 14
-0.6395070689867568 -1.0828396124126378 -13.713592067747346 82 36 20
-0.6463785439742669 -1.0893832851073348 -13.746483531778244 73 30 14
-0.6461327814492659 -1.090112267719329 -13.788253232228357 86 43 23
-0.6674262522381023 -1.1084438876410339 -13.803393559580766 115 67 38
-0.6913590297447936 -1.1289310946591975 -13.815210683027717 121 64 35
-0.7069160891804502 -1.1425744782693101 -13.83743259743576 112 54 33
-0.7259018369684194 -1.1590187655959623 -13.855364545035407 103 48 33
-0.6585230425861015 -1.1049206254233042 -13.981755783391591 88 37 24
-0.6759967921433052 -1.1201361187900973 -14.001863209983624 78 23 12
-0.6737222237813869 -1.119224325077596 -14.046909844197327 85 20 10
-0.6925262566465644 -1.1355272786838748 -14.065386208412054 93 24 8
-0.5671035196245011 -1.0389132788930873 -14.482934964258 130 63 37
-0.6720746473877117 -1.1255432205364073 -14.390784508716987 126 64 39
-0.7781459322654092 -1.2130560699447708 -14.296552346325788 55 34 27
-0.7403852176102088 -1.1851576108380169 -14.475281019558079 49 39 37
-0.7755382743730515 -1.2148024696283155 -14.472692730581308 50 40 38
-0.6099576421779611 -1.0817437846643463 -14.778178186617259 62 42 37
-0.6881936520996428 -1.1485100704283893 -14.807613223684044 103 51 33
-0.6270677731745398 -1.0996865929327662 -14.93361221543482 105 52 35
-0.6732896940018112 -1.1383606458663635 -14.91659541504786 104 51 37
-0.6951175776904783 -1.1571515697005816 -14.932081213114737 109 55 37
-0.7077911163443842 -1.1684827733701697 -14.959845300939342 125 67 46
-0.6746020583678813 -1.1506337284243822 -15.414464226476609 101 52 40
-0.6905728486081957 -1.1646689117561353 -15.438568684502876 107 54 39
-0.6505251804844123 -1.1331152731826766 -15.540468937046278 104 55 41
-0.6109487601762487 -1.1019553114254697 -15.642168138637818 82 38 27
-0.6017751420969875 -1.095542520497471 -15.701860639436433 95 43 29
-0.619217664541412 -1.1107880960141534 -15.724486256235245 94 35 23
-0.6137529399538364 -1.107399459390411 -15.779286250655844 109 36 26
-0.6019163893317616 -1.0988322691148804 -15.84324517015661 106 39 27
-0.5649741370617276 -1.0698523744918376 -15.942906490228928 86 46 37
1.6716650107836957 0.9120339063270428 -13.797635190694212 122 98 93
1.5700351690020389 0.8273138439068122 -13.734490894144383 114 75 65
1.503656315464827 0.7716788181814627 -13.707501272835596 111 66 53
1.4530629988103536 0.7290686148650494 -13.696681770826054 117 64 52
1.378960267456832 0.6670755189755972 -13.661069670752237 124 67 48
1.2381479931447146 0.547450731435954 -13.679839743474076 138 70 42
1.1150775154850914 0.44511851396702085 -13.590999493987123 110 64 41
0.16966366087170837 -0.3416191442296821 -12.938535535114923 124 76 69
0.08321304247899608 -0.41365952323088795 -12.88358660406044 134 81 73
-0.26298771273100296 -0.7069788877530829 -12.892293411993801 113 52 37
-0.29320236437232694 -0.7326716067814747 -12.897475244944804 113 50 35
-0.3544842962667749 -0.7839263165319483 -12.867421521527003 113 48 35
-0.3859040890614205 -0.810604546695548 -12.870948676613512 110 46 34
-0.4110668382799503 -0.8321328398374561 -12.881492967692346 112 47 33
-0.4775890304309476 -0.8918285800405483 -13.041232777932532 123 49 22
-0.5029300517658131 -0.913500292320431 -13.051420246395606 101 38 21
-0.5356706850728266 -0.9412543339702948 -13.052929403375266 110 42 23
-0.5613653582655864 -0.9632135857809612 -13.06255255393313 115 37 12
-0.5797358844079996 -0.9791508650701299 -13.080686171650136 111 39 17
-0.6023147315612531 -0.9985468019259938 -13.093860730891599 100 43 29
-0.6489363843538305 -1.0377019600259993 -13.078673151087216 89 43 32
-0.65984262616149 -1.0475016660548642 -13.105462119205873 100 52 37
-0.6441839394002731 -1.0354728362946313 -13.163752203722053 81 36 21
-0.6409396724316521 -1.0336489662084762 -13.207509173698625 65 25 14
-0.6382109261023663 -1.0322514001859435 -13.25078272659557 56 14 6
-0.6435043111095853 -1.037446830575182 -13.284598997338497 61 18 8
-0.6469101012064815 -1.0410932522958758 -13.320750192287116 62 27 15
-0.63453486530842 -1.0317794421908415 -13.375952125413495 88 60 46
-0.6367909343457141 -1.0344864070665016 -13.413716706922228 75 44 33
-0.6388117316122388 -1.037002170608707 -13.451860894251794 81 49 39
-0.638319710017635 -1.0374565850736959 -13.49314820707145 83 50 41
-0.6371922580755163 -1.0373916931269624 -13.535323164226 81 47 37
-0.6417747597675678 -1.0420172223442163 -13.570657177737626 87 51 39
-0.6454182895518334 -1.0458736223308973 -13.60721976326101 95 57 42
-0.6452041877804469 -1.0465653144769504 -13.64859983745079 97 54 35
-0.6448682439448463 -1.0471594288816535 -13.69024481631978 95 49 29
-0.650885445749597 -1.0529700602393204 -13.724171512815033 91 45 27
-0.6564176564761866 -1.0583842086471744 -13.758769859682719 64 23 15
-0.6616310265689069 -1.0635383252429147 -13.793839253322965 42 5 4
-0.6790060156304571 -1.078672460016243 -13.813859355042634 65 25 12
-0.7068405098478028 -1.1023874447724458 -13.820823308488496 118 68 38
-0.7390696727236783 -1.129705742267161 -13.822205854306699 121 62 33
-0.7597623208744313 -1.1475587384655936 -13.837946942731485 110 51 30
-0.6988120559735371 -1.0984493821804007 -13.956381180505172 90 37 23
-0.7088222530257093 -1.1075465328526652 -13.98583149166571 80 26 16
-0.7324768877783274 -1.1278334110817445 -13.998060337106413 79 18 7
-0.7176347806258327 -1.1165538376604571 -14.059092135022372 90 23 9
-0.6673690898318885 -1.0762362858258383 -14.165436435163425 105 40 21
-0.6720937933598119 -1.0855472552172314 -14.417158201896338 123 64 40
-0.7758406330458545 -1.1742017043004918 -14.455541348776167 49 39 38
-0.7269556215101431 -1.135081837728496 -14.563242942867703 49 40 39
-0.6867609943836248 -1.1030891943247294 -14.659989493242712 50 42 40
-0.6572276176935272 -1.079835582591862 -14.743080725658992 54 43 39
-0.6454899037616775 -1.0711599280844277 -14.80294465046165 94 56 44
-0.6335948063799348 -1.062359991969685 -14.863234160035695 129 68 49
-0.6314412010276689 -1.061539148315295 -14.910761396391603 104 48 31
-0.6969884538979407 -1.1161364822301625 -14.867960776346099 104 52 37
-0.7082639239422672 -1.1263072877365445 -14.897521094869134 105 54 38
-0.6983327609003283 -1.11912417552693 -14.95562627299762 106 54 36
-0.7379938939497857 -1.1611512764925562 -15.35593630990535 101 51 39
-0.6688232083525998 -1.105579562931391 -15.497978724176503 106 52 37
-0.6520530668146982 -1.0928531685839804 -15.567812320260625 109 58 43
-0.6444942339919892 -1.087660793408837 -15.62506587256047 88 43 31
-0.6277270846731007 -1.074947518210517 -15.69540123661201 102 48 34
-0.6381157629254623 -1.0844295747250063 -15.727905962485288 95 37 25
-0.6454364300993882 -1.0914061250418587 -15.764783216824533 106 36 26
-0.6498176074817597 -1.0959829552178588 -15.805889103979048 106 39 25
-0.5877172243336775 -1.046255598495354 -15.941190062775327 91 44 33
1.612026835334368 0.9053587966912238 -13.800867358642599 119 70 57
1.4230023291302576 0.746375702477831 -13.729950228123165 137 83 52
1.3840620864420154 0.7133136676325558 -13.731049695521953 135 85 52
1.2312387855658882 0.5859981967183181 -13.612003274850498 115 68 39
1.1515141887270852 0.5191952863400617 -13.569386327270095 96 43 24
0.23984942074571158 -0.24147021087636755 -12.91826809661349 130 82 76
0.13797363829751053 -0.3265068308685768 -12.847255470400725 131 77 68
0.06449082961475394 -0.3896027780103477 -12.88503183794565 121 60 45
-0.12037215138763813 -0.5463110710206003 -12.877665869074146 116 51 36
-0.1744495982618135 -0.5917815629778849 -12.856745098335736 116 51 37
-0.22259600596249562 -0.6323457290158823 -12.842202996808046 117 52 37
-0.2680898868274513 -0.6707138801259109 -12.830424143369104 116 51 36
-0.30620304185471614 -0.7029796744727701 -12.826744519924201 113 51 36
-0.3227414324702673 -0.7174171240903391 -12.84722512036808 113 51 36
-0.3558219861326828 -0.745520893050907 -12.849012911252878 114 49 35
-0.40223388651833325 -0.7846353489255797 -12.835583652585875 114 48 34
-0.43944417856346707 -0.8161450855311205 -12.832410437328104 112 47 33
-0.42778101728608764 -0.8072844822023146 -12.884793397844017 115 49 33
-0.4751228500756772 -0.8471594445645301 -12.869920838904775 118 51 35
-0.5530182900480218 -0.9122624015193215 -12.819819757577706 119 51 33
-0.5150161010028276 -0.8816530121833175 -12.902533694472673 127 46 22
-0.4649994660241017 -0.8426953269954964 -13.078627109411041 140 70 45
-0.4943598600908672 -0.8677180182949567 -13.084230932308778 114 49 31
-0.5514484759382245 -0.9156267777917018 -13.057407769112274 116 45 25
-0.5740244301603123 -0.9350443959451509 -13.070672839925948 109 29 7
-0.5629755701998018 -0.9267105009243606 -13.123333106141391 106 37 19
-0.5991865839772323 -0.957380706437001 -13.120582005771933 95 45 32
-0.626458549308829 -0.9806719732609217 -13.128238811913564 92 47 35
-0.6484049261976024 -0.9995675620821531 -13.142119008962572 82 36 19
-0.6453209025169748 -0.9978114217203666 -13.185657499688546 72 32 18
-0.6435767106275749 -0.9971631589243959 -13.227731272762739 80 49 38
-0.6380781885016393 -0.9934203492100195 -13.274406441926619 59 30 22
-0.6391628493976382 -0.9951104558676933 -13.313349895714442 61 34 23
-0.6400913192563262 -0.9966737680522346 -13.352583313187903 78 55 41
-0.6321034482044192 -0.9908858909374771 -13.402653758417685 87 68 57
-0.6352704537719118 -0.9942998854768952 -13.43942411095848 93 76 65
-0.6340955593683946 -0.9941355076265275 -13.481540544081136 91 74 63
-0.6324690620704461 -0.9936011614345333 -13.524325320923765 89 72 60
-0.6321375516436838 -0.9941368699078321 -13.565656886569169 83 63 52
-0.6325791400408463 -0.9953121562692164 -13.606159451288248 45 22 13
-0.6355219872725657 -0.9985513545443538 -13.643708851341955 52 28 15
-0.6462320675609678 -1.0081942150895795 -13.67181125503658 84 48 26
-0.6536527736633797 -1.0151269323271679 -13.704003807489435 108 62 34
-0.6630860437169082 -1.0237193650239345 -13.733772111406106 115 65 32
-0.6737996197722014 -1.0333677141596853 -13.762002127188222 95 47 23
-0.6789262278116643 -1.0384135705541153 -13.79721248738665 55 13 6
-0.7066508917564569 -1.062078573022763 -13.804344503965819 48 11 6
-0.7109730845004574 -1.066463291733669 -13.840637413728626 70 26 11
-0.7170318978441124 -1.0722801773543225 -13.874839254798836 127 72 46
-0.7229699059422403 -1.077999006949943 -13.909266003482237 121 60 29
-0.7414978776128986 -1.0940880597288158 -13.927898494405671 97 39 19
-0.7444939734122871 -1.0973862599956563 -13.96614711183985 79 22 12
-0.7561660055477235 -1.107830383306152 -13.993493641577599 77 16 6
-0.7447483422452619 -1.099264090953831 -14.050227800156584 87 20 10
-0.7487287118145121 -1.112748245014104 -14.56153386940077 49 40 41
-0.7317908433466371 -1.0996849076772985 -14.627717180714523 50 41 42
-0.7090829671923151 -1.0818817616324914 -14.701790994604568 49 42 42
-0.6970890227874174 -1.072894076100023 -14.761943722917557 66 45 42
-0.6775892765292069 -1.0577396212015868 -14.832305932159478 126 70 51
-0.6665158063143535 -1.0495178888596932 -14.89169690244843 115 58 41
-0.7595158475675454 -1.1268513753098208 -14.81197370409268 101 51 37
-0.7637107040212303 -1.1311799673580358 -14.850893072703396 104 55 38
-0.7656444607293862 -1.1336521297425453 -14.892953310529418 106 56 39
-0.7701871822925499 -1.1382705884813173 -14.931604934514208 119 63 42
-0.7168300880121654 -1.0998104971099805 -15.276260737723625 86 54 45
-0.6916723342706534 -1.0800568765440843 -15.356820975116156 118 66 51
-0.6937935499933943 -1.082710678768069 -15.400023699175232 108 54 41
-0.7107475990468304 -1.0975460187278587 -15.42279144458611 102 52 38
-0.6872690814826212 -1.0791854963720349 -15.501747352537283 104 50 35
-0.6322540988421395 -1.0349418547425095 -15.624978173551352 112 60 45
-0.6204033697393667 -1.026141454917564 -15.688458172618185 92 45 33
-0.6520987556381366 -1.0530874803909125 -15.691134009624777 108 52 38
-0.6717690294452776 -1.0701621842275015 -15.710597298872647 96 41 29
-0.6863211623151599 -1.0830364453233114 -15.737256252250681 103 38 26
-0.6623735903144317 -1.0643205601441013 -15.818368503987053 106 39 22
-0.6401524602062372 -1.047027776177301 -15.897367974134415 95 41 28
1.4365538587578826 0.8023024862781725 -13.683066442964602 133 79 54
1.300399170301298 0.688389262033084 -13.58254137444198 131 84 59
0.3183025073452077 -0.13417721907067648 -12.906244496668318 134 87 79
0.22928861226594677 -0.208823117955645 -12.849898597938985 132 77 67
0.15577095628168358 -0.2720420697974433 -12.88841935817728 120 59 44
0.11359839909741787 -0.30777942258060254 -12.881903177900583 116 54 37
0.08669346239760056 -0.33083999037318534 -12.891910474793544 119 54 37
-0.054644656469378994 -0.4503274092773628 -12.85468775407368 120 52 36
-0.10161160534217739 -0.490028311942889 -12.842046606696687 119 52 37
-0.12043320932691248 -0.5063701849517148 -12.860419086693472 114 50 34
-0.16001712113656463 -0.5399393462101099 -12.85568326330749 116 53 38
-0.20642400576383757 -0.5791666997091207 -12.843185807835777 117 52 38
-0.24892494888645622 -0.6151499308296122 -12.834861403344398 116 51 37
-0.29420797078701355 -0.6534379418997016 -12.823244291813559 115 51 36
-0.34421184221880097 -0.6956384603479941 -12.806125345212005 115 52 39
-0.3786919114931653 -0.7249585877808808 -12.80630092827172 116 53 39
-0.4130316069713613 -0.7541600527476096 -12.806514006987925 115 51 38
-0.45970244307635344 -0.7935859307947237 -12.79261148340461 114 49 36
-0.48803841355868993 -0.8178034482289291 -12.799375111354632 115 49 36
-0.4624617635245869 -0.7973143804548597 -12.867596743446557 118 51 37
-0.5104844442328256 -0.8378554191832546 -12.85183610725501 122 55 38
-0.5341443220617945 -0.8581935398967371 -12.86383337011553 122 54 38
-0.4748406712494191 -0.8097514287489256 -12.971304435279386 128 49 26
-0.5447752924074774 -0.8706358323280199 -13.04844553595092 109 43 27
-0.5982029066975239 -0.9156439817097537 -13.02571607088941 101 29 11
-0.6337200845919515 -0.9480015874946739 -13.142827996432345 92 45 33
-0.6414564337679183 -0.9551463542023058 -13.173579379668766 62 26 10
-0.6315834758668064 -0.9477055521600475 -13.225315948532753 42 18 7
-0.6271864408967662 -0.9448036209229116 -13.270702147538032 30 13 8
-0.6222572708830221 -0.9414635431395988 -13.316864309739554 26 11 9
-0.6262350964222314 -0.9455025001684341 -13.352492300218497 35 21 16
-0.621861108221303 -0.942626919337604 -13.398244916877502 34 20 15
-0.611781906046736 -0.9350298672715702 -13.45101814910996 32 18 15
-0.6112239662378354 -0.935319424054116 -13.492459246949231 35 22 18
-0.610943795496456 -0.9358410831737354 -13.53367942724903 33 18 14
-0.6080149011542764 -0.9341721462977164 -13.578235597181305 36 20 16
-0.6228839657583336 -0.9472382963752786 -13.601216157590224 26 10 8
-0.6230257065251417 -0.9481147214809118 -13.64222115162891 18 5 6
-0.6310787976313037 -0.9555409818144032 -13.673633350889183 19 5 2
-0.6317473197832513 -0.95685701075708 -13.714188360270931 37 10 1
-0.6644363235172488 -0.984672340872331 -13.71534401302847 70 28 8
-0.6758301651712602 -0.9948649415675366 -13.742733697284528 104 50 17
-0.6915152774110789 -1.0086086773570972 -13.764832012671178 114 56 22
-0.7240734812143721 -1.0363118070240906 -13.765934124481952 106 56 33
-0.7319920885237243 -1.0436297411004105 -13.797672852604661 55 14 7
-0.7385450038707351 -1.0498190931655769 -13.831180321661108 55 11 7
-0.751867044358506 -1.0616085631113323 -13.856259473879316 104 52 33
-0.7615968624450629 -1.0704274754444567 -13.885881806365997 132 74 38
-0.75603862118089 -1.0666043195318355 -13.934853558586688 110 44 15
-0.744367273400588 -1.0577290672264388 -13.99172405847532 85 22 8
-0.7975131647804625 -1.1024514762844655 -13.966488231359909 77 15 8
-0.7854288371345612 -1.0932379276262 -14.024055374496719 85 18 10
-0.7642099451758178 -1.082012625667951 -14.39380600052047 52 37 32
-0.7821153590932539 -1.097605320171616 -14.413795970750733 47 38 39
-0.8368202007012222 -1.1435976285180018 -14.385543651401893 45 41 39
-0.829986159277964 -1.1387519519811269 -14.437891469290951 46 40 40
-0.7204461713145554 -1.0490789778186373 -14.62580334202646 48 39 44
-0.7232962865668471 -1.0522449847965962 -14.66609065344286 49 41 42
-0.7262445434823208 -1.0554939706702289 -14.706352650664748 45 42 44
-0.7283639656180165 -1.0580604768006125 -14.747821192240261 53 43 43
-0.7230461586300496 -1.0544883036115777 -14.799318201156183 98 58 45
-0.7207134578880936 -1.0533837583397467 -14.84699211976038 125 70 50
-0.722651386553105 -1.0558074609260268 -14.889085161836816 104 55 38
-0.7554834792062719 -1.0837352220123364 -14.889740056257027 105 55 38
-0.7566136571098667 -1.0854942334418443 -14.933032144293675 108 57 39
-0.7547649829159253 -1.0847969763222123 -14.980475062437009 116 62 41
-0.7415831689425847 -1.0747497497587686 -15.043437862843806 128 68 46
-0.8201639662297779 -1.1412582171649701 -15.02687451737021 111 53 40
-0.7336920510269547 -1.0724368621126699 -15.28193463686125 76 48 40
-0.6675790882221966 -1.0187533158810487 -15.419144635932962 118 66 51
-0.6627486094973012 -1.0164814124779609 -15.518698977965476 101 53 39
-0.668288478144281 -1.0219094891656173 -15.557635043284586 107 52 38
-0.6317247801192076 -0.9926241372642322 -15.655448963224075 116 61 46
-0.6213218484363274 -0.9849148304994149 -15.717064189873042 93 46 33
-0.6520407094076148 -1.0111091842401283 -15.721157238410107 113 56 43
-0.6943001495124994 -1.0468143762847006 -15.708889173749327 100 43 32
-0.7482201264294295 -1.0921266807139132 -15.67994967272561 99 36 23
-0.7556364096821957 -1.0991076882118929 -15.716580165039716 105 38 20
-0.7407759868485115 -1.0877325996639522 -15.784934224610712 99 40 26
0.4198286978810595 -0.007314405245635314 -12.91807017132984 132 90 85
0.241988195988462 -0.1582804911355593 -12.88537836686211 120 56 45
0.18179019577281164 -0.2091324137989794 -12.859736895364302 121 55 38
0.1294669807554394 -0.2534162192628431 -12.842365701361235 120 54 37
0.09930110372467738 -0.2792298513425715 -12.848883578510605 120 54 37
0.060256524747433815 -0.31244115578082177 -12.845621808600416 119 53 36
0.02390197279958528 -0.3434083673088342 -12.845160385953672 119 52 35
-0.0489288048392611 -0.4061096173637795 -12.883018748532795 119 52 36
-0.08440269786702892 -0.4363363402450755 -12.883133791683736 119 52 36
-0.13189116816211754 -0.4765694984637525 -12.869779644356074 118 52 36
-0.17988339498832673 -0.5172188205901893 -12.85566228871524 117 53 37
-0.23651919921379072 -0.5650640620774201 -12.831682229534845 118 52 38
-0.2885373523187935 -0.6090589103218225 -12.812613027954795 117 51 37
-0.3470373125292294 -0.6584478911663476 -12.786026296090341 120 54 40
-0.3902270836706858 -0.6950824600500924 -12.776416212121777 121 57 44
-0.42372605346559666 -0.7236444365463259 -12.77758060290055 119 55 43
-0.4633678785772437 -0.7573192595593814 -12.771666667875929 118 54 42
-0.4899512865545095 -0.7801191119306474 -12.780440969360676 115 51 39
-0.5212190966426773 -0.8068176715791866 -12.783803845808983 117 51 38
-0.5372797629464161 -0.8208548949681256 -12.804452038356855 118 51 38
