ply
format ascii 1.0
element vertex 702
property float x
property float y
property float z
property uchar diffuse_red
property uchar diffuse_green
property uchar diffuse_blue
end_header
5.188719269435925 -1.0151880371641 -16.625841720075453 172 170 168
5.222836289245113 -1.0089099591516253 -16.620853089879404 173 172 170
5.33858762285503 -1.0215768786874513 -16.809286036667466 193 192 192
5.382917410626333 -1.0104343107033003 -16.784756261248013 195 195 195
5.439108863379958 -0.993690190601618 -16.737822538576978 197 197 197
5.435570987155365 -1.004898086716369 -16.80216471368534 199 199 199
5.4919443410904405 -0.9879836985223849 -16.75437735404263 201 201 201
5.531973086877013 -0.9786978896263833 -16.736917077337033 203 203 203
-0.4537000453465092 -1.5349744830253709 -14.122781565965457 203 204 207
-0.28144864675439685 -1.4938424251922637 -14.042161639592312 200 200 203
-0.1827669555375353 -1.469112377423015 -13.98897304825923 197 194 196
-0.08086153726053436 -1.4432615934709632 -13.932167772800529 177 169 166
0.009203206387138785 -1.4211855970161666 -13.886594425643842 134 117 111
0.2817913887036534 -1.3609109960716708 -13.787945541186167 109 47 35
0.35382984665944583 -1.3444539134714737 -13.758703894453555 110 44 31
0.42557633211382484 -1.3280432116964302 -13.729458716319101 110 44 31
0.45833325943366177 -1.3244006523951617 -13.739230745767351 110 43 30
0.46302896644876235 -1.3299860880659016 -13.77731586161237 109 42 29
0.49584112743948516 -1.326317506588622 -13.786984961061883 109 42 29
0.56123630852374 -1.3118777876175378 -13.763441401270585 115 47 30
0.6159590908218116 -1.3009241391617858 -13.750524451983557 127 52 23
0.6467521793665654 -1.2978638439582133 -13.761896251985016 143 72 33
0.5997051187115376 -1.3206176012590523 -13.853105106285955 154 108 69
0.65594460341676 -1.3091236459831326 -13.838408362925598 112 75 55
0.7077796667866325 -1.2990603266537013 -13.828048853485793 106 67 60
0.7587959525462162 -1.2892392226507077 -13.818353050143923 141 91 71
0.8127302743504821 -1.2784141705066907 -13.805446665735612 132 66 37
0.853937845545909 -1.2718104894387912 -13.805598395500056 121 49 29
0.8906413166938858 -1.2666946472403589 -13.810334627522211 110 42 25
1.049932003806883 -1.2204569389811197 -13.686525506154332 113 40 21
1.0912743869471964 -1.2136884706301716 -13.685817725981657 113 38 20
1.1371957990603674 -1.2053590370072769 -13.680158619605116 115 39 20
1.1746187893085178 -1.199866907707713 -13.683329959240783 118 44 22
1.2456689047377116 -1.183012082675154 -13.650744378093385 118 46 23
1.2481373143566552 -1.1892805063126703 -13.69077968656983 109 43 25
1.3142942230488002 -1.1740132126290392 -13.663001430913365 94 36 25
1.348974485109121 -1.1693683627448737 -13.668611732539055 117 64 39
1.3744343714688494 -1.1678395295296948 -13.68402895302998 170 106 56
1.4212559725251221 -1.159042325986887 -13.676430044701394 161 82 34
1.459690830357279 -1.1530739885738617 -13.677718806132496 126 49 16
1.4893960654745433 -1.1500647682945577 -13.688346271158895 116 44 21
1.5246042911045565 -1.1451662243850251 -13.692942930712235 144 80 44
1.5491014018951006 -1.143917472889902 -13.709112161646186 187 135 96
1.586586946914399 -1.1382136452229572 -13.711072410984933 160 104 79
1.6184046021522596 -1.1344374832514994 -13.719134431874597 170 104 84
1.6741193992593315 -1.1224338469370179 -13.700869406653332 150 81 58
1.6738381530722943 -1.1296739141093504 -13.74408395653375 130 54 28
1.7592091067911122 -1.1073970733240417 -13.69276902564452 135 54 27
1.8099831402737445 -1.0970004978697323 -13.679382676248384 137 55 25
1.852506446742991 -1.0894255945396354 -13.67497220887735 124 50 27
1.8968831257138525 -1.081184464121344 -13.668350925807061 109 41 23
1.9357734898500585 -1.0748213963040447 -13.667708923065767 130 57 30
1.978084219215182 -1.0672490983297163 -13.663108707599273 135 50 22
2.009857119127229 -1.0633219110979268 -13.670220376015873 150 79 50
2.0574499320626547 -1.0538650711922768 -13.659404630359262 186 126 103
2.0857579639247117 -1.0511143931243856 -13.67023497851163 146 93 67
2.0897727474241377 -1.0568545371594338 -13.708591401698929 120 67 50
2.1209022798351826 -1.0531113397218808 -13.716186539105916 139 84 72
2.1810074633965346 -1.039185743438241 -13.690619660617736 145 89 80
2.184013781191882 -1.0452893966450185 -13.730185040957764 123 57 40
2.22454944075238 -1.0381975004737132 -13.726755169388234 130 53 28
2.251974731864225 -1.0357068746267966 -13.73829455545582 129 50 25
2.347790873267317 -1.0090472238968413 -13.670747356812242 115 37 19
2.3698166348605065 -1.008412026356701 -13.68821392787995 112 39 16
2.38602819259909 -1.009835627946754 -13.712428530408118 129 56 23
2.4202944778062836 -1.0048544357532045 -13.715618652498044 128 49 22
2.4562141499642873 -0.9992691795473323 -13.716778100877143 125 41 20
2.4517652384227064 -1.0080438735492423 -13.765183248067373 140 56 23
2.495036226193565 -0.9998231998999673 -13.757616491754643 165 87 44
2.524923851607979 -0.9963580798700648 -13.765681898007134 181 112 76
2.556029661103981 -0.9924456786824662 -13.772237818758263 174 105 73
2.5913251103273485 -0.9870184658984352 -13.773743391332559 192 128 98
2.6187072057098435 -0.984415238986067 -13.784564720575801 162 107 95
2.6815161009965527 -0.969060420176916 -13.75302583405033 181 135 127
2.694215086485933 -0.9717094210662597 -13.781206674167914 191 148 144
2.722797158814039 -0.9686352039261217 -13.790358521061432 178 128 117
2.7456410546319043 -0.9676252392253439 -13.806364613155553 178 122 105
2.7771762279463497 -0.9634649641182753 -13.811846580080694 158 93 84
2.8080638695326297 -0.9595258197149654 -13.818031073312142 159 92 79
2.854366622105476 -0.9499732461176177 -13.805393833541206 163 96 82
2.8201797559083097 -0.9696801964076509 -13.890728339791114 172 105 88
2.9035032506141167 -0.9466179501099737 -13.832717696696893 187 120 106
3.001886085567368 -0.9179797222928574 -13.755766490387963 185 121 113
3.0521827073286714 -0.906832870979875 -13.737412444140492 174 122 120
3.3486472603846975 -0.8920865532002301 -13.93529173500713 126 46 6
3.349256465427274 -0.8992396914590763 -13.97884453424518 131 62 19
3.3664860481846004 -0.9001814590008952 -14.001148716749519 131 68 30
3.3758855461284787 -0.9040696600022701 -14.033584574012174 114 52 13
3.391970688509769 -0.9054542361129502 -14.05744263094911 132 59 17
3.4089197462986878 -0.9065179200683569 -14.080208035247704 121 45 9
3.4171360987410795 -0.9108848477917897 -14.11437610578291 116 41 9
3.4216442794337816 -0.9166705865552742 -14.153483117741466 112 43 15
3.4379282159391966 -0.9180119999433289 -14.177274004065442 84 20 1
3.445636441119854 -0.9226153092534457 -14.212370898584854 67 10 0
3.4468374570389884 -0.929710642656127 -14.2561483231577 65 11 1
3.4762639502717834 -0.9260733517115897 -14.262734056357889 74 15 3
3.4874346947694743 -0.9293935097656698 -14.29346947320972 87 23 6
3.513856244627468 -0.9268924709235473 -14.303976478087403 88 24 8
3.5253024812041787 -0.9301205152194691 -14.334424815099915 79 16 3
3.5567689996594476 -0.9256758483277425 -14.338132292762175 77 21 3
3.56513748045095 -0.9300968594482091 -14.372772196310265 83 29 10
3.5735246985401696 -0.9345264665984689 -14.407481834920917 64 15 4
3.581928524225761 -0.9389655377905367 -14.442264364403357 46 6 1
3.5860297431861223 -0.945083730208376 -14.48297499012536 37 4 0
3.59625515832876 -0.9488523233778303 -14.515490461868918 36 3 0
3.5538696614228593 -0.9730440118414143 -14.619840124862531 41 6 2
3.558835622415952 -0.9789203241558504 -14.659933469801059 47 11 5
3.568421321156813 -0.9830192692548618 -14.693815038877897 50 11 3
3.576907804347093 -0.9875617914685951 -14.72929879577036 51 8 2
3.584790080327248 -0.9923568725461915 -14.765715708262707 49 6 1
3.617795395033604 -0.9873355838030512 -14.767446619036534 49 7 1
3.6060556776743935 -0.9998422622590362 -14.831222789794928 51 7 1
3.6389085131353003 -0.9948765602667955 -14.833140244574526 53 8 2
3.6510048210336983 -0.9980617892596816 -14.863959531799132 56 10 4
3.5568925590429457 -1.0511956837153076 -15.092166333537559 55 10 4
3.574123621649199 -1.0524694787667779 -15.116466215612203 54 9 3
3.5632065121697485 -1.0649066415846946 -15.180619674000088 53 8 2
3.6186742398247382 -1.0510248958558421 -15.150835363348662 51 10 1
3.6520075674355157 -1.0540415996000538 -15.201162113504912 60 9 1
3.668365876211948 -1.055681641151617 -15.226818521897139 79 27 9
3.659288429588613 -1.0675039862286337 -15.289056699976456 72 26 10
3.658416666416456 -1.0760811880766448 -15.339731963016149 61 10 3
3.9730912918921595 -1.0315809599316816 -15.376494166803027 153 100 86
4.008771564612161 -1.0253161698726811 -15.373340791565024 164 123 110
4.017503230481208 -1.0300736299884785 -15.410352439293078 111 65 48
4.082051915438656 -1.011927654003999 -15.363729940813844 72 21 8
4.77890189406366 -0.8459814226197642 -15.040312665853723 93 36 17
4.760368264810099 -0.8704092743261443 -15.169127012428154 89 31 16
4.7776796284349325 -0.8713962058708483 -15.191781483734832 87 29 16
4.840120577889904 -0.8531639855342759 -15.142604431350906 86 28 14
4.869790775047872 -0.8488465777680347 -15.145340624684414 85 28 14
4.794453082456272 -0.8894171357370385 -15.316228179466874 84 27 14
4.8050590938017566 -0.8933230956674283 -15.349936463063607 83 27 14
4.799328231328385 -0.9042584654847334 -15.410080711578495 84 28 15
4.767687294476265 -0.9263831576628977 -15.512396928474686 83 30 17
4.780069870211845 -0.9382187157427767 -15.595449621130376 86 39 26
4.933526934322553 -0.9321706926152802 -15.707396787313403 89 62 53
5.0282919472254575 -0.8993251316377331 -15.601679292231937 91 65 58
5.055632821273637 -0.9134448493924625 -15.712904463570268 96 78 72
4.983922348958024 -0.9539503632192776 -15.886906042425478 102 88 82
4.828905693209723 -1.123817538219056 -16.757405288763877 153 152 150
4.872265440620049 -1.1135915413458712 -16.737879643350723 154 153 151
4.932872556771925 -1.1143636142189912 -16.80107692357062 163 162 160
5.198303528171887 -1.0398379561175175 -16.60991590484796 173 172 171
5.347459654253132 -1.036961677299147 -16.736757979511047 190 190 190
5.380149856938621 -1.0312035884124635 -16.733758950738643 194 194 194
5.39717996640274 -1.0327847935540229 -16.75971107654553 195 195 195
5.454184256858882 -1.0155346101499931 -16.711179449347753 197 197 197
5.480148201953124 -1.012869596601396 -16.720259418645966 200 200 200
5.50706828693582 -1.009740581534331 -16.727476281340657 202 202 202
5.541422985966441 -1.0030714173038908 -16.720613298936428 203 203 203
5.655034156538907 -0.9682528077012345 -16.621254583757757 206 206 206
5.673359981952161 -0.969102464610819 -16.644064732732893 207 207 207
-0.3195572261340267 -1.537966674949385 -14.07940469223871 203 203 205
-0.23695440884549956 -1.5183447520180036 -14.042119404939431 202 202 204
-0.17025771872882256 -1.5038646159426068 -14.020149492789688 199 199 201
-0.08910340028910113 -1.4846077019896518 -13.983642894601996 191 190 189
0.021169680009064606 -1.4557450953320785 -13.917948418656895 166 154 151
0.0893504657037596 -1.4406191668188604 -13.893558670933364 134 107 104
0.35903579512746653 -1.3806645659989685 -13.796341485707575 107 44 32
0.42108152920645026 -1.36734180223119 -13.776784561822904 109 42 32
0.43844423133683286 -1.3687857885123544 -13.802176166880102 109 42 30
0.4850317540808735 -1.3605352144675598 -13.797952056139467 109 45 30
0.5354816769234603 -1.3509759686244065 -13.789650241764319 115 48 31
0.5895710442876041 -1.3401763065293593 -13.777462623232637 134 59 28
0.6343631747180645 -1.3324435568493904 -13.774593959256535 146 81 42
0.6678900329240651 -1.3284488623971948 -13.783147806653979 137 102 73
0.7127739063800069 -1.320644221974919 -13.779938780896474 95 61 48
0.6819629490909209 -1.3381676290802467 -13.854739666473588 122 79 64
0.7338092287358187 -1.3280188299220925 -13.844268848018816 143 80 56
0.8023103558650133 -1.3122439044502703 -13.816315792194041 120 49 30
0.8477514130049615 -1.3041795462099222 -13.812095252649897 113 43 28
0.9592629552860954 -1.2738260607187868 -13.738700684044575 108 38 23
1.060507308968801 -1.246844394886991 -13.675507453813179 112 38 23
1.1010431016200188 -1.240300344120513 -13.675619972121142 114 39 21
1.152006646824666 -1.2302059776708965 -13.664621128138007 118 43 22
1.1774041544732095 -1.2287490878445817 -13.68046489211223 121 46 24
1.16770577491409 -1.2392060862996706 -13.733495640872974 123 48 24
1.227952003404197 -1.2259062217935979 -13.71233679010578 118 46 26
1.318920900548254 -1.202099549277741 -13.658162375263126 112 47 31
1.3515329511634517 -1.1981289375520519 -13.665976100487264 108 52 31
1.3947429507876912 -1.190524656739877 -13.662345496769536 160 101 62
1.424207856584057 -1.1876009288375582 -13.67336577782177 137 66 32
1.4593031348590655 -1.182738218170308 -13.67825516815105 113 41 19
1.491649272528413 -1.1788042312701599 -13.68603053788563 123 47 19
1.5274117502274178 -1.1736833098357937 -13.690023698213022 168 95 44
1.5595476909863448 -1.1697953904707101 -13.697870890086389 192 135 85
1.5840701627187528 -1.168521539120961 -13.71396150418266 153 93 63
1.6182101926670596 -1.1639211205238085 -13.719493183443332 155 88 68
1.6533557718133771 -1.1589583614792913 -13.723834146111887 153 84 64
1.6646830670880357 -1.1622348514895051 -13.754329922321006 136 61 39
1.7450942931668472 -1.1415411922341856 -13.708531806264489 133 56 30
1.788239420985569 -1.1337384658383005 -13.703654329675574 134 53 23
1.831612071397804 -1.1258318425499094 -13.698376681001914 135 50 21
1.88082357836167 -1.1158636946499165 -13.686438314354273 115 42 21
1.9257492274431556 -1.107361105556935 -13.679104733970403 105 40 20
1.9611242719915998 -1.1021732106714668 -13.682323924300388 128 53 28
1.9956537352154244 -1.0972651933818682 -13.68639629657405 129 49 23
2.055242853754251 -1.083545211538524 -13.662095591024464 162 91 66
2.0949839972474873 -1.0767594910960772 -13.659998235011615 184 132 102
2.1164735138315 -1.0763793279004945 -13.67849155344256 138 91 64
2.150522039509978 -1.0715683527198583 -13.682678358352062 129 77 61
2.1805746803565977 -1.0681536709652857 -13.691336772288002 140 90 81
2.214882978908375 -1.0632222188759313 -13.695055624374419 139 84 70
2.2305514249852267 -1.0648813817207583 -13.72009437757925 126 59 35
2.2510512167314376 -1.0648309357159618 -13.739599026217839 131 54 27
2.305567359222053 -1.0526850612472591 -13.719790389338776 127 48 23
2.3429446383459522 -1.0466039050577107 -13.719613601645259 125 48 25
2.3816620656154095 -1.0400250002015383 -13.717761336427866 114 41 20
2.4225103678582993 -1.032663369899482 -13.713296985895756 113 40 21
2.4574194936740366 -1.0274034520156032 -13.715636245629897 131 54 27
2.4667770552645356 -1.031286342903115 -13.747847598892385 169 89 40
2.5040632079507272 -1.025153668625219 -13.747275342927693 165 87 37
2.537679222593444 -1.0203210061695338 -13.750914865495528 170 96 66
2.5662356368243593 -1.0172953329901882 -13.760449071213817 165 93 71
2.6036806340594456 -1.0110523880714377 -13.7593722560315 148 74 48
2.6366380153399005 -1.006411000219544 -13.763516851979176 167 102 81
2.6868684664621334 -0.9955008159464789 -13.746941451912274 183 128 113
2.706013976326566 -0.9958273479615316 -13.767387240148164 151 99 89
2.709355023799592 -1.001895978691862 -13.80682890707123 195 151 143
2.7326706506211673 -1.0007172179197794 -13.822320979816173 179 131 120
2.749459381708358 -1.0019134220635662 -13.845679441310853 167 106 95
2.836104915281025 -0.977611771639634 -13.78437433519888 160 99 86
2.8493870193806536 -0.9800559346621414 -13.811791930866118 160 95 81
2.916350342955214 -0.9628459331447574 -13.77378951559314 182 115 99
2.8889522874357603 -0.9801992215052449 -13.850872582737997 180 115 96
3.0048843842409223 -0.944935346626911 -13.752446795995226 176 113 97
3.0545856295550067 -0.9339345873434641 -13.734819614466673 178 121 114
3.3716384208781163 -0.9113411982392519 -13.906314106837083 127 45 12
3.372313220691468 -0.9185026323152704 -13.949700962430606 122 45 8
3.3825419230827976 -0.9220808235065054 -13.980935705215105 134 69 26
3.3884644410693445 -0.9273006022979552 -14.017806024369705 111 52 16
3.3989297911403957 -0.9308170271866878 -14.048900819869997 134 64 21
3.391961190188044 -0.9409641183557164 -14.102719587759571 128 54 10
3.4301755558598233 -0.9339643380567322 -14.09786977621484 116 43 10
3.445126771481476 -0.9358022971123338 -14.123282526627914 112 41 11
3.4546680017474287 -0.93971130875979 -14.155827201787577 102 33 10
3.462691081980129 -0.9442144748794676 -14.190450668450342 74 13 1
3.464857084923283 -0.9509764821260559 -14.232894709323888 62 9 2
3.484724819444036 -0.9509716861551094 -14.252061112394863 67 10 1
3.505703705780175 -0.9505400169538019 -14.269753735047312 82 20 6
3.51427624551453 -0.9548829896685876 -14.303952123960574 92 27 10
3.526969952889057 -0.9576521161071985 -14.332740421649932 83 20 5
3.5635918573114562 -0.9511871152680698 -14.329543294055435 70 12 0
3.5730954156970514 -0.9551944106318357 -14.362638067875821 67 10 1
3.5532776202013086 -0.9705837629605294 -14.43532520427199 67 14 4
3.55660277121829 -0.9770395964967558 -14.47706209416718 63 13 2
3.559556448366889 -0.9836630711910439 -14.519440464410698 66 17 4
3.567356506135229 -0.9884213424352903 -14.555370765904044 77 27 11
3.575349498466548 -0.9931214154631698 -14.591140179180842 80 30 15
3.5852981828548325 -0.997073459161864 -14.624335300293518 59 14 7
3.590853065648952 -1.0027615682828808 -14.663645131085808 54 9 3
3.591654143744403 -1.0103364130809767 -14.709620962669735 59 13 7
3.6037860234184516 -1.0134825911576935 -14.74011646131956 57 12 6
3.6238666348367 -1.0135086344654074 -14.759672562665202 55 10 4
3.628536173702793 -1.0196174935805096 -14.800637796417622 54 9 3
3.6641424423139703 -1.0135161579759724 -14.798629545821353 54 9 3
3.5717560296636224 -1.058093036578829 -14.975377880489031 55 10 4
3.645679027206893 -1.0368342068464673 -14.919938644698941 55 10 4
3.551560434870006 -1.090454760330244 -15.14898037600369 54 9 3
3.5685913800445306 -1.0918394778192102 -15.173697778614464 53 9 2
3.6408311991157873 -1.0711603750526542 -15.12009179945064 51 8 1
3.673990564150995 -1.0660562192178493 -15.121670033765549 51 7 0
3.680862842895081 -1.0714799719924784 -15.160675142807918 54 9 4
3.697594535402124 -1.0729609154355317 -15.185677640872484 63 14 2
3.6796702431987356 -1.0884027799065683 -15.260507526648055 84 31 12
3.656177867491208 -1.1061480699773423 -15.343703247130804 63 16 6
3.613816037133372 -1.1315855653329994 -15.454570634500717 70 18 9
3.7618146206924266 -1.0800371085896732 -15.289949504660814 134 80 61
4.034038003156117 -1.043761863782746 -15.33648783889994 181 142 139
4.0454741784867325 -1.0474166038396229 -15.369345965320756 171 129 117
4.0499979248978555 -1.0539424868847567 -15.412658877850806 105 61 38
4.114321279379475 -1.0357290435462172 -15.366117976152072 63 19 7
4.628712826919839 -0.9291651260776549 -15.227186481479528 98 51 33
4.7076762697122145 -0.9039870795914062 -15.153229619767208 100 47 27
4.765827874767069 -0.8875816579498211 -15.111515069878248 97 40 21
4.8128614638552945 -0.8758603963587243 -15.08701105613302 93 35 17
4.853924810993968 -0.866648070398164 -15.071710689286768 91 30 17
4.787956239558034 -0.9117343531063233 -15.277022170672662 87 27 16
4.8174315460490345 -0.9075265566411908 -15.280389992103515 84 29 15
4.822666200082183 -0.9137567672244896 -15.322625355216125 82 29 15
4.827355276008304 -0.9202475403159958 -15.365888485308883 84 31 17
4.835990040324645 -0.9250557677904359 -15.402923337730888 82 32 18
4.780110183534582 -0.9578726616837182 -15.544765990758664 84 37 23
4.786638637156945 -0.9636908240679893 -15.585792503259274 86 43 32
4.798983019667783 -0.9669990713489678 -15.617460435894149 87 48 39
4.942951738184099 -0.9563160986325836 -15.692805224351945 89 65 54
4.963045244701824 -0.956234350527886 -15.711730553275732 92 68 61
4.971850250972136 -0.9611491156760535 -15.749565632720042 93 72 64
5.060268654172583 -0.9307728728274214 -15.653724046344525 93 75 68
4.99230933562048 -0.9697729144156413 -15.82079335297534 98 84 78
4.833515143028587 -1.151302176066695 -16.750627552188597 158 157 156
4.853985379095313 -1.1514560229229809 -16.77132273633258 161 159 158
4.8861642512558054 -1.1462544183825716 -16.771372164625863 162 161 161
4.950897816755543 -1.1261073080680428 -16.713688684214283 163 161 162
5.008178201804055 -1.1283217419770797 -16.78224392187129 169 167 168
5.42006552063883 -1.0413628874689311 -16.66126954586506 195 195 195
5.4570668983968655 -1.0334626942284841 -16.649874723282807 197 197 197
5.48151817704041 -1.0314815717553032 -16.661676008610566 196 196 196
5.503539729413826 -1.0306470725217471 -16.677972158545543 199 199 199
5.528153915983702 -1.0285739212829468 -16.689381666410323 200 200 200
5.54824472992051 -1.0286516526562322 -16.70925606647022 204 204 204
5.561935577486987 -1.0317923835198246 -16.741225241575087 205 205 205
5.679866998724711 -0.9945958491366373 -16.63319819485212 207 207 207
-0.35421861572515656 -1.5811281642802388 -14.113272759119443 204 205 207
-0.3276056690314988 -1.5797931688101827 -14.131067414941487 204 204 206
-0.2395887966239698 -1.5582502304392072 -14.088371303790655 202 202 204
-0.15586420071026463 -1.5380575002172063 -14.049533829856237 200 201 202
-0.055791385996281306 -1.5124092502191857 -13.994144546938344 198 198 198
-0.06334772220861407 -1.52225732610735 -14.04523281030969 185 180 181
0.10961473945841504 -1.4723814177850492 -13.91661621135817 151 136 133
0.17706205801176544 -1.4573348887726687 -13.892565165061626 123 95 88
0.4108934249169911 -1.4086876257533272 -13.830036059103769 108 43 33
0.4826298758461629 -1.3919987802539937 -13.800391460686882 110 46 32
0.49742779598805953 -1.3943068038825261 -13.828371146832513 118 49 31
0.5470095694430093 -1.3849682414809799 -13.820902810716117 134 59 27
0.5958888479541207 -1.3758371219119803 -13.813985727816622 151 94 56
0.6533485934105867 -1.3637948170795733 -13.798097797621198 116 79 55
0.7040844808245037 -1.3539789250813552 -13.788914370909186 93 55 44
0.7509819832429248 -1.3454270147780671 -13.783516840721415 138 87 64
0.7936491209935106 -1.3382772210208942 -13.78234551731816 133 62 38
0.7989616554760017 -1.343735783370693 -13.819840945050839 118 44 30
0.8422414548804724 -1.336354246794171 -13.817887512224239 110 40 25
0.9700156661766854 -1.3002934734779843 -13.727524750485944 107 37 21
1.0186436975170654 -1.291005891726431 -13.719437301141765 113 39 23
1.0594386510673814 -1.2843546142434832 -13.719412983079756 116 41 22
1.132969400854071 -1.2665289612512565 -13.684761780553163 119 44 23
1.0508115726020772 -1.301777625484831 -13.814377785737847 123 48 25
1.1184410440459445 -1.2859409540097768 -13.785818044161399 123 47 26
1.2157584266662287 -1.2598926793041763 -13.725395147965273 123 48 25
1.2938923014497439 -1.2403405264138176 -13.684954614937595 118 46 23
1.3348120314031409 -1.2335061963556837 -13.683965540183156 106 40 25
1.3904602600763623 -1.2215853296495403 -13.66704756972258 110 53 31
1.4263789770668742 -1.216423235711159 -13.671141718119241 109 48 31
1.4620851936565602 -1.2113184368370327 -13.675370274448797 107 41 21
1.4994603837753457 -1.2056210921954151 -13.67769802151263 152 72 30
1.5302812262549041 -1.2021742930164276 -13.687037108861428 175 93 34
1.562567520885266 -1.198208841591216 -13.694716879534433 164 95 47
1.5858544484779866 -1.1973553004136832 -13.712152890895227 148 81 52
1.6185667036513838 -1.193221906510336 -13.719248452786555 145 75 52
1.6543821476959728 -1.1879948721175502 -13.722857808703665 135 70 50
1.7009909158347485 -1.1789865920689955 -13.7144755790629 158 90 68
1.7221084359854046 -1.178855650655092 -13.734100026203121 148 70 48
1.7673959123366787 -1.1702668907433507 -13.726928637615114 135 55 27
1.8308567093138963 -1.1552816482846044 -13.699389734778697 137 54 22
1.8788126371244251 -1.1456915562745762 -13.688859444019993 149 68 37
1.916073475474799 -1.1398313397380346 -13.690111071299093 119 49 26
1.9541719188109727 -1.133657570504268 -13.69031285626145 109 40 23
1.978939022878258 -1.1321664011463506 -13.705398380582562 125 50 28
2.038729380432846 -1.1182974182555712 -13.680931791826707 134 53 23
2.0825340107362855 -1.1100406209571343 -13.674296054525666 169 101 72
2.12386816299669 -1.102632997579649 -13.670308344795421 174 117 89
2.160713674381154 -1.0967950810126554 -13.671290955465015 128 77 55
2.1812126443608895 -1.0967507119112818 -13.690831123754357 121 71 58
2.2197117509693074 -1.0902957932004904 -13.689753069692333 140 91 79
2.244492577246146 -1.088713637073628 -13.7043124001616 138 83 66
2.281152316835499 -1.0828822328817727 -13.70515415533648 122 52 31
2.3168619387888745 -1.0773720517780394 -13.706982535782341 134 54 27
2.343007634703458 -1.0752723292698454 -13.719791818839635 128 48 20
2.384309044426705 -1.0677244020672516 -13.714940632258742 115 40 17
2.4236032894486543 -1.0608738078687674 -13.712284813845336 116 48 29
2.4545024848940473 -1.0570249674184868 -13.71931593733078 131 63 31
2.478789840246354 -1.0555492365801606 -13.734029529024756 171 100 46
2.513247601148173 -1.050393272402154 -13.736748649358187 151 73 27
2.5419307302880183 -1.0473108595021916 -13.746182983398231 135 57 31
2.5770045464332707 -1.0419012804858732 -13.747993595976563 130 52 32
2.607197163500768 -1.0382467725106939 -13.755494298002555 147 66 34
2.6463958166143753 -1.0313041092594322 -13.752200265039976 187 117 88
2.697294301641266 -1.0200754037814983 -13.734797505021303 199 135 112
2.71765820118737 -1.0199543539739082 -13.753752555928145 147 82 62
2.7267115343363173 -1.0239680983082504 -13.786295654706382 192 149 142
2.7229051354572587 -1.032704557922485 -13.834415933289037 188 146 145
2.742352573459078 -1.0329405189308705 -13.854602304674271 179 126 118
2.8545276295166646 -0.9991073087175684 -13.762376799756424 165 110 97
2.861157452434127 -1.004005549442202 -13.797822722762835 163 100 92
2.8442728473427517 -1.0175889385143313 -13.862045573954308 172 106 94
2.846880701795846 -1.024020047403024 -13.9026942385523 172 108 91
3.009355469919491 -0.9713399122372918 -13.747319956361375 173 112 96
3.0654883459787072 -0.9578835495086144 -13.721766400879234 177 118 105
3.3993725644786705 -0.9286953482940198 -13.871264907362248 127 49 19
3.3895438699019005 -0.9398718976669964 -13.928034306964655 124 49 13
3.4011514410044743 -0.9429392120308075 -13.957433675056881 136 71 24
3.4098759955279228 -0.9471150098452051 -13.990619950938157 133 72 29
3.403739579646138 -0.9569736594839093 -14.043142632621178 115 48 12
3.4156697881278166 -0.9599637690436774 -14.072395949061827 138 66 20
3.4431852522452715 -0.9569992553978619 -14.081401260466603 119 45 6
3.465704808450644 -0.9559400468855646 -14.096876566788135 108 33 1
3.4823066420029924 -0.957150162332001 -14.120089566696514 111 37 9
3.478697793852753 -0.9661407143291585 -14.16990717624098 91 23 2
3.4889135975055865 -0.9698345387285503 -14.201676521533518 71 11 2
3.513875669396209 -0.9678479387197099 -14.214013043765938 64 8 1
3.523290266464689 -0.971867920999751 -14.246942129117578 72 14 3
3.5389514975327545 -0.9734818888356409 -14.271640846339821 85 23 8
3.548037357570222 -0.9776538666585686 -14.305153516598448 89 26 11
3.577697592299847 -0.9738408632263007 -14.311200203783265 77 16 4
3.5873984977962543 -0.9777889645835132 -14.343979706242813 78 17 8
3.5670560397330284 -0.9934742732732552 -14.41732411033745 102 41 23
3.5710257502640506 -0.9997118597932076 -14.458141036768057 118 58 26
3.5752549066550072 -1.0058701877511076 -14.498738688270013 108 46 11
3.583112459854446 -1.0106272262727654 -14.534533499971165 100 36 8
3.5910563574530183 -1.0153674661146492 -14.570312128028117 95 36 13
3.60190942489594 -1.0189794891703483 -14.602212117181766 81 31 17
3.632989897186592 -1.0146269381679258 -14.606431921673526 51 8 3
3.645746018235031 -1.017498991714299 -14.63578317808481 59 13 7
3.6238918493216445 -1.0340808751289672 -14.712982870084385 59 12 6
3.6256559181858456 -1.041357303843009 -14.757828193691724 58 11 5
3.6584626933245454 -1.0363285627721832 -14.759706654802184 56 11 5
3.6314702182897145 -1.0550797410056352 -14.844803941722065 55 10 4
3.574605218178016 -1.085808718830126 -14.972057614895832 55 10 4
3.7103537305361938 -1.0397179504120926 -14.829931790193903 55 10 4
3.632408295124166 -1.0789660384898836 -14.987329352494399 55 10 4
3.6841295261960854 -1.066378669741561 -14.96266605243413 55 10 4
3.621626529618978 -1.0996173350693375 -15.09935273981191 51 7 1
3.641213550167742 -1.0999505203038589 -15.120250387770447 50 7 0
3.691103444006261 -1.0880710476870217 -15.098014943293997 49 7 1
3.685022302087132 -1.0987495146328756 -15.155451627575882 48 6 2
3.6908765011428537 -1.104638989483104 -15.196025167368852 52 7 0
3.7042631460141155 -1.10749747430232 -15.225905099943896 72 18 4
3.706766025890631 -1.114785907407835 -15.271535331744595 79 28 15
4.010254033792798 -1.0739953209566937 -15.322880047964823 120 69 62
4.020733008203561 -1.0780677297849262 -15.357148216426763 131 80 70
4.036645762079455 -1.0798993809188508 -15.383380539487053 147 97 83
4.057416444163299 -1.0797171295831642 -15.402365709608638 133 95 66
4.107215539799214 -1.0674350963941788 -15.377655812274362 102 55 30
4.110680575671168 -1.0744556314592442 -15.422627206790464 53 11 1
4.1301151462520815 -1.0748214969468817 -15.443571336533825 38 9 4
4.196636253723699 -1.0639443616015865 -15.443345381434707 27 8 6
4.643725871971151 -0.9592804132066653 -15.254719836045702 82 44 33
4.68992333799742 -0.9479518202654884 -15.232183389729812 95 49 37
4.7558328738149465 -0.9281061166684851 -15.17819298697509 104 58 41
4.808017414250211 -0.9140939330650478 -15.145529704289988 104 55 34
4.885681145966435 -0.9059042022855048 -15.172001508400603 86 32 18
4.900709919899608 -0.9163739047784494 -15.248593889567173 85 36 21
4.830235310494177 -0.9556277282994448 -15.413242720200824 85 38 25
4.828055358809844 -0.9652156888641874 -15.46798269720012 87 43 30
4.854625152868613 -0.979665923351277 -15.579324518916119 88 52 43
4.839489908291968 -0.9950818515021358 -15.65610227490122 88 55 46
4.907594153784048 -0.9738474904192556 -15.595998898472788 89 58 49
4.920100567535597 -0.9770983310772074 -15.627354708944026 90 61 50
4.9897997157300775 -0.9550363135836395 -15.56388502183971 91 65 55
5.0509876393908035 -0.9366619768365723 -15.51405682876025 93 70 59
5.046663011808909 -0.947341127277514 -15.573194463028354 94 72 65
5.034696573966542 -0.9614682422848371 -15.645392247083167 95 76 69
4.980097941890158 -0.9946846199621089 -15.789582881066346 96 80 73
4.9328416821550825 -1.0247518991410236 -15.922196033692488 104 91 86
4.80631640167677 -1.1838061824618729 -16.74298003155054 159 157 157
4.941440285320033 -1.1408565243790543 -16.618874068321098 164 162 163
4.950700339223013 -1.146091644607298 -16.658858272051514 166 164 165
4.98888903626315 -1.1380010094655628 -16.647782364992143 168 166 169
5.187813990696892 -1.1028542953547764 -16.631574819331508 178 177 175
5.206111246922242 -1.103867126705413 -16.655256023442753 180 180 178
5.261032373960518 -1.0876972524593733 -16.612443741383125 182 182 180
5.306152150315287 -1.0760678757716646 -16.587082869543085 184 184 182
5.406999041927417 -1.0668241020759741 -16.629701686961173 195 195 195
5.4331221704334665 -1.0640553613089394 -16.638522634507023 196 196 196
5.483094633218618 -1.0499126990542083 -16.602948759612282 198 198 198
5.506378141784401 -1.0484513210919244 -16.61677767202254 201 201 201
5.52513604607577 -1.0491492050381037 -16.639036601885756 200 200 200
5.5497068682461075 -1.047062848334517 -16.650403707322525 202 202 202
5.570606930483954 -1.046731643983425 -16.66863074070629 202 202 202
5.586434050591213 -1.0488424709949506 -16.69643553883291 205 205 205
5.679545587593859 -1.0136582585290783 -16.57778359694317 206 206 206
5.677926852541794 -1.0241454364884888 -16.63839710153127 207 207 207
-0.23820901654092275 -1.5969654189624731 -14.130816177498147 204 204 205
-0.22595855364725814 -1.600363810271915 -14.1626694329906 201 203 204
-0.13942745529340161 -1.579064357316938 -14.12078395772048 200 200 202
-0.05382286179741946 -1.558009764702322 -14.079445943196216 195 192 194
0.12554964679684577 -1.505607983686302 -13.944022950630766 170 162 159
0.19750356558743842 -1.4889408784241098 -13.915344872604695 139 117 111
0.40078372521723526 -1.4428609790272353 -13.840257709194166 101 47 37
0.4522940000432758 -1.4328707503037355 -13.83116424018721 108 48 36
0.4809473680741325 -1.4305455657140724 -13.845145405293312 116 50 33
0.5294359154130364 -1.421525419909052 -13.83884766191716 137 64 34
0.5808249733526445 -1.4114984805834636 -13.829420841658877 150 102 62
0.6335257707045479 -1.4009974795401774 -13.8184684889647 102 62 39
0.6916275680857051 -1.3886351130314099 -13.801768290943091 117 76 58
0.7397015137297274 -1.3796369610583163 -13.795199613971747 143 84 61
0.7891604482003203 -1.3701408301590798 -13.78703526833597 126 53 33
0.8187584652680515 -1.3673740393775742 -13.799327491094118 116 44 32
0.8331396720303239 -1.3697848565108433 -13.827421309638257 110 40 25
0.9348825877251477 -1.3423841158665821 -13.764288117916447 108 38 21
0.9786617733508471 -1.3347142909059824 -13.76139581999478 115 41 23
1.0220200547462621 -1.3271650469167504 -13.758807266522105 115 40 21
1.1284470233568742 -1.2979656153499057 -13.689602881963687 119 44 24
1.0149292619387174 -1.3442143030682447 -13.852393026026228 121 46 24
1.062890116672727 -1.3350619268550226 -13.84480658721218 122 48 26
1.1919310690391427 -1.2979484462162736 -13.750826048647173 123 47 26
1.2893876433091567 -1.2716176984729277 -13.689855549880189 121 45 23
1.3169621356665875 -1.2693550685174746 -13.703163045416133 115 43 22
1.3872511117690776 -1.2523011253496366 -13.670597846094523 107 42 23
1.4265627222786685 -1.245932706544573 -13.671056403468167 99 38 25
1.4433767590506061 -1.247355755044735 -13.695681448660977 120 61 36
1.4769269214754157 -1.2429634348841494 -13.70221554654513 172 101 49
1.52251730781893 -1.2343639150017505 -13.695596099856026 163 84 29
1.5626020129651117 -1.2276581049934543 -13.6948139160064 137 63 31
1.6010715333005754 -1.2214956437581272 -13.695672304997963 121 48 26
1.6356067063528181 -1.2166906767238075 -13.700727045224998 141 73 41
1.658546285751103 -1.2159348733293918 -13.718433860445577 173 121 91
1.7029686041108576 -1.2076352888756743 -13.71245297077639 181 125 104
1.7066434862391997 -1.2136366173600523 -13.751356009274502 169 95 80
1.753481246501094 -1.204456675938619 -13.742522300186117 141 65 43
1.7986183414563737 -1.1958475466859368 -13.735408375394922 135 57 29
1.8537048277976744 -1.1836961425662558 -13.717038204299499 134 51 21
1.8914943688024248 -1.1776266425066606 -13.71778737119017 128 46 19
1.9367398285234847 -1.168895388448066 -13.710058700566378 120 45 28
1.979842618615435 -1.1608969376829834 -13.704577119156067 112 41 24
2.0241382123664424 -1.1524488784329048 -13.69759916711693 133 56 28
2.06144630259102 -1.14646224118303 -13.69837139810286 142 59 30
2.115728594026658 -1.134401858838277 -13.67976059036533 172 101 74
2.1673841928872983 -1.1232411998527652 -13.663912623472209 168 116 87
2.1902514400032613 -1.1223464887785382 -13.68073127706148 133 81 58
2.2196762343045453 -1.119098633951392 -13.690022273902326 134 82 66
2.2494455539424143 -1.1157167166596387 -13.6988563278055 140 86 76
2.2851733363990707 -1.1101813819546509 -13.700760587787219 126 68 55
2.310353354292749 -1.1084272124857815 -13.714750354952807 123 50 31
2.3368270269231965 -1.1062007795335367 -13.727207713454288 130 49 24
2.3957399805129915 -1.0922454448202674 -13.70190707272323 122 43 19
2.418414055725468 -1.0913608208606442 -13.718598548248583 121 48 27
2.4572946864888676 -1.0845981315810098 -13.716318183190985 117 48 23
2.484173612855005 -1.0821714992978957 -13.727987656044156 140 73 36
2.514825308297344 -1.0783648289748013 -13.735171893056544 130 56 24
2.5396464487005757 -1.0766699415665784 -13.749164216003837 118 41 16
2.563966219483925 -1.0751525721494475 -13.763717965275799 130 52 19
2.6106405323354505 -1.0654594216193436 -13.751703109980417 160 81 38
2.6634881943157707 -1.053474222829968 -13.73214937729948 191 121 89
2.6973830622530874 -1.0483999625627638 -13.734999218411309 165 94 69
2.7203063687404176 -1.0473392303419546 -13.750894011620467 165 98 76
2.7494705929144097 -1.0439788268820087 -13.759270291159499 191 146 133
2.751216450904656 -1.0507125099067016 -13.80062415255147 191 153 149
2.7689734610802983 -1.0515579765583598 -13.822757618894535 175 129 126
2.8564134635275824 -1.026638864301556 -13.760427105537289 186 138 130
2.866292439846764 -1.030365242368281 -13.791921687294046 166 108 100
2.8711068031941434 -1.0434095709871314 -13.873414993058573 170 108 93
2.865990686878816 -1.052765475056904 -13.92358754593885 180 118 102
2.932128493959734 -1.0355829518792552 -13.886254950117563 171 110 96
3.413764824825095 -0.9510087911322948 -13.85328870944061 124 52 24
3.406318091499924 -0.9613394873414347 -13.906952328249368 124 51 20
3.3980065761493448 -0.9720368114351384 -13.961940350237185 139 73 27
3.4300820566582004 -0.9672946590093314 -13.964989111117593 137 76 27
3.431532991065178 -0.9742921186197038 -14.007611961586488 111 48 14
3.4480146647617476 -0.9755341196038596 -14.030849419431185 128 60 21
3.4745990504209354 -0.9728889550854534 -14.040947022158004 129 54 12
3.4895911367731287 -0.974707925809033 -14.066144434938021 116 39 2
3.502849931946227 -0.9772033921247907 -14.093652685687308 114 40 3
3.5045041815420266 -0.9842013048044409 -14.136474603511523 106 34 6
3.5145421361814977 -0.9879717952119851 -14.168382616144997 78 15 1
3.523847250896811 -0.9920404267462056 -14.201339037290207 63 9 1
3.539610454073572 -0.9936095827706195 -14.225809702025657 64 10 2
3.551902738788586 -0.9965378999560164 -14.254934200775441 79 19 7
3.563032741255306 -0.9999307236275021 -14.285672315733205 86 23 8
3.5771798305331455 -1.002155006139403 -14.31244112624558 83 21 7
3.5812398145958815 -1.008341671984665 -14.352807967778126 75 16 5
3.584484352114001 -1.0148706586741774 -14.39440367942627 98 39 19
3.5877379215484906 -1.0214194291851957 -14.436124660074405 128 71 36
3.5920380477621556 -1.0275791868986164 -14.476564961191254 110 54 18
3.5988305632681303 -1.032777014538695 -14.513746234181536 88 32 10
3.641908418733389 -1.0236419358491127 -14.501544814362088 76 26 12
3.6192932768008568 -1.0405037692010772 -14.579030278183321 59 19 10
3.6485238398881137 -1.036846624571265 -14.58572256966582 45 9 4
3.6188086591208 -1.0566163392269368 -14.67347955310055 51 10 4
3.6302926780359943 -1.0600449444529487 -14.70477042607435 57 11 5
3.6583339424537815 -1.0568783267175463 -14.713203519855362 56 10 3
3.6833050613945915 -1.0549278882915636 -14.725835295664105 55 10 4
3.639999693037357 -1.080317137014501 -14.833568498758291 54 9 3
3.619325592396005 -1.0967176688130318 -14.9102114918173 54 9 3
3.7440569238312236 -1.0547276713683988 -14.78334091370432 53 9 3
3.620522060499077 -1.1125648708650948 -15.004721407700336 54 10 3
3.6970972542419043 -1.0898794514581822 -14.945054150966088 53 9 2
3.685166918990249 -1.1028837009867118 -15.01013631390084 51 7 0
3.691177294239413 -1.1086710943898166 -15.050035123261301 50 7 0
3.6640485306170243 -1.1279231441503472 -15.13724102565211 50 7 0
3.6842155547050854 -1.1280246844738655 -15.15732012737638 48 6 0
3.6936260642797674 -1.132506312904181 -15.192811277838508 48 6 1
3.704843087239867 -1.1362677257983629 -15.225804772049273 59 10 2
3.7273041297266163 -1.1354482384275355 -15.242674174850158 78 22 9
3.6657705608505173 -1.169014282425163 -15.380967919571699 74 20 6
3.984307758663565 -1.1051465762013895 -15.312430686808636 148 92 84
3.998164613039802 -1.1078370539977735 -15.341665442212584 133 76 66
4.042115097530927 -1.0979850415423085 -15.326083585232315 138 75 57
4.057783902285323 -1.099915246735012 -15.352589964561556 128 67 45
4.061082173157677 -1.1070324835329122 -15.397702899256572 127 75 45
4.08017147812783 -1.1075525862671436 -15.419206651893292 117 66 32
4.103469826149784 -1.10630580016079 -15.434367704364186 85 35 12
4.126648013832831 -1.1051050329002226 -15.44968377640928 61 19 5
4.143704200665594 -1.106482686444533 -15.474275316907836 48 16 9
4.156609110737537 -1.1096205065629239 -15.505225758500355 34 12 7
4.613464652246118 -1.0089908052533219 -15.353740323493154 60 35 33
4.666125062151773 -0.9948149307867235 -15.321100675811026 60 30 23
4.719269233997563 -0.9803740029634516 -15.287366931777715 85 52 40
4.782656753867918 -0.9614277671066427 -15.236987773491308 96 56 47
4.845053583974286 -0.9428383021708467 -15.187753327741737 95 51 36
4.863428055372286 -0.9691585445961735 -15.360552395597239 91 48 35
4.827650002799041 -0.9935471236266726 -15.469661997141296 92 51 36
4.8117734058430415 -1.0092691242065697 -15.546942128077657 91 52 40
4.83975678398391 -1.0057012914609262 -15.552955790688715 91 53 44
4.8717055304228545 -1.0003662015789558 -15.552389198644374 94 58 48
4.904620266271206 -0.9945819796256008 -15.550109944479988 92 61 49
4.915791185759605 -0.998426661087316 -15.583549429784068 92 62 52
4.923391895675904 -1.0038749467095278 -15.62298682314075 94 66 56
4.920638669145604 -1.0139599111451252 -15.679736695607588 94 69 61
4.957156000472998 -1.0065482536548733 -15.671350429465143 95 74 65
4.969658032126381 -1.0098532634604505 -15.702896594976808 96 76 71
4.949839381724393 -1.0276641575700172 -15.788674227421442 94 78 72
4.947072850602067 -1.0378860092517148 -15.846217635869262 101 86 81
4.734914073194516 -1.2366570482110462 -16.81221520775454 158 156 156
4.832349967556473 -1.2014256486979238 -16.698791956539257 162 160 161
4.891518633196458 -1.1837072462672824 -16.651570503924766 165 163 164
4.9186676293484215 -1.1807224880852978 -16.660212999493282 167 165 166
4.9421268615301965 -1.1794353184012845 -16.67529156753445 169 167 168
4.975084391772136 -1.1737319779790112 -16.673530116235586 173 171 174
5.0123125729271205 -1.1660173848686883 -16.6640459557499 176 174 176
5.1931948559012335 -1.129428263039775 -16.623232038335935 180 180 179
5.210375226589791 -1.130970679013375 -16.64891413557075 181 181 180
5.248460966079843 -1.1226456788108083 -16.636662517043597 184 184 183
5.29798667262491 -1.1088702441971554 -16.603353756941488 186 186 185
5.463976361287534 -1.0781625886378094 -16.582800974801923 198 198 198
5.432526116990105 -1.1029403334559729 -16.69838368541268 200 200 200
5.440420465811491 -1.1187263802563143 -16.79900336006204 203 203 203
5.4680102110090045 -1.115260588593388 -16.805237894158342 204 204 205
5.481611111668522 -1.1185461278514075 -16.837730846087048 205 205 207
5.629765576510766 -1.066400025807907 -16.673658029811556 206 206 206
5.667813849597621 -1.0576970909931607 -16.659143847605634 208 208 208
0.06773735866488906 -1.556223130716738 -14.00177673274569 199 197 197
0.15017260482651462 -1.5359558499678827 -13.962769122924804 188 179 178
0.2219368382448117 -1.519221267309677 -13.934132560937623 151 135 133
0.36787674075232957 -1.4847861038034509 -13.873534300062811 106 63 56
0.4264038446738727 -1.4723765115905185 -13.857427751621223 108 52 41
0.4635786555170238 -1.4671638565368332 -13.86282333941985 114 50 36
0.5172222130070736 -1.4563471832026151 -13.851323712483165 139 72 42
0.5701000331779236 -1.4457579596801802 -13.840415807051325 141 98 62
0.627792039479047 -1.4334980255384457 -13.824378641066517 94 54 31
0.679609608013906 -1.4232032943876 -13.814170410385415 133 92 69
0.7294150036402645 -1.413564187208054 -13.805856229692047 134 73 50
0.7752546226084966 -1.4052517038696242 -13.80147672181213 119 51 34
0.7716616207556672 -1.4138421101763452 -13.848289066557754 111 42 27
0.8131868981830186 -1.406984516799233 -13.848258341408565 107 38 23
0.9241038893534386 -1.3762695920036263 -13.775607349216456 107 37 21
0.9668869058749436 -1.3689005493799367 -13.773797773732104 116 43 27
1.0358685138469204 -1.352481789917722 -13.744322101078279 113 39 23
1.0822473125932461 -1.343812584535808 -13.738375361293697 117 42 24
1.1202353473149058 -1.3380167904073885 -13.741143113945098 119 44 25
1.1048780062354382 -1.3506695974143241 -13.800371006861436 122 47 27
1.1764181352655765 -1.333234048617461 -13.767414967856254 123 47 27
1.2848782214229706 -1.3029241565950778 -13.69476165538585 123 48 25
1.3010427678588758 -1.304618997536013 -13.72029553895987 120 46 21
1.3931139729167956 -1.2798788584148477 -13.664414015486273 116 43 23
1.4275066985944305 -1.2751839542154393 -13.670152971828667 105 38 23
1.4656110729543101 -1.2691775732277597 -13.671800454193797 123 62 35
1.4801612096651846 -1.2713956832441642 -13.698837865409697 171 107 58
1.514269134838301 -1.2667655870696122 -13.704681078018767 144 72 28
1.5590369092332566 -1.2583787461447504 -13.698831031879502 113 42 23
1.5973136125862046 -1.2522480118232084 -13.699917080887904 124 49 23
1.633807530983864 -1.246725922891827 -13.702843762913059 170 100 52
1.6619292825875611 -1.2441396446596547 -13.714868147519107 185 136 95
1.7002996892013398 -1.2379245765212947 -13.715551067546798 156 103 78
1.7227947974145144 -1.2373074090615515 -13.733666605990678 166 96 82
1.7526729069307887 -1.234071800928424 -13.743586690166179 140 68 48
1.7838286080565577 -1.2303725270898376 -13.75202679433066 137 61 38
1.8514434229014407 -1.2136989136109984 -13.719739179867526 134 52 24
1.8515488509233107 -1.2210128541727432 -13.762652215176217 139 56 25
1.9029986922178797 -1.2100369429141162 -13.748101596981845 129 48 21
1.9692763884641131 -1.193728812735869 -13.716661767379687 118 42 22
2.020234962094734 -1.1828500266711695 -13.702205142967621 115 44 23
2.0559975386590432 -1.177382613048051 -13.704745455989594 135 55 26
2.099586937990133 -1.1690881409885527 -13.69829788533773 143 65 36
2.1542330150260183 -1.1567916505395328 -13.679104675547533 189 131 102
2.2046066586421365 -1.1459942446556888 -13.664559414965778 164 117 87
2.233639272538964 -1.1428600483675337 -13.674256435133676 140 88 66
2.2527986704057836 -1.1432830011839656 -13.695238216637518 127 74 63
2.2769470825112483 -1.1419020282719372 -13.710479846877583 139 91 83
2.2950610316413043 -1.142704022190538 -13.732670496294048 119 58 45
2.3247390805665002 -1.139310302460455 -13.741471856017643 125 52 31
2.3680911530632356 -1.1309330775512683 -13.734310668062431 134 55 29
2.4274037209715837 -1.116715104198007 -13.708377675679811 127 49 25
2.4549275736285434 -1.114048601787618 -13.71935496725958 115 41 20
2.4980195193980004 -1.1056843223998936 -13.71201829756207 110 39 19
2.530041759466136 -1.101344672907776 -13.717547036765259 114 43 20
2.566442112380936 -1.095385710947883 -13.71782616419565 124 49 20
2.567310162382566 -1.1024562664946564 -13.760051194245268 151 73 28
2.6125445637004177 -1.093230175252702 -13.749739420670668 165 88 42
2.664676599853853 -1.0814322739377997 -13.731036323029125 173 100 74
2.690006261045773 -1.0794873161133922 -13.744117710452542 165 96 73
2.7187751031404463 -1.0762646657801613 -13.753042198887947 162 95 73
2.7463306014181637 -1.0734807479298147 -13.763362780959252 158 111 94
2.779718405757791 -1.0685244728756875 -13.766601182358382 181 145 137
2.800667402567555 -1.0681731489530053 -13.784779410868637 191 147 143
2.871906765607446 -1.0491055313315059 -13.741979758540634 194 151 145
2.8681112194679317 -1.0579447886285178 -13.790053082541268 183 134 129
2.918494717814668 -1.0689955260695434 -13.90340261334654 169 109 96
2.953567807756941 -1.0633325029797103 -13.904131975894849 176 112 99
3.426758406045053 -0.9737967960598832 -13.837101614962785 126 55 32
3.4253934072949725 -0.9818489168492195 -13.882915205744993 126 51 27
3.413218432240485 -0.9940907390201595 -13.942811302848229 125 52 18
3.423431931325376 -0.9977407588622165 -13.974041449740362 135 69 26
3.453969927730597 -0.9935516881184381 -13.979017949635956 139 78 35
3.473479710039406 -0.993616101316394 -13.998239502686827 113 49 14
3.50343376756915 -0.9896319572095235 -14.003851486908314 134 61 21
3.528402856662903 -0.9875699649553673 -14.015899551519905 128 53 13
3.548458758966226 -0.9874122607276268 -14.034348466896859 117 45 3
3.5436909985572864 -0.9969279845750229 -14.085442337334754 116 42 6
3.541326869508292 -1.0055388366547218 -14.13356132826244 92 24 2
3.54063007062087 -1.0135280010630847 -14.179651826968701 66 10 1
