ply
format ascii 1.0
element vertex 709
property float x
property float y
property float z
property uchar diffuse_red
property uchar diffuse_green
property uchar diffuse_blue
end_header
-4.824802732274261 1.6916340811086008 -14.184957584839093 95 58 52
-4.784312080092173 1.8452591750870058 -14.36037782890423 93 58 52
-4.832492805691642 1.7380414497567012 -14.325282431620563 94 62 55
-4.827688845175743 1.7775186591812924 -14.39491427250224 95 66 61
-4.824800693063651 1.8109973497561125 -14.459164250917734 95 69 65
-4.804456196159244 1.9012124187415518 -14.577229500793798 98 75 71
-4.797403591665788 1.9486659916631597 -14.655327838196511 101 81 78
-4.790069559414638 1.9972645196100616 -14.734822760951694 105 89 85
-4.784338857246391 2.040875290846358 -14.809888000997622 111 98 94
-5.09012378780883 1.7278757664679443 -15.431349196024248 138 126 121
-5.11250816727653 1.6785436818572768 -15.416147816274073 130 116 111
-5.137757489304136 1.6192073120933328 -15.390522927863383 122 105 98
-5.159788701906648 1.5708045201881617 -15.375908193257487 112 90 83
-5.182355083158484 1.5204184799610578 -15.359083412415192 96 70 62
-5.201161820981442 1.4829248082668505 -15.355394739691526 88 57 48
-5.226689926881236 1.4219941509799012 -15.327329415015948 84 52 43
-5.235779203989424 1.4181031686214887 -15.35823678821454 83 49 43
-5.2436176574481745 1.4186286792027865 -15.393806810707837 82 49 44
-5.25121952806376 1.4200532733624076 -15.430405167449909 80 49 46
-5.2548441669061905 1.4354878735523764 -15.481753324218074 80 49 46
-5.2619437763445855 1.4388589790444213 -15.520621592643113 81 49 46
-5.2705018371155035 1.4371842437665938 -15.554291611170052 81 49 46
-5.281088516139706 1.4284208529317066 -15.580569918192552 80 49 46
-5.2881934977136655 1.4319946120712048 -15.619927297604306 79 48 45
-5.296145953415799 1.4326550744157815 -15.656307118412691 79 48 45
-5.306406561417905 1.4251992437796766 -15.684159856636757 79 49 45
-5.309396035541158 1.4436470400235049 -15.739645809289037 79 50 46
-5.316552059316445 1.4473970217654601 -15.77963179072913 80 50 47
-5.323779622200786 1.450982274694815 -15.819552955513394 81 51 48
-5.328621791311518 1.4631996912751903 -15.868847706273808 82 53 49
-5.333485529600564 1.475469671639468 -15.918357769319805 84 58 54
-5.338370114488601 1.4877956666361962 -15.96808790466082 93 71 66
-5.34393679052987 1.4977947556034241 -16.015462591169804 115 96 92
-5.351487288447662 1.5007480960358643 -16.05534775586078 135 122 118
-5.359412275828858 1.5024359923617387 -16.093967503610003 145 138 135
-5.369624096971062 1.49590859341878 -16.123739271162155 156 148 148
-5.38151077590304 1.4833357890682546 -16.14696516679409 158 157 157
-5.391773015451414 1.47670705952165 -16.1767251732499 162 160 161
-5.489072911422585 1.5309676701251957 -16.727929191598253 178 178 178
-3.0464466207261873 4.479694545844875 -12.65623832614143 187 179 173
-3.0997961612157523 4.389973924121923 -12.684332593537597 142 127 114
-4.203353340816709 2.20831137010026 -12.522378007939292 108 38 28
-4.23036707277871 2.1488586864620025 -12.504616577233575 108 39 28
-4.24759958232368 2.1177281889215926 -12.508787518840425 108 40 29
-4.264351697288266 2.087953055276011 -12.513954321071772 108 40 29
-4.276436661968435 2.071746646119062 -12.529710972303448 107 39 27
-4.303464961335964 2.011905036723694 -12.51112589916771 106 38 25
-4.321147350559622 1.979266485844486 -12.513819537568775 105 37 24
-4.342711340299192 1.9352142925397424 -12.507412093920504 103 35 22
-4.353126403836456 1.9237705126527214 -12.526747355969277 102 34 21
-4.36968895650914 1.8942871730633102 -12.53175273658026 103 35 22
-4.397430166335575 1.8318956051921789 -12.510461202241594 103 35 22
-4.410625791339074 1.812198560666217 -12.523100922347485 101 34 20
-4.427032307212941 1.7830209310665976 -12.528122895348599 98 32 18
-4.519659541872552 1.6438088400869013 -12.614685688277007 121 49 25
-4.530878499367976 1.6298701127444182 -12.63183693301129 115 38 12
-4.540586853607566 1.6204464624567274 -12.652697090872959 112 31 5
-4.559927638969176 1.58222563513521 -12.649892182324528 108 30 2
-4.58012575099701 1.541368184179452 -12.644813195015065 96 25 5
-4.589416332811823 1.5331581254412412 -12.666619025671338 63 12 3
-4.595210762311369 1.5354723643286876 -12.697178893414069 42 8 4
-4.6113181488210735 1.506805941222673 -12.702061923797194 41 7 5
-4.621993105518852 1.4944693098476884 -12.720494352770977 43 9 4
-4.620895096651668 1.5176716549014921 -12.76863190483667 45 10 5
-4.620881185587301 1.5377119531463834 -12.814286195895896 53 15 12
-4.622146240259802 1.553986385079166 -12.856930018006455 60 20 18
-4.624641788986439 1.5666251458915297 -12.89664888737262 72 33 28
-4.632557853287026 1.5628896895436366 -12.922665035873782 77 37 32
-4.631143666915232 1.587561856357508 -12.9727760133276 78 38 31
-4.666201600446218 1.5012755851759105 -12.928899417419544 80 40 33
-4.6711480259442 1.5066198472969656 -12.962671442759842 81 42 33
-4.684999623287794 1.4848216862029426 -12.973380161209423 81 44 35
-4.668052136825325 1.5572403392607472 -13.06463735265369 83 45 37
-4.675351789021543 1.555625589660659 -13.09280178985085 84 46 39
-4.695765171704529 1.5138032431832942 -13.086460940799386 86 48 41
-4.711112809548542 1.487470083017472 -13.093351764560108 86 49 41
-4.723190714398058 1.4711691287413036 -13.108861942318827 86 49 41
-4.728275336183362 1.4764305639106112 -13.143047968513807 86 49 41
-4.748981776098683 1.4335055190842163 -13.135470286394623 85 48 40
-4.7447473585501205 1.4676498289749498 -13.1948841773806 85 48 40
-4.742695295913395 1.4951895483701305 -13.248753466262766 86 49 40
-4.735750229411833 1.5380521245993157 -13.316228663101269 87 50 41
-4.738086732655805 1.5522497763351568 -13.358809695460199 87 50 41
-4.73723055783208 1.5764835548562686 -13.410355211826069 87 50 42
-4.746646558433147 1.5688107809283882 -13.433933865631023 87 49 42
-4.7538935347140105 1.56793861016954 -13.463562416956547 86 48 42
-4.761662831558031 1.5654797687395798 -13.4918503819891 87 48 42
-4.7670280054609275 1.5705979826503693 -13.526933730013102 88 49 43
-4.776355930939216 1.563344397675722 -13.551084351632959 88 50 43
-4.781959540426545 1.567828516220819 -13.585761510788872 88 51 43
-4.78780662625902 1.5716121619532482 -13.619903056497055 88 51 45
-4.789191355727993 1.5895381387078826 -13.666836438527042 82 48 42
-4.791519658521119 1.604594438275471 -13.711340399808616 78 44 39
-4.7934519770294814 1.6210072432537306 -13.75721110254953 75 42 37
-4.847168936996141 1.5870793421800498 -13.914180123937577 102 68 60
-4.810015897089489 1.7292470109871663 -14.0763899126493 100 68 62
-4.839151031243166 1.6592384012899144 -14.043804346395923 95 64 58
-4.844272056961113 1.6662389625948677 -14.082116413284275 95 61 54
-4.846270875878894 1.6833740788064127 -14.129924955523805 96 60 54
-4.843207672323212 1.7169553937358666 -14.193164502636591 95 60 54
-4.841819737461638 1.74529759411922 -14.251761921461295 94 61 55
-4.84072099591021 1.772860742536357 -14.309843936046414 95 64 58
-4.839048664162275 1.8024394198265092 -14.37002114183201 97 68 63
-4.8310419093753065 1.8527620075646851 -14.449881685582927 98 72 68
-4.8250092173499795 1.896898048527032 -14.52424248318875 99 78 74
-4.806068766766499 1.9833403912445453 -14.638794676427638 107 88 86
-4.968542647312633 2.044222600483258 -15.48653972558632 164 163 162
-5.197742032269929 1.5602892359638876 -15.382596376680418 127 113 108
-5.215127738593491 1.5276579983098229 -15.384012288650531 112 95 88
-5.229803010824786 1.5044410442491989 -15.395078165666717 97 76 67
-5.2584020182017035 1.4323810078916228 -15.35547389383105 87 63 55
-5.267218289825904 1.4295874646154436 -15.387566238541226 84 56 49
-5.275881350436926 1.4273918561342684 -15.420354113825894 81 52 45
-5.284563605042709 1.4251899421559626 -15.453211347511315 82 51 45
-5.288999032003839 1.4380668759407422 -15.501937093761406 82 51 44
-5.297794097713496 1.4356219610325676 -15.534732192994769 82 51 44
-5.307799766630099 1.4289391134784237 -15.563141706339458 80 50 44
-5.318156596302206 1.4210496785669768 -15.590330901958296 81 51 44
-5.325639349660378 1.4234506609878972 -15.628454696808376 81 51 45
-5.325278927072541 1.4539751853341247 -15.696513302294393 81 52 46
-5.33143340530838 1.4613666494272897 -15.740225967177711 81 54 48
-5.336230885530717 1.473738576894732 -15.78937933263963 81 56 51
-5.341811899745409 1.4834210585677043 -15.835816171077067 86 63 58
-5.347414925917698 1.4931433216523233 -15.88243979379654 97 77 74
-5.353811098577033 1.5001181729044992 -15.926256598812394 115 98 95
-5.360800708095124 1.5050509563914467 -15.968004263108567 133 119 116
-5.370265385965967 1.501094205467501 -16.000272109407753 146 135 134
-5.379250400811867 1.4989428616650207 -16.034565625467277 153 146 145
-5.387268761562429 1.50038653070993 -16.072842463842523 158 154 152
-5.39655922303433 1.4972631249797335 -16.1062512026367 164 161 159
-5.408001205418599 1.4863173349758734 -16.131202838716916 164 164 164
-5.418315681058351 1.4795423534501024 -16.160749484886857 167 167 167
-5.482293343262112 1.3372659747232083 -16.115325868661458 168 168 168
-5.510119565231732 1.5563669527873794 -16.736532770402718 179 179 179
-3.020034673505834 4.573989842064012 -12.618914706171712 206 203 203
-3.0319155748868294 4.560213401829877 -12.639298485899904 202 200 198
-3.071256072736995 4.471513370455612 -12.609204304596975 201 196 194
-3.08124300142732 4.462839260132409 -12.632921607657307 197 191 189
-3.095631908645035 4.442144239027376 -12.648524040041814 193 187 184
-3.11062576864055 4.419783715009443 -12.662980687661932 188 181 175
-3.129490237727939 4.386799621262324 -12.670180335921703 179 172 162
-3.1483176477562873 4.353879611384233 -12.677364225373339 166 154 143
-3.1683108109956164 4.317718813567304 -12.68226918351603 146 133 120
-3.1899728516374273 4.27692170863836 -12.683918818532938 128 109 97
-3.2456874462459417 4.160992586658139 -12.663246513016158 99 71 60
-3.2759537469845097 4.096231692868276 -12.647976033023255 94 62 47
-4.2267675920880965 2.1958382907011753 -12.47193529132008 106 37 26
-4.239593625543774 2.17751508360475 -12.486123902096233 106 38 27
-4.256387625428861 2.147598984505239 -12.491282592400104 107 40 29
-4.273502349367655 2.116704890733677 -12.495618626903955 107 39 28
-4.287862464932209 2.0938317580753467 -12.506162270322058 105 38 27
-4.297193496815672 2.0856805610859466 -12.52821600038525 105 37 26
-4.304868213175033 2.082411287370286 -12.55413595979916 105 37 24
-4.317467287456751 2.0646988978141843 -12.568722660472217 104 36 23
-4.327037239813991 2.055896818957322 -12.590339487283172 103 35 22
-4.3466527199267135 2.0174985792370594 -12.588536296734476 103 35 22
-4.3814319702464255 1.934269325359395 -12.551028310101557 102 35 22
-4.415169652457607 1.8539268421064299 -12.515536589559586 102 35 22
-4.432802443517065 1.821078018927118 -12.517694417788265 99 35 20
-4.440981845188122 1.816205260112734 -12.54217368824082 97 33 18
-4.540052748946582 1.6774047872092792 -12.65795720588725 113 37 13
-4.5596322357526295 1.6384107369438747 -12.654648118502255 109 28 4
-4.575323547882562 1.6110418719597623 -12.66078857515009 103 24 1
-4.601286820396139 1.5526912394879568 -12.641353617693076 92 21 4
-4.611390984468098 1.542059300017662 -12.661145189443754 58 11 3
-4.6161697097297765 1.5475313595650002 -12.694290598915305 39 5 2
-4.629239201549653 1.5279759366223273 -12.706745197110449 42 8 5
-4.6347675460458575 1.5312612717646275 -12.73819234730379 43 10 5
-4.636043537804905 1.5475086084839456 -12.780535798062129 45 10 4
-4.6383625725851285 1.5606799654677932 -12.82044079841974 51 13 8
-4.640992683425711 1.5729900628710514 -12.859745672713288 59 18 16
-4.657221211410512 1.5439205066724235 -12.864366508194813 69 30 27
-4.64887947997489 1.5898406628392494 -12.932161246024343 75 37 30
-4.64346239866767 1.627003567979279 -12.992818921635429 76 39 31
-4.680248830568749 1.5350489278213186 -12.944262191983995 77 39 31
-4.692921808414353 1.516835744317004 -12.958035421016714 79 41 32
-4.704633148477865 1.501567718083527 -12.974304247044579 81 42 35
-4.711328566055336 1.5017359877661605 -13.003758448196402 82 45 37
-4.724196786358338 1.4829250832671863 -13.017025531809947 83 46 38
-4.730883744504667 1.4831856664377403 -13.046652104893274 84 47 40
-4.725764171315648 1.5200023665508273 -13.107817419770589 85 48 40
-4.7346812234216715 1.5135118030389396 -13.13183515325835 85 48 40
-4.7452319252941795 1.5019813626107137 -13.151530447346158 84 47 39
-4.759377432350131 1.4792937099197383 -13.161562352861012 85 48 40
-4.755686720456913 1.5120874179107995 -13.219819395424107 86 49 40
-4.752353489190792 1.5439216473771986 -13.277455329703454 86 49 41
-4.746716023356485 1.583102197889886 -13.341726332564232 86 49 41
-4.7790773570191885 1.5690524007133853 -13.450421664346587 86 47 42
-4.772503771995643 1.611795108471155 -13.518696674847456 86 48 42
-4.775086570084636 1.6258614809309835 -13.561774348535954 87 48 43
-4.778297035554351 1.638043946844757 -13.603310150537105 87 49 44
-4.799390161566847 1.593748425560622 -13.5945649580542 87 50 44
-4.8062598841020145 1.5944266565858523 -13.625931174959408 85 49 43
-4.816113751670324 1.585687520942523 -13.648923403324986 81 46 42
-4.8121402365146615 1.6209347955527877 -13.711510167562025 78 45 40
-4.815978326581888 1.631475797911774 -13.752053084024553 75 42 37
-4.845114470571788 1.5613980707600605 -13.719831730476912 69 35 29
-4.8600676915244865 1.6055501306115327 -13.88477349187199 99 60 49
-4.85297503130583 1.6516726882199175 -13.958450455751597 101 70 63
-4.851478886046921 1.679970703744849 -14.016053353311595 98 69 62
-4.851461108901437 1.7036493938520159 -14.069612158818941 96 65 59
-4.849180223824871 1.734788116714539 -14.130242189329216 95 63 57
-4.85293906100544 1.7465207787433545 -14.173140270147785 96 63 56
-4.845303861764913 1.795340810203839 -14.250571611938675 95 63 58
-4.842733827325387 1.8279192201655077 -14.313207209576392 95 66 61
-4.840145419346301 1.8607316010152433 -14.376293006340486 98 71 66
-4.8378197847246565 1.8928622171331142 -14.43897551996297 100 77 72
-4.834022169799852 1.9299801822619327 -14.506563494933598 102 84 79
-4.814354230651491 2.0192773943877493 -14.623433161626352 113 98 95
-4.843479917571079 1.9992204799207878 -14.704471495026329 155 147 146
-4.971534817010764 2.072779288393043 -15.427137727469086 168 168 169
-5.244588628899315 1.5467017706833976 -15.421150978383071 128 117 111
-5.260955095043409 1.517492608268788 -15.426054542811954 122 107 100
-5.290477232930059 1.441678367497743 -15.382515148127911 110 92 84
-5.2994777807895055 1.4383790530337999 -15.414124125883884 99 78 70
-5.308044465218127 1.4366788224241773 -15.447471347983907 92 70 62
-5.316917035159786 1.4339537032257104 -15.479825259748747 89 65 58
-5.325629878050107 1.4318591407728265 -15.512913911193724 87 62 55
-5.3330992341549095 1.434276419713421 -15.550823095052557 85 61 53
-5.340015802001418 1.43875948800755 -15.59101128645405 87 63 56
-5.339187327197342 1.4711653914072862 -15.66081838192629 90 66 58
-5.344644240905466 1.4811554754928915 -15.707142685603351 94 71 64
-5.350380617018734 1.4902565826715533 -15.752666805300695 100 80 74
-5.35666844652835 1.4974792332624949 -15.796330459677847 112 94 89
-5.363969287536482 1.5011376359529525 -15.836319254845847 124 110 105
-5.37097764207259 1.5059518932830436 -15.877656200996292 136 127 124
-5.378289123627602 1.509760936181272 -15.918032423889096 147 139 136
-5.388733890864279 1.502226360579459 -15.946318994582626 154 148 146
-5.397191620855013 1.5020054125769589 -15.98254392175419 158 154 154
-5.406376932980515 1.4991931949541248 -16.01605854025558 163 159 159
-5.415531053984972 1.4965612001758615 -16.049845953131186 165 163 162
-5.424660648026062 1.4940863923530125 -16.08388291773529 167 167 165
-5.440235488298619 1.4678743193858095 -16.092137944627424 169 169 169
-5.451176170877437 1.4587747336526808 -16.119032897052676 169 169 169
-5.475787796012361 1.398979000152229 -16.090455392099575 169 169 169
-5.51945227386293 1.6266688095977138 -16.795810221684658 180 180 180
-3.130461599495309 4.424815868123557 -12.624878118326599 200 197 194
-3.1495805193530426 4.391039011325065 -12.631529694737262 197 194 190
-3.1653157820274416 4.366543165097124 -12.644434080431136 193 188 185
-3.177775157999603 4.351063545890003 -12.663461444706407 187 181 177
-3.1965299464769545 4.318204610005759 -12.670604050921826 180 173 167
-3.213553754970195 4.290092678573589 -12.68094341187324 170 159 150
-3.2352415470380653 4.249045726651424 -12.682344111140955 157 141 131
-3.2567736382400554 4.208372477326809 -12.68391249378089 137 119 106
-3.28283821723294 4.155068229199173 -12.676657770511852 116 95 75
-3.3129811866403345 4.090348869867723 -12.661352388249338 103 76 60
-3.342942324921385 4.0260200036594025 -12.646139528614508 93 62 50
-3.3727234776866624 3.9620775369297614 -12.631017959882364 90 56 45
-3.401424646903264 3.901031245130431 -12.617743448732204 91 50 42
-4.263918730490086 2.1811505115891525 -12.476632507568704 105 38 26
-4.27711596103961 2.1616967783244574 -12.489909574141699 105 38 27
-4.293807927756665 2.131959356182373 -12.495158526417566 105 39 27
-4.309631937672384 2.104736235445783 -12.502311899727049 105 39 27
-4.3176598080907915 2.100458353749113 -12.527383901133637 104 38 26
-4.328443995408703 2.08807551646494 -12.54613723194782 103 37 23
-4.34528184569782 2.0578075453443883 -12.550823272911519 103 36 22
-4.348309458357023 2.068374104571288 -12.587675572431404 102 36 22
-4.375176988816061 2.008349669882001 -12.56877504533497 102 36 22
-4.397547278345848 1.9615470770704087 -12.560178956276992 101 36 22
-4.43439778689823 1.8716110775321524 -12.51714115194816 100 37 22
-4.454983525620625 1.829877906030612 -12.51223552195747 99 36 21
-4.466962193440455 1.8137264133748299 -12.527674120429623 97 35 20
-4.556966660154693 1.7019628026263036 -12.665256439984663 110 33 11
-4.579638729460757 1.6535067573471993 -12.654245396343876 106 25 4
-4.591843641969868 1.6366150167286428 -12.668996700241493 99 21 1
-4.623026773352408 1.56222104373367 -12.636425179471336 87 18 4
-4.631861686402659 1.5554566048461638 -12.659391910507654 56 10 3
-4.635411330342862 1.5647772600143108 -12.695697838898418 41 6 4
-4.648909163924726 1.5438956858018495 -12.707062341285893 42 9 5
-4.65261625190692 1.5528378253067143 -12.74319729366424 42 9 4
-4.652852148775894 1.5724489675755255 -12.78832881618381 44 9 3
-4.652808266222643 1.5930213345252362 -12.83441332068297 51 14 9
-4.658745387965618 1.5953893983966174 -12.865398604536509 59 19 17
-4.664711390109725 1.597722626300241 -12.896430344283333 69 30 26
-4.6805900681294315 1.5696635886943433 -12.901939721664023 76 37 31
-4.656163180904354 1.6655526030766996 -13.012059550758348 77 39 33
-4.711036998827183 1.5174617291067274 -12.91610403747843 77 38 32
-4.719321179170158 1.512722486278101 -12.941245988554689 78 39 33
-4.731807828180745 1.4950271716556123 -12.95540737771752 80 41 34
-4.729970796935355 1.5216633522812661 -13.007381905404397 81 44 36
-4.736201069951408 1.5234192581951778 -13.038257165124495 83 46 38
-4.742676955696696 1.524466074911936 -13.068598920474884 84 47 39
-4.713820231244727 1.6354612953397165 -13.193553056144786 85 48 40
-4.748867217968534 1.5477794117126313 -13.147791156860189 85 48 40
-4.764527164744909 1.5203588733296947 -13.153791432953117 84 47 39
-4.761449685878437 1.5514605540127557 -13.210449472342436 84 47 39
-4.760296177745657 1.5766894580241684 -13.262212574077083 85 48 40
-4.761838205774081 1.593598144942737 -13.306910131165221 85 48 40
-4.759882188986477 1.6215982834139417 -13.361438432617044 85 48 40
-4.760420424179129 1.6418941149116026 -13.409416679382161 85 48 40
-4.763978886208196 1.6527907138431814 -13.449305543410091 85 48 40
-4.7737102490569665 1.6442913426025503 -13.472244055235148 85 48 40
-4.794197130108636 1.601811965679329 -13.465232721520817 84 48 42
-4.786520243296071 1.6484294055712967 -13.536913448865118 85 49 43
-4.803108330926111 1.618285429133211 -13.54079898545378 87 50 44
-4.811946055074403 1.6127178827442807 -13.566470078021847 87 51 45
-4.821997435210502 1.603321068140906 -13.588772971154262 88 51 45
-4.827575793225128 1.6082053570032704 -13.62386760439341 85 48 42
-4.8359261090677075 1.6043066605011336 -13.651186046720195 81 47 42
-4.829610833502679 1.6473625236968537 -13.720740127239496 79 46 41
-4.837393620402203 1.6454426060785194 -13.750056792797087 76 41 37
-4.870630891520769 1.5618615717441102 -13.705697953448961 68 32 28
-4.874964581647147 1.5941547412785795 -13.797065218107548 82 37 28
-4.869369212174163 1.6355133890355127 -13.865912940891636 98 53 41
-4.855485259621995 1.703863035547566 -13.95965134782497 101 67 56
-4.8659911835487835 1.6935326344638413 -13.981818713234968 101 73 66
-4.858444174210964 1.74178058709305 -14.05772830768696 99 71 65
-4.854272714857663 1.7792865431691114 -14.124063808110627 97 68 63
-4.877617163963269 1.7274106325613618 -14.108266192905837 97 67 62
-4.85011398878405 1.8412246063692792 -14.24541034238796 97 69 63
-4.847697245506792 1.8735481047356957 -14.307672188927953 98 72 67
-4.84533666949349 1.9058619334495215 -14.370155025651759 99 76 71
-4.842476828815183 1.93998776956786 -14.43455598127232 103 82 77
-4.83812150165096 1.9792083782577743 -14.503953681138148 112 93 88
-4.836547018767519 2.00948027586001 -14.565240822317467 123 112 107
-4.950131249304423 2.1847762935806743 -15.45042220886913 171 171 173
-5.089247082968532 1.98678313177729 -15.60629204803551 168 166 168
-5.299286713178988 1.534249062596703 -15.496128425162738 139 131 124
-5.311982526127883 1.5180500810627064 -15.51455952211025 132 122 115
-5.328943285330298 1.4865528078796864 -15.517011631132378 130 118 112
-5.335709700311277 1.491641325714582 -15.557700120627242 126 114 108
-5.343839161810542 1.4919147537563902 -15.593448594762581 125 113 107
-5.351070317310134 1.4955077658849447 -15.632781679354714 127 115 110
-5.358558978506572 1.4982595604923352 -15.671335457006888 130 117 112
-5.3659956992717275 1.5012873546872605 -15.710285577115016 133 123 118
-5.372488693815302 1.507835831146962 -15.75307635041137 140 130 126
-5.381372403872278 1.5057779643114841 -15.786840628780801 148 138 135
-5.388496201752451 1.5102154684247333 -15.827609287071706 153 145 143
-5.394733271384131 1.517996760742534 -15.872067035063122 156 153 152
-5.407220648121688 1.5029563296967696 -15.892203292934795 158 156 156
-5.416032644512236 1.5014420442187735 -15.926880340073359 163 162 164
-5.426724359410595 1.4930693727448405 -15.95425423685143 165 163 165
-5.436466067219659 1.4882468166533842 -15.985507847476216 169 167 168
-5.4429380244158 1.4955919277137042 -16.029999601187477 170 170 170
-5.451371129828056 1.4957704370794405 -16.066846842317005 170 170 171
-5.471281361241604 1.4533168309171556 -16.057401344191533 171 171 171
-3.217407353461521 4.31986114489432 -12.630241373290175 197 195 192
-3.2266694884951876 4.313204899134364 -12.655214275744704 194 191 187
-3.248216995966295 4.2724452800740185 -12.656856369610487 191 185 181
-3.261021510507494 4.255944079779718 -12.675076248577918 187 178 171
-3.2851285500841723 4.207971416251407 -12.671616471009038 177 169 160
-3.3052314351002483 4.171086583953665 -12.675699592226772 163 152 136
-3.327417936376854 4.12833726363761 -12.675645945769936 146 128 112
-3.381508659295778 4.015459420036276 -12.656182799781096 104 79 62
-3.408000227168742 3.960426627361628 -12.647209940465014 96 66 52
-4.29891034463242 2.1726378293557524 -12.486088482365872 102 37 25
-4.318366900085158 2.1346462301662927 -12.484919272108849 103 38 24
-4.332086982419485 2.11356670282989 -12.496850926039105 103 38 24
-4.338334148197613 2.114616372495477 -12.526067565147887 103 38 25
-4.347283529628072 2.1076926390720785 -12.549097684796727 102 37 23
-4.357794944722169 2.0961502058732484 -12.568530155010514 101 37 22
-4.376861176012881 2.0591582158941444 -12.567914782534691 101 36 22
-4.398119315445554 2.015571345045454 -12.561996993470437 101 37 22
-4.42271271366863 1.9619485556176133 -12.548008704331288 101 38 25
-4.443183852548865 1.920536161030177 -12.543562736726884 100 38 25
-4.475572590790756 1.8433756604573235 -12.51053018907698 98 36 23
-4.581045927293527 1.7048965053597098 -12.654902833781543 107 30 8
-4.602716084497167 1.6592771675457136 -12.646217448273765 104 23 6
-4.625134024755157 1.611290859990795 -12.635461579577843 95 18 1
-4.645116115715112 1.570626428706205 -12.63058269590605 79 14 2
-4.649552654081181 1.577319911786867 -12.664617440466895 52 8 2
-4.651385746479884 1.5920353744947406 -12.7053720640139 42 7 5
-4.664432377194669 1.572519898264774 -12.717900472930857 42 8 4
-4.671162456603602 1.5723532873014125 -12.746477570845535 42 8 4
-4.685301454207949 1.5494859108909087 -12.756217695690722 45 10 6
-4.670974127211009 1.6141242114210739 -12.838970331446895 51 14 9
-4.6774789576343405 1.6148539821915628 -12.868580756429333 59 18 15
-4.6855007013037335 1.6109540884722602 -12.894374956071568 71 29 25
-4.698694240694328 1.5911122097591854 -12.906806210143568 76 38 31
-4.710924547034583 1.5742357537809055 -12.921717947257758 76 38 33
-4.746147441387153 1.5070614360381684 -12.923182376240288 80 41 36
-4.763548868713487 1.4740391455901314 -12.924272931046305 80 42 35
-4.727091473793031 1.6086606748437031 -13.068153781047048 80 43 36
-4.720823641261495 1.6496085621286865 -13.132657323913241 82 45 38
-4.719319436353055 1.6758564615379719 -13.184816420670789 84 47 40
-4.731555942207506 1.68098013730132 -13.248896066754979 83 46 39
-4.775349146230225 1.5653720992535152 -13.17904004431273 82 45 38
-4.777936200294612 1.5789888996434 -13.22058375401312 83 45 38
-4.776139750512099 1.6065043070546703 -13.274316973962089 84 47 40
-4.776920553664761 1.62603079096412 -13.321291483097466 85 48 41
-4.772577395692633 1.6618613353741036 -13.382643457632447 86 50 43
-4.7757527888249305 1.6740671108847245 -13.423566114559149 87 50 43
-4.780151960413011 1.6824853043229075 -13.461292577005505 86 49 42
-4.794654392599325 1.6589023985742672 -13.470997742642377 86 49 43
-4.799459602546104 1.6661353169746431 -13.507823243555485 84 49 43
-4.799217033123082 1.6895265496420273 -13.559028353248598 86 51 45
-4.815138275478207 1.661464979954661 -13.564832592654854 87 52 46
-4.824712409240101 1.6536509903718724 -13.588561520574089 87 52 46
-4.83433531475438 1.6457070415183965 -13.612209951507863 87 51 45
-4.846489654341859 1.6296690281510648 -13.628667731723583 84 49 41
-4.849671577813733 1.6424591033492866 -13.6709236169267 81 46 42
-4.850671029816306 1.6623714881330387 -13.719700616987232 79 45 41
-4.853217709019358 1.6774179464353938 -13.764264052804528 73 39 35
-4.877381984118257 1.6227489442313714 -13.746092998259549 62 26 21
-4.880861941557524 1.6348679063879077 -13.788131817058995 67 27 20
-4.879653034756536 1.6622813201704636 -13.844164516079838 88 44 33
-4.8748959375841565 1.7013665918688043 -13.911005959835368 101 62 49
-4.880157184509265 1.7080596072785097 -13.948587121188975 104 75 65
-4.882210838979498 1.7252836734283497 -13.995893902412533 102 77 71
-4.880984259793371 1.753332424093351 -14.05326972308092 99 75 69
-4.875154484213283 1.7965904077555894 -14.124817570780897 96 73 67
-4.874290337269201 1.823793869805943 -14.181864280075104 96 73 67
-4.869077654116713 1.8654237187720835 -14.252429803061617 99 75 70
-4.8608428279998055 1.9171980373539736 -14.332655153544634 104 81 78
-4.846763860886441 1.9884676559298695 -14.431288341352925 108 90 87
-4.844459049691766 2.0212051185707214 -14.494499255920164 124 109 106
-4.842117147681018 2.1570382609685246 -14.787833325483124 172 170 172
-4.8932555009807945 2.117195589600753 -14.91880780448336 176 176 178
-5.114686423958099 1.9648802819218227 -15.531063321731573 170 169 171
-5.352386562673192 1.4984239326139193 -15.51161004200035 153 148 145
-5.360172879277676 1.4999666297561003 -15.548548561833385 153 148 145
-5.367945640884997 1.5016399456665823 -15.585720535672182 152 149 147
-5.375739353283088 1.5033195428110835 -15.622996659030523 152 149 147
-5.383987653584999 1.5034246490324268 -15.658711271882046 153 150 147
-5.391745961779719 1.505396780377593 -15.696488532652477 156 152 150
-5.399347890704436 1.5080270810403604 -15.735063271521476 160 155 154
-5.407957125574056 1.5070481382097523 -15.769909016513772 163 158 158
-5.415612110945164 1.509653431175499 -15.808656117064176 165 161 161
-5.422355621839534 1.5157104857861263 -15.851192663976256 165 164 162
-5.433914703282397 1.504070790799064 -15.874914390817239 168 166 166
-5.445764789682029 1.4913767688846047 -15.897532839179366 169 169 169
-5.455497779903417 1.4865658600187999 -15.928653003486772 171 170 172
-5.466336965054 1.477693029335133 -15.955458403925915 172 172 174
-3.272833391414255 4.282507977480687 -12.651786538422144 200 196 193
-3.2905001551772797 4.252410500211371 -12.660663431705743 198 193 189
-3.314688420588035 4.204032072945881 -12.656910996352629 194 189 187
-3.335318714615934 4.16554491408526 -12.659866101636215 188 182 178
-3.353126272022421 4.134922423044943 -12.668181211642803 182 173 165
-3.3751449477815427 4.092439260181138 -12.668216667188481 169 158 145
-3.398622677171582 4.045790231053827 -12.665258262315053 150 137 122
-3.4206598904806262 4.003122899206596 -12.664964563322332 130 111 94
-3.4462932050684474 3.9502548735994325 -12.657440209909934 111 87 69
-3.4721513636774484 3.896662594888881 -12.649271977491022 100 69 54
-3.5537267947238886 3.7239983818192006 -12.615528592954266 92 51 43
-3.6981842104988067 3.409924478263154 -12.537335819780612 93 44 33
-3.717461999628116 3.3741942240394587 -12.540615622598407 94 43 32
-4.440214713686931 1.9653101327447504 -12.509850436573942 101 39 24
-4.446760186456105 1.9655440513070865 -12.538393205180872 102 40 26
-4.453319563945344 1.9657806339547932 -12.567001415124867 100 38 25
-4.501161793186627 1.8418084302979838 -12.496840204902641 99 37 24
-4.615816701479394 1.675083186663748 -12.617897583379932 106 31 6
-4.6215725242288315 1.6778386897827358 -12.648652881243365 98 19 2
-4.644814325676554 1.6271499189960519 -12.635723462516818 91 15 0
-4.659860504554729 1.6014649359052284 -12.64316828467327 74 12 2
-4.66492277511256 1.6063859627449775 -12.675757736571196 51 8 1
-4.6665608905274985 1.6218921492103555 -12.717166833589122 43 8 4
-4.674296909510709 1.618721180871447 -12.743254145375534 44 9 5
-4.683576428425796 1.6108280913558626 -12.765475268301138 44 9 5
-4.704083378184523 1.5682888995589592 -12.758914112925858 49 11 7
-4.6857569968683315 1.645760591614946 -12.852298056655423 52 15 10
-4.686938225249952 1.6630974691999252 -12.895811847954914 59 18 15
-4.68474669769388 1.6909994590921404 -12.948320877034945 73 29 25
-4.6951541972582405 1.679889266385072 -12.968235213566441 76 38 30
-4.71894042629916 1.6271557129097123 -12.953101002691973 77 40 33
-4.734554272559556 1.6425508009152407 -13.054099582867558 80 43 37
-4.738138102315675 1.6528890274622086 -13.0923755839825 81 44 38
-4.746233064147744 1.6491577436226206 -13.118756794146577 81 44 38
-4.744733685904373 1.6756107543096155 -13.17101509362507 83 45 39
-4.744121825421542 1.6994059965759463 -13.221177794909039 83 46 40
-4.757455194454055 1.6793675998867443 -13.233814557768037 82 45 39
-4.772595565633498 1.6536080254128747 -13.24149719862767 82 45 39
-4.7872662727808635 1.6292995703147843 -13.2503878684755 83 44 39
-4.775204999502195 1.6896480833777918 -13.332612910035207 84 47 41
-4.772993053390227 1.7189930492122119 -13.388235311293759 86 49 43
-4.78075947431242 1.716770421472948 -13.41655638456356 85 50 44
-4.7914770849969495 1.705195859296309 -13.436768376892768 85 50 44
-4.796856073033842 1.7106600828417151 -13.471918740775157 85 50 44
-4.799024965197216 1.726449541032982 -13.516228664023345 85 50 43
-4.812051650165028 1.7076004439151902 -13.530190475287226 85 50 44
-4.811555195028619 1.7320867197329606 -13.582380117507611 86 51 45
-4.8148096524597594 1.7446657682561875 -13.624216503956237 87 52 46
-4.835386738335142 1.7016258773495059 -13.616844985523668 87 53 47
-4.843662540434478 1.6981245983085436 -13.644510642117098 85 52 44
-4.834267760679888 1.751695103478664 -13.723117153684816 83 49 41
-4.855306888599262 1.7071123495977716 -13.714301468773812 80 47 41
-4.874685785249913 1.6678058549355228 -13.710081379870399 78 43 42
-4.881800396713084 1.6682053488063957 -13.741428145333689 71 38 34
-4.88998967504127 1.6651682914145711 -13.76975308873443 63 26 19
-4.887123561021314 1.698168329865073 -13.83068236463695 76 35 26
-4.894800622250722 1.6969543777894978 -13.860858284539464 96 51 38
-4.884694614687871 1.7538930237490966 -13.943890904716685 105 70 57
-4.882191432430838 1.7862061644840463 -14.004850373995911 105 80 72
-4.891165129532346 1.7810598822601573 -14.031855082559868 103 81 76
-4.8780740410843295 1.8484302675523878 -14.125246892381758 100 80 74
-4.871072804225532 1.8960609697351831 -14.200925555124094 100 82 75
-4.876778508267353 1.902031333358177 -14.238597440258598 104 86 79
-4.861408619776837 1.9776876211597507 -14.340612451591365 112 94 89
-4.855330701110356 2.0229345393005946 -14.414956541661903 126 111 107
-4.904706950760368 2.1167955918503574 -14.834558316051675 178 178 180
-4.908857194146769 2.1561219675573464 -14.93956054622757 177 177 179
-5.376269200284488 1.5086291778380208 -15.504484878879154 165 162 161
-5.385259083344879 1.5058997651548633 -15.536919958279551 164 162 160
-5.392960386084651 1.5079447600188622 -15.574428624515683 163 162 161
-5.40149578101574 1.5070179601101081 -15.608916385844209 163 162 160
-5.4094346846920125 1.508354046582384 -15.645869828199388 164 163 161
-5.4173945371805505 1.5096957326515827 -15.682925382099825 165 164 164
-5.4246622841725465 1.5136746844297981 -15.722867696550473 165 165 165
-5.432468584586754 1.515757682339256 -15.76091019944618 167 167 167
-5.440533255121188 1.5169705470757036 -15.798128773038947 170 170 170
-5.448081843242778 1.520185467530971 -15.83757871982463 172 171 170
-5.457923480424558 1.5149530913182163 -15.868108468421974 172 172 172
-5.475970927706307 1.4791366076713546 -15.865929392612571 173 173 173
-5.4832966349545345 1.48335740853254 -15.906656325876746 174 174 174
-5.493594326927439 1.476528781778132 -15.935597850390753 174 174 174
-5.5068940894086085 1.490518790489106 -16.023572144171737 173 173 173
-3.3007133685155297 4.283352040093707 -12.64042342881753 207 204 204
-3.3445109708146394 4.199152241930742 -12.641589623556744 203 199 200
-3.3650731975531514 4.1607223350897105 -12.644561293909796 200 194 195
-3.382522096772441 4.131015171727361 -12.65348028210687 195 190 188
-3.402360460761773 4.094531819613401 -12.657655147855655 189 183 178
-3.4233218411478346 4.054825940418473 -12.65951705121704 183 175 168
-3.4461220961151326 4.009860061507139 -12.657628405383516 174 163 151
-3.464721845936671 3.976722933865019 -12.663896093548843 161 146 133
-3.4856334650530587 3.9369871253433395 -12.665480005675501 142 122 108
-3.5080039023660956 3.8930503884637493 -12.664026717447173 120 96 82
-3.5355561226245906 3.834310809481424 -12.652047374112238 103 76 64
-3.561396976674261 3.780337193480797 -12.643273672169867 94 62 52
-4.454284109781167 1.998778414365391 -12.523850423671963 100 38 25
-4.455148174416265 2.01626866922292 -12.566061273811211 100 38 25
-4.4936875993044145 1.9199959571678331 -12.518224442306641 99 37 24
-4.518142892130767 1.866110918684766 -12.503741198302714 98 36 23
-4.6805998197973855 1.6140125054596015 -12.640725293899008 71 11 2
-4.683028147399644 1.627173101137899 -12.68006472799196 51 10 2
-4.681167567574866 1.6536783994394861 -12.73052319180228 47 9 3
-4.69152336157362 1.6424909245447075 -12.750010692995701 45 9 4
-4.693205150501916 1.6582117508914522 -12.791808529475226 45 9 4
-4.724659208314917 1.5815662687510192 -12.757012946083776 49 11 6
-4.709382435135154 1.6500852715800445 -12.8428476634829 52 14 9
-4.7095658578252895 1.670702277107913 -12.889045703628025 57 16 15
-4.706896043528759 1.7003354776687005 -12.942945888200196 70 28 25
-4.719662936279219 1.6818659626343062 -12.956667142009277 75 35 30
-4.737100367847226 1.6487655642045889 -12.958062439073949 77 39 32
-4.720641685178432 1.7218835576605938 -13.048991297971163 78 41 35
-4.749488552840359 1.6530085920197681 -13.020202349682126 79 42 36
-4.744848240496932 1.6892927812604608 -13.080356314452416 80 43 37
-4.75263580861494 1.7085011994112542 -13.155857030918614 82 45 39
-4.753814057700119 1.7268104396356168 -13.201210909928374 82 45 39
-4.754756507505799 1.7459763965190747 -13.247447140483573 81 44 38
-4.783155002463889 1.6781866257728981 -13.219137952755528 81 44 38
-4.78827461348353 1.6841681421501322 -13.254131974269262 82 45 39
-4.791981566666926 1.6947149928249883 -13.293162646912762 83 44 39
-4.792987490325649 1.7139563178373933 -13.339835401142516 85 48 42
-4.793065864985069 1.7362744350805062 -13.389333082288537 86 50 44
-4.793648391112878 1.757107056283842 -13.437706900695288 85 50 44
-4.805328467223248 1.7425152456413584 -13.455338648406755 86 51 45
-4.824037808901643 1.7053728101026766 -13.4532502383909 86 51 45
-4.833719677628181 1.6971709444843865 -13.476442638465254 86 51 44
-4.84036915125801 1.698756536797836 -13.508272672162516 86 51 45
-4.849703401418472 1.7149115261708672 -13.583638406820985 88 53 47
-4.852445369039044 1.7293410868853298 -13.627109791750147 88 53 47
-4.861546624654322 1.7232595541635067 -13.652498664489539 86 51 46
-4.864685663614208 1.7365725220332373 -13.69520249923001 83 47 45
-4.867899269343519 1.7497439325876543 -13.737912274553981 81 45 41
-4.896774495860381 1.6793918007050723 -13.70599018945477 76 41 37
-4.902997283332132 1.6827954203228597 -13.740006729457416 66 32 27
-4.90596636959223 1.696906687100736 -13.78374483942898 70 29 22
-4.907707317828427 1.715147016961378 -13.8313449002988 88 44 35
-4.9105990151424965 1.7297315781154716 -13.87579581300163 103 62 53
-4.9056593671888225 1.7701723843927217 -13.943830582511463 109 79 70
-4.896759649718161 1.8238584912789837 -14.024166778759819 107 88 82
-4.889896934647833 1.871074126447589 -14.09893026130581 105 89 83
-4.881976232456353 1.9220158733638422 -14.177393159428654 106 91 84
-4.871122156314717 1.9829155241747838 -14.26529114525579 113 100 93
-4.8638351155232336 2.0322620944968817 -14.342940485378769 127 114 109
-4.904944171886857 2.1540293700833364 -14.786365829452095 179 179 181
-5.410871331209433 1.5097446754344839 -15.523140930432982 169 168 168
-5.418927207170771 1.510592301061144 -15.55933880876991 170 168 169
-5.427004281426349 1.5114419130392491 -15.595631400771698 171 169 170
-5.435946095644837 1.5091722644373418 -15.628737848945445 172 170 171
-5.443345884030592 1.5126889475358203 -15.668019323525392 171 171 172
-5.448818974682183 1.5234630015535986 -15.715077011420131 172 172 172
-5.4579627269681525 1.5206869189229133 -15.747928429634584 172 172 173
-5.466894326773731 1.5187689661325585 -15.781766084920228 174 174 175
-5.491157536319944 1.4595153889398063 -15.754638126790761 175 175 176
-5.5161182136504845 1.4609033699900813 -15.864067323864873 175 175 175
-5.526470566687277 1.4538495230314412 -15.892645963740456 175 175 175
-5.529485326139057 1.4746494339680627 -15.95131285817459 175 175 175
-3.4503377646061844 4.0375924344793725 -12.606254991780848 201 196 195
-3.4655077439687973 4.01412703155065 -12.619269939768209 198 192 190
-3.481156938432074 3.9892815012479685 -12.631298392757952 192 185 182
-3.491558458853895 3.9793552265805485 -12.653705297538764 187 179 174
-3.5100500172897218 3.946383817533444 -12.660013949661533 180 170 162
-3.529239767717542 3.9113780654095156 -12.664833769777154 166 156 143
-3.5510868326264426 3.868731416161074 -12.664209811840792 150 136 120
-3.5702125997696212 3.8338050238689902 -12.668931834098984 126 108 93
-4.454790419783823 2.033096932043888 -12.481856664073895 101 39 26
-4.462038702512929 2.031340512584406 -12.508760871951427 101 39 26
-4.469053252780435 2.0303313794382785 -12.53630843446403 100 38 25
-4.4722181191653245 2.0410452782624615 -12.573172276280424 99 37 24
-4.512518810178131 1.9389833642585539 -12.520845081722275 99 37 24
-4.6758200945838695 1.7056255772156494 -12.703043055194579 70 11 2
-4.703402039912364 1.6409868506933272 -12.678634193486069 53 10 3
-4.695106850370188 1.68773445582974 -12.745715887170869 49 10 4
-4.68524948111504 1.739539876639872 -12.817235860577327 47 9 3
-4.701265879477685 1.7108617219965985 -12.822437369560772 47 9 3
-4.7282423478358515 1.6479049573100455 -12.799139729293305 49 10 4
-4.728762322282524 1.667568970534243 -12.844364207440426 52 11 9
-4.732815757885271 1.6762709296548808 -12.880595795844325 58 16 17
-4.7330193086455665 1.6971321466661045 -12.927097138569497 68 27 26
-4.737155366927116 1.7057462765520066 -12.96348706340764 73 34 30
-4.742727618154498 1.7099147272615536 -12.996243446872018 78 39 34
-4.734099247109873 1.758931553544289 -13.066876162264826 78 41 35
-4.736921487553429 1.7719852042446398 -13.107405262572644 79 42 36
-4.759255947819074 1.723393256327522 -13.095842326027597 80 43 37
-4.790458393522963 1.6465876942584714 -13.060174099487957 81 44 38
-4.7607972756808365 1.785107834534926 -13.237392952515982 81 44 38
-4.76293343437881 1.800749253872885 -13.280672979715037 81 44 38
-4.770676568200834 1.798606235381766 -13.308830552296683 82 45 39
-4.780615234550327 1.7894915549055197 -13.331049579549319 82 45 39
-4.778611149468915 1.8186253765657368 -13.386284186611256 83 46 40
-4.805630306052482 1.7548527954672863 -13.361382872685656 85 48 42
-4.810705180601987 1.7613951508114534 -13.39722278846895 86 49 43
-4.809200429394914 1.7891793592898675 -13.451622998591048 86 50 44
-4.822596944739706 1.7690900072057918 -13.464500791378992 86 51 45
-4.8327937622772446 1.7593139007387664 -13.486367882380371 86 51 45
-4.834067661569934 1.778410780335347 -13.533549744164278 87 52 46
-4.865092721829974 1.7012570763061428 -13.496367433923336 87 52 46
-4.884995902410721 1.6599785655410906 -13.490490718098991 88 53 47
-4.8482661081066905 1.802691461062012 -13.646897190152057 89 54 48
-4.847725039420318 1.8281219552614836 -13.700236075135575 90 54 48
-4.858574899800775 1.8165413889788735 -13.720925728100676 89 51 47
-4.870558166498078 1.801271778235538 -13.738352722770863 86 48 47
-4.90751779935359 1.704249163982487 -13.682877422295766 82 44 42
-4.919305892638098 1.6894776425274571 -13.700566170338316 73 38 31
-4.915379605048386 1.7263291611860048 -13.76453086365023 67 32 22
-4.912640942606101 1.7594597254533921 -13.825393082107722 77 38 28
-4.909881839756529 1.7928325617641656 -13.886698610124546 97 59 50
-4.913076217528394 1.8067201268234259 -13.930630637924843 107 75 68
-4.900279358262164 1.8736229708996697 -14.022709994797331 115 93 86
-4.884405152786673 1.9510261150904196 -14.124706874265772 115 101 94
-4.873461066583165 2.012398314543749 -14.212546224588026 121 109 105
-5.445654038858326 1.4794515164989388 -15.473826120244855 174 174 175
-5.453759656978433 1.4801354652689058 -15.50970585652949 174 174 176
-5.463152543211268 1.4761114412530256 -15.540746505323849 174 174 176
-5.472600924792198 1.471938989347728 -15.57169784717883 175 175 177
-5.482219904767103 1.467187141142218 -15.602105315532565 175 175 177
-5.490348539189505 1.4680736312078961 -15.63852578311827 175 175 177
-5.510148350595497 1.425220769738079 -15.628766389744138 175 175 177
-5.516766133775128 1.431855685596907 -15.671353710320963 176 176 178
-5.54950571133414 1.4356985308573327 -15.818639676730594 176 176 177
-3.5174985155664378 3.9645980346611003 -12.602170999236815 204 197 198
-3.5333195545318286 3.939145727945518 -12.613675549394163 200 193 193
-3.5497042337243623 3.9120556964364797 -12.624001816494411 196 189 187
-3.5569173683901703 3.911247906067265 -12.652704169475015 191 184 178
-3.5749704743763444 3.8793446764459145 -12.6596178234598 183 175 166
-3.594227209468454 3.8439403114379034 -12.664006950218408 173 165 153
-3.611246023988294 3.814931467681487 -12.672841886527953 159 148 134
-3.630395162400428 3.7797477601684353 -12.677256104872273 142 127 112
-3.654870018131017 3.72914013382431 -12.670646905586004 119 100 85
-3.680860075600237 3.674063772778917 -12.660726509762451 102 77 63
-3.7070080951514726 3.6184295047736366 -12.650260955033701 94 65 53
-3.7330234026745845 3.563077277675794 -12.639847808942534 91 60 48
-4.340713221964842 2.332447391319543 -12.532050630439528 99 39 28
-4.466962075829523 2.0725234673877506 -12.500404388293225 100 40 26
-4.480178365291647 2.0527205040157854 -12.513184609449425 100 40 26
-4.513592134548293 1.9917710817894916 -12.521850517908206 98 37 23
-4.533766879295693 1.950630440869424 -12.517652847102006 98 37 22
-4.678307891058124 1.7754684635983744 -12.74740567766296 69 13 4
-4.685136817532085 1.7754214091798857 -12.776138548929545 54 10 5
-4.688062959829141 1.7876255095819835 -12.81500976643461 49 9 3
-4.695597849752735 1.7854817968664474 -12.842168198326409 48 9 2
-4.708311407280621 1.767134481109613 -12.855988292148428 48 9 2
-4.749515246388015 1.6592643060999572 -12.795603976553817 49 10 3
-4.75078131582308 1.6767772558042124 -12.83899997272765 50 10 6
-4.754057772362703 1.6880580678271682 -12.877344380617586 56 15 14
-4.7532285943109915 1.712385378697193 -12.926698627527708 63 23 21
-4.757355666698121 1.7211679394801567 -12.963206857309718 70 30 27
-4.7543784965738825 1.7525292289707886 -13.018773799541943 77 38 34
-4.7369523124739175 1.8298807316963739 -13.113251845860875 78 41 35
-4.738611077547427 1.8468904978994787 -13.15721274084392 79 42 36
-4.813766598105018 1.6522032956006734 -13.051563652835501 81 44 38
-4.819746284431597 1.6553568668963963 -13.083664545636205 81 44 38
-4.789492944552229 1.842737746352669 -13.363038553860697 83 46 40
-4.802534381208586 1.8468277956257757 -13.426992315970928 85 48 42
-4.809554607628591 1.8473483068835441 -13.45776608847798 87 50 43
-4.817182768011829 1.8459559381092157 -13.486950783876823 87 50 43
-4.843723363651867 1.783293174360769 -13.462872211778938 87 51 44
-4.856822899870448 1.7641224741522237 -13.47653314813035 87 52 45
-4.863464243659262 1.7659505287346264 -13.508547963182885 87 54 47
-4.875796772265527 1.7492905426981884 -13.524425190922823 89 54 48
-4.865791465071822 1.8055550205997606 -13.60442250610137 90 55 49
-4.857339835563387 1.8569895451434202 -13.68048627689277 92 57 51
-4.8816311891600535 1.8013851338747173 -13.662245829239069 92 56 50
-4.88527970633419 1.8133904798343443 -13.703735441110915 90 53 49
-4.883196150595818 1.8443400545179567 -13.762181141024294 87 50 48
-4.918452341865283 1.7524689724281535 -13.711443813660225 81 45 42
-4.913092055522187 1.7943439218188089 -13.779790872544755 73 38 31
-4.9193874989142365 1.7978969235421367 -13.814092882117166 73 38 27
-4.915399332024945 1.8355732386463024 -13.879111421886396 88 52 40
-4.9153329425746275 1.860432351614564 -13.93284197503223 104 74 66
-4.8905368483116725 1.9676282675008734 -14.061042956386288 119 97 91
-3.6158808189508123 3.8407478418246135 -12.620498595499555 197 192 190
-3.631162418303264 3.8166663284702342 -12.632767484517153 192 187 184
-3.633472317475537 3.8301082128177963 -12.67148179412164 186 181 176
-3.6540869365521167 3.7905798703855798 -12.672835229190369 182 174 165
-3.67464051146865 3.751168371545852 -12.67418420758095 171 159 148
-3.694898494885684 3.712555473478299 -12.676013977137977 155 141 126
-3.7172037715824553 3.667927835188329 -12.673470308115315 133 116 100
-3.7396336138475323 3.6228628301992036 -12.670506460672822 112 92 76
-3.765927084926976 3.56645160926366 -12.659299324438557 100 76 61
-4.14245138516921 2.740160058097088 -12.458937923799429 97 42 31
-4.114137747962646 2.8445920204089017 -12.565274026757102 98 41 30
-4.282822923806639 2.543554796529307 -12.624716609746923 99 41 29
-4.3314193117748125 2.4172902740137254 -12.556523375018845 99 41 29
-4.333817319477064 2.430590825087566 -12.595303055478293 99 41 29
-4.345540074386953 2.4156988716846906 -12.612442639668705 99 40 28
-4.364599943816806 2.3785272907298247 -12.612346532173905 99 40 28
-4.45816511788626 2.155645854539092 -12.524686596279082 100 41 28
-4.471739318084609 2.1348089635568686 -12.536780163703046 100 41 27
