ply
format ascii 1.0
element vertex 713
property float x
property float y
property float z
property uchar diffuse_red
property uchar diffuse_green
property uchar diffuse_blue
end_header
-1.3370415463633774 3.886399643389229 -13.685879424652512 29 7 4
-1.3335046317192236 3.9001118053531787 -13.710098604251925 39 7 4
-1.3269616885944688 3.9309195503807937 -13.71613120322492 64 16 3
-1.3167008097289001 3.982900959875856 -13.699460729706416 100 50 20
-1.3084201743620616 4.023639629799277 -13.694634700415845 113 60 23
-1.3044346496825747 4.039929356651247 -13.715952568212781 97 45 16
-1.3034080802143393 4.039349185759087 -13.75547164321468 60 15 4
-1.300779189210085 4.047887824375523 -13.785252102738447 55 12 5
-1.2988301123084565 4.052536643477679 -13.819313957834098 74 25 10
-1.295277741539889 4.066324578967568 -13.843526030145368 111 69 36
-1.2985834208860707 4.040931897600078 -13.910499223365177 83 28 8
-1.2984789159915802 4.034983250788031 -13.95648459777453 65 13 1
-1.2981058809847585 4.030544096580359 -14.000971214572415 58 13 5
-1.2839313004009116 4.105043816075466 -13.95876526765074 59 16 10
-1.2781060203925898 4.023000449217065 -14.744105925700335 73 35 26
-1.2714700128261684 4.0542969234460315 -14.749864304746245 17 3 2
-1.2667336595641001 4.074624650188777 -14.768292857808463 12 4 2
-1.26046179466891 4.103835471461 -14.776359314361809 17 6 2
-1.264103763187819 4.068558871662289 -14.90216204456338 52 15 9
-1.2625825694422477 4.070222575235901 -14.942743390325525 58 17 9
-1.141721819981663 4.651296693968409 -14.968709084730156 88 56 50
-1.1309837940720557 4.706890906173271 -14.942745059690562 51 23 19
-1.1266400806728152 4.72505740034369 -14.963037895424455 49 23 23
-1.1308934675455813 4.69280988075661 -15.046183572536798 64 37 37
-1.1302312991808305 4.689341019590717 -15.093723325920239 66 43 42
-1.1368126101636062 4.643315693030992 -15.19479096968136 62 44 45
-1.1343643021009535 4.650256985391952 -15.229727634622138 47 35 35
-1.1398494106685826 4.610545246851443 -15.323597674638311 22 12 14
-1.1407515833139166 4.5977173140181815 -15.383897045949563 14 5 5
-1.1593831514053512 4.48049241947632 -15.576882208342004 15 7 7
-1.159912105732341 4.469714305684344 -15.635441646953069 44 38 40
-1.159738378808295 4.463038570135491 -15.688993465741294 36 27 30
-1.1556059611656249 4.47967467701946 -15.712906776380905 62 50 51
-1.159311521222108 4.4500538302696535 -15.79622121970613 60 45 45
-1.1562342838624966 4.46042114159326 -15.828427012216292 54 39 37
-1.1546062112627618 4.462213341634514 -15.87177691454654 47 33 33
-1.151018938353616 4.475565973284264 -15.900293518486162 34 24 22
-1.1459097048196596 4.497914671755878 -15.917176018878465 19 10 9
-1.1393525167730516 4.528838964926576 -15.922869248431944 16 7 8
-1.1332449799082516 4.557113899763284 -15.931939418377326 15 8 8
-1.1258703086038793 4.592911714931136 -15.931087936361969 15 9 9
-1.1250007473498393 4.590141539630699 -15.980798420478367 34 29 28
-1.1242452229158286 4.586664238163152 -16.03161625724259 37 31 29
-1.1247910624344595 4.575425450126714 -16.092875898122152 38 30 28
-1.1424048490357088 4.462692032697943 -16.288942558611154 17 8 7
-1.1395625398565654 4.471453526009306 -16.324491657038013 13 4 3
-1.136304291910133 4.482675195253752 -16.356849654698127 14 5 3
-1.1323115702425444 4.498259223560732 -16.383443586070285 16 6 5
-1.1307895621417288 4.499110896631399 -16.429838586249105 19 8 6
-1.1178885585968883 4.567803683965576 -16.38510636861622 25 10 8
-1.1189014170202367 4.553519535765872 -16.45196573915822 36 18 16
-1.1132696967461826 4.5788726586237125 -16.46545212541634 43 19 17
-1.1119769950852598 4.578299897906761 -16.51409187793959 43 18 16
-1.107061734054643 4.599364071187809 -16.533440252044976 43 19 15
-1.1016125695248404 4.623624752047996 -16.54841748210082 40 17 15
-1.0956010703858752 4.651258968908778 -16.558742279062464 34 15 13
-1.0922904476644435 4.662715920794139 -16.59122926481359 21 9 9
-1.0915275537176963 4.658879795105279 -16.644857689450316 33 27 26
-1.089985218165069 4.659687523518657 -16.692266467497532 50 40 39
-1.0892642816397469 4.655533784507973 -16.74671157876733 55 38 36
-1.0936568211838027 4.6206098169276615 -16.844129969269396 60 41 38
-1.098096722493227 4.585321210304146 -16.942513811295917 75 59 57
-1.103726446899839 4.542789964840496 -17.051487522792513 100 92 90
-1.1039956267727025 4.5324570207080725 -17.115829525738135 116 112 112
-1.0989046318915285 4.554390170704601 -17.135044061424573 132 131 131
-1.0839106985375588 4.636064204845937 -17.069965074728096 142 142 144
-1.0778746354616444 4.663750057812859 -17.08076868232886 150 150 151
-1.0694903899561785 4.705632545070041 -17.07136454390493 154 154 154
-1.0464993978102872 4.809577349208237 -17.12326550546244 167 167 169
-1.7621636226394717 1.8692115089934784 -12.427648001090542 119 50 34
-1.7602963084643162 1.873649130118065 -12.4594039989972 120 51 35
-1.6401234016568762 2.469723759861173 -12.379459709584546 123 52 34
-1.6297604267614068 2.521501342481777 -12.369995722393398 124 53 35
-1.6209252283057523 2.5648018408937867 -12.3676976197555 127 56 38
-1.6128685137449024 2.6037875327851445 -12.369018623637114 124 53 35
-1.61204186780044 2.602508373163122 -12.405262391998471 122 50 32
-1.5914738577712624 2.7112468168237287 -12.345629248729958 122 49 30
-1.581236020919599 2.762458890816861 -12.335871000643149 122 49 30
-1.5790993840005694 2.768505741931052 -12.36557819759257 123 50 31
-1.5746628743034816 2.787377309399025 -12.3840634326869 124 51 32
-1.568922212976335 2.8135306153014774 -12.396120685118223 121 47 28
-1.5625709972069375 2.8431008108953133 -12.405114871465033 120 45 26
-1.5558710396200635 2.8746293006002883 -12.412314291328222 122 46 28
-1.5452699265880059 2.927978716829763 -12.400020064845062 123 47 31
-1.5356126825958198 2.9760792973951444 -12.392232607364829 124 48 32
-1.5280892488938453 3.0122660450380723 -12.394960287491042 123 47 31
-1.519666827320147 3.0535007179750284 -12.393062589340548 121 45 29
-1.5097050917166008 3.103376078109889 -12.383263760239284 122 46 30
-1.506727342105152 3.114149120180115 -12.40862117951919 125 50 32
-1.4927775987036118 3.186416670501611 -12.378310198351553 126 50 31
-1.4872851812078625 3.2113051634749272 -12.390761643530446 123 46 28
-1.4794270419590325 3.2494718249512324 -12.391079830650806 123 46 28
-1.472414741897143 3.2829086871646878 -12.395615269218847 122 45 27
-1.4632087761230403 3.3286771514182414 -12.388768985742987 123 46 28
-1.4566085788849807 3.359831607667539 -12.395208591115262 123 46 28
-1.450270783130234 3.389522917526757 -12.402928036431543 122 43 26
-1.4484832678494306 3.3936389627869943 -12.434229355733613 121 42 25
-1.438268567935995 3.4451486777444265 -12.421665788810948 124 45 28
-1.43031355525603 3.4839712001925998 -12.42072015788733 127 48 31
-1.4225904669309741 3.521506700737457 -12.420863417265362 122 43 26
-1.412480695458924 3.5725044168157396 -12.40831178245185 122 44 26
-1.4084430368494667 3.5893116919699573 -12.427650115574192 123 46 28
-1.4089207024891945 3.580659053850245 -12.470944019751329 124 47 29
-1.4011259674139553 3.618645544651293 -12.470385658821474 120 43 25
-1.3932421609893049 3.657153140971345 -12.469225663267665 121 43 23
-1.3847327712907345 3.6992118713978472 -12.46458427938441 121 42 25
-1.3735498944089435 3.7563949437640813 -12.445418843200112 121 42 25
-1.3687433202430441 3.7775794989861557 -12.460392521887137 120 41 26
-1.3641628278844702 3.7974887960980004 -12.47656895668732 123 47 31
-1.3576920443951837 3.828092821329844 -12.482468962637883 124 54 39
-1.3515962937197352 3.8565863394066424 -12.490330371075263 126 65 54
-1.3463910762236337 3.880047582484492 -12.502991322573521 146 88 80
-1.3279644177418068 3.9784108637680093 -12.443098465443294 154 94 82
-1.3192355705833063 4.021888618383438 -12.43605068088273 149 79 62
-1.3173722262843617 4.0264620897316945 -12.466745465425861 145 67 43
-1.3116578481188914 4.052869570763349 -12.476190046537663 155 81 54
-1.303657456772412 4.0922600450754745 -12.472869123030058 153 81 42
-1.2989005769539022 4.113253407585577 -12.487497637608966 130 59 12
-1.3017903596498859 4.090807851268237 -12.544902392325454 84 25 1
-1.3083485629300735 4.047472029892333 -12.623176254836684 58 9 5
-1.307611399127791 4.045563213584293 -12.660750450626534 57 11 4
-1.3043608768061388 4.057934780639275 -12.684247035685107 65 12 5
-1.3055243205598288 4.04517520737257 -12.732821718541071 79 29 21
-1.2993742966930295 4.0740364656822905 -12.739973056269806 88 45 36
-1.2906099804910185 4.1178046265769 -12.73211870432734 90 58 51
-1.3676001016560912 3.5940968455731896 -13.753380547146573 13 4 3
-1.343740143145602 3.724297665478617 -13.65644355716996 17 7 5
-1.3480177481570785 3.686341492316245 -13.773776312472233 20 4 4
-1.3128854335669349 3.8748596346886517 -13.65289209992888 26 6 4
-1.3016015977429984 3.919695073005542 -13.721538568120938 76 19 2
-1.2893605042229086 3.9835005281972045 -13.692274996780501 111 58 26
-1.2835993313159593 4.009991052918495 -13.702708004912708 108 54 19
-1.278941361727147 4.030125470488311 -13.719921623231288 82 32 10
-1.2769926249466035 4.0346231592498105 -13.75397493972659 55 11 3
-1.2733102690562186 4.049117731565681 -13.777313864760941 64 17 7
-1.2689778472661186 4.067364126867508 -13.796613058480197 89 41 21
-1.267403148631707 4.069665833403412 -13.833245483408929 110 65 34
-1.2754187292678312 4.016471571149658 -13.930474791535278 73 18 4
-1.268928547308358 4.047157504311838 -13.936459777091986 63 15 5
-1.2756505702286203 4.00134213206611 -14.02624425655436 56 12 4
-1.2579743759536628 4.096828096553059 -13.961070476996635 71 25 16
-1.2561877391996954 3.9858070838289628 -14.779844015914097 68 30 22
-1.2505153314818074 4.011600470189124 -14.792092851282286 17 3 1
-1.263182116288775 3.922467353329936 -14.980430965461633 17 6 4
-1.2559168137962855 3.957541470701555 -14.98218309673721 34 11 6
-1.232533196861087 4.087223734997914 -14.872949471587983 51 16 8
-1.2297982926075448 4.095789461315892 -14.905327064247986 58 17 9
-1.1130787046215547 4.656075679801984 -14.955304947319803 88 57 51
-1.0981542073370243 4.737045064613414 -14.897897013479568 47 19 16
-1.1026022502356767 4.702979229866301 -14.982952210047737 52 27 27
-1.1058624399136094 4.675907426446981 -15.059679098902244 56 30 29
-1.1055362621307026 4.6701140058946775 -15.110153141815886 66 44 43
-1.1088441095111017 4.6426515038422895 -15.187967164594301 62 45 45
-1.1065292526792814 4.648626241548683 -15.224095290914011 38 26 26
-1.111647114284925 4.6102719182516125 -15.316203853616774 15 5 6
-1.1142114529541411 4.587074519863708 -15.389575427244196 13 4 4
-1.1282134507766715 4.495542184660553 -15.549913495397755 29 22 22
-1.1299909101863013 4.47688587161415 -15.618397520828289 44 38 41
-1.129591241380571 4.471192148766697 -15.67063401609714 24 18 20
-1.1342543691757974 4.43518048557391 -15.76184422353267 38 29 30
-1.1351063944414128 4.421905381255421 -15.824302934455176 36 26 25
-1.1333525896336947 4.424193506208581 -15.866985426922309 23 12 11
-1.1318880435419603 4.424723854708707 -15.912069649828446 18 9 11
-1.1294231687147915 4.43122752282305 -15.949569742035079 27 19 19
-1.1203685193270538 4.477264675889672 -15.935852841619184 19 13 13
-1.114181845335799 4.506112217285626 -15.944317002846153 16 8 9
-1.1071951534989655 4.539780441051745 -15.946418256595809 16 8 8
-1.102108920137312 4.562037448333876 -15.963358323659243 15 9 9
-1.097400033670434 4.582026589081381 -15.983259114458534 27 21 20
-1.0967505845247998 4.577566194524487 -16.035367867205053 37 32 29
-1.0959865491750618 4.573762134148143 -16.08679870226804 39 31 29
-1.1119039490900615 4.469311924830426 -16.27178361710247 29 21 19
-1.108306447943063 4.4824710470394775 -16.30143428558812 13 5 3
-1.1055019962831631 4.490830132206892 -16.337538425554328 15 5 4
-1.0978158735531156 4.528678584635513 -16.334311695165763 17 6 5
-1.099022033171767 4.512766060106763 -16.403030823713575 21 9 7
-1.0923091381988594 4.544735561856013 -16.407644164085028 30 14 11
-1.0871236592928324 4.567469859841513 -16.42462067569347 38 19 17
-1.082848369633206 4.5846904014923595 -16.449036139967895 41 19 16
-1.0815256182449748 4.583995795485548 -16.497782495366014 43 18 16
-1.0762520579681665 4.607254532873481 -16.514101642375884 39 16 14
-1.0691456038663854 4.641652730525364 -16.515193464650878 34 15 14
-1.0666115068879742 4.64827359929291 -16.55419430941388 23 10 9
-1.065268273169476 4.647628866682068 -16.603280800412886 25 19 19
-1.064159469985896 4.645525587107078 -16.654546002463608 44 37 35
-1.0660028281044807 4.6254005794977795 -16.73088361026793 56 41 40
-1.0661026440327197 4.615846522611906 -16.792910434185032 60 39 37
-1.068846115235067 4.590114573887841 -16.87765948831787 68 49 46
-1.0746236000332372 4.54578378922742 -16.988705731523392 93 81 79
-1.0781269076788482 4.515253296579937 -17.081002729509528 106 102 99
-1.0761623726371834 4.518087795405167 -17.1269572038086 121 119 120
-1.0294023217755255 4.776957315383823 -16.91163674651883 152 152 154
-1.0409477406872898 4.696988144240057 -17.074593611259697 156 156 156
-0.9655961910536122 5.077762163571086 -16.976454135202435 184 184 186
-0.9580543358496361 5.115110175858618 -16.97185183831592 187 188 190
-0.9043753774344846 5.392168929948254 -16.86224953522254 200 201 203
-0.4631011303194441 7.523165694880745 -16.963932487153063 213 213 213
-0.45932823016884095 7.537730596968446 -16.989801932441914 214 214 214
-1.6251597830723816 2.411745497822176 -12.353348265364158 122 51 33
-1.6201687324529987 2.433655502374835 -12.369694612911644 122 51 33
-1.6126668611097448 2.4696869541557103 -12.373889652143932 122 51 33
-1.5803359653782416 2.6393141796148116 -12.297685193958564 124 53 35
-1.5739825199200386 2.6689676370822824 -12.306905485820023 123 52 34
-1.5647359129702856 2.714928219408912 -12.301892022134178 121 49 31
-1.5685588076090273 2.687258842547454 -12.360944597573262 122 49 30
-1.5534116798241695 2.766502867748547 -12.326733999647569 123 50 31
-1.5528443910473302 2.763561917501632 -12.364296706596424 125 52 33
-1.5485674094531832 2.7815359486755256 -12.38357214887831 123 50 31
-1.5450541952794332 2.795197430398435 -12.40665527439534 119 44 25
-1.5384093474854905 2.826542540698946 -12.414118610234283 120 45 26
-1.5284750035347043 2.8764872759684126 -12.405013176326221 122 46 28
-1.5191570573697248 2.9229757292402114 -12.398821923099536 123 47 31
-1.509183739737371 2.9731962830645555 -12.389155648158201 124 48 32
-1.5030669247068105 3.0016238635100443 -12.398830945846216 123 47 31
-1.4946509074479608 3.0430764552442744 -12.396762731696825 122 46 30
-1.4878391572664253 3.0754641335270474 -12.40273549919554 123 47 31
-1.4817035808030852 3.1040332808378235 -12.412083021573345 123 47 30
-1.4675755602440985 3.1779200252505335 -12.380343071685473 122 47 28
-1.465000097444496 3.1863377636903056 -12.407764725909983 122 45 27
-1.458907718786089 3.2147017786567638 -12.41707266636953 122 45 27
-1.452745629419444 3.2434708752068424 -12.425957695679795 122 45 27
-1.441066287682309 3.3035847092646042 -12.406074649734585 123 46 28
-1.433048763097367 3.3429309178826587 -12.405048585182165 123 46 28
-1.4282752354992785 3.3638555355437365 -12.420882966253476 122 43 26
-1.4234814319791993 3.384898018699566 -12.436594049324437 122 43 26
-1.4123582912848724 3.4419582321302027 -12.418912463901625 125 46 29
-1.4024794803263272 3.4919715690825583 -12.407571564558765 122 43 26
-1.3957652413550456 3.523991157529885 -12.412830727925634 123 44 27
-1.3881682617303128 3.5610541996216387 -12.413300351867045 123 45 28
-1.3860464363094334 3.5669212335926446 -12.442913086466028 127 50 32
-1.3792316066399049 3.599544523829013 -12.447435913431935 123 46 28
-1.3732837278274324 3.6272345449409054 -12.456531319989967 120 43 25
-1.367479919605726 3.6541113463774186 -12.466343246737967 121 42 25
-1.3599231051848015 3.691010111015486 -12.466602160479189 121 42 26
-1.3511699083547553 3.7347645027473053 -12.460236920733067 120 41 26
-1.3468470865966857 3.7532125090516706 -12.477869500709941 117 40 24
-1.3412836637426415 3.7787578525566428 -12.488709854299394 127 52 36
-1.3322067341603372 3.8244196531773174 -12.480208191066055 129 61 47
-1.3249145292769973 3.859889209873982 -12.481359719915243 128 69 59
-1.3193379058603787 3.8855475805254294 -12.49188122467461 145 89 81
-1.3033581483446646 3.970843094669662 -12.444644084369425 151 89 78
-1.2962740171598224 4.005191908588244 -12.446477108701632 148 75 59
-1.292445071673567 4.020880322195768 -12.466380958957348 152 73 50
-1.2833022063921697 4.067071180933989 -12.45652006659752 161 88 60
-1.2774329077401871 4.094489327996212 -12.464877678871716 152 84 40
-1.2733516152187776 4.111642843942534 -12.483258906732353 135 74 30
-1.2810632651716478 4.060995465290774 -12.568406945830638 77 25 5
-1.2879492967634156 4.015027430540721 -12.649323523646178 57 8 5
-1.2849762549928223 4.025734085329041 -12.674473707258958 60 10 1
-1.2796869112152516 4.049770732763273 -12.686424933461097 68 14 7
-1.2820463699765083 4.029748734535743 -12.742229865407852 79 32 25
-1.2725387777819548 4.078089215619472 -12.729957551586338 90 53 44
-1.2702785525270768 4.0846656880444545 -12.759353793626492 91 63 57
-1.3385067214625788 3.6022348836441367 -13.738392685292803 16 6 6
-1.3182909965854048 3.71265428115153 -13.662110433235465 18 7 5
-1.3067868435185437 3.772530663769974 -13.63815890819833 20 5 4
-1.2894704443437814 3.8522999343894453 -13.670202194576511 29 5 5
-1.2951489044152829 3.812194489848874 -13.75138231986734 37 7 4
-1.2901872176737852 3.8340487414237083 -13.767151612162294 61 13 1
-1.275306540395386 3.9137598722760085 -13.721308243177393 90 30 6
-1.2622233616226426 3.9830491763843687 -13.686216856969597 113 63 27
-1.2586515045309181 3.996857243010548 -13.710220760361217 105 54 22
-1.2544585131717678 4.014288744952853 -13.73036383008191 67 21 6
-1.2545460767815904 4.006695781060071 -13.777465681156126 56 12 4
-1.2507019163546849 4.022069867298443 -13.79992480988842 78 30 12
-1.2478444506276405 4.031665589787863 -13.82866429149464 105 61 34
-1.245130098262808 4.040412814372081 -13.85838296916876 104 55 27
-1.2458243220422158 4.0291773401355995 -13.90993615871449 65 12 2
-1.2447408599881618 4.028328945884124 -13.950329132852126 54 10 3
-1.2496053995966538 3.992567610077174 -14.029105711450963 55 11 4
-1.2250673026959005 4.129315020073335 -13.918638994742725 88 39 27
-1.2102271356887497 4.209246691801157 -13.870044059275475 97 48 34
-1.1813380629681394 4.199838323354713 -14.860208040692402 68 20 9
-1.0866692523917134 4.64768296564808 -14.958172876503873 87 56 51
-1.0736884544771859 4.717818215449147 -14.914230424044888 46 19 17
-1.078560835161765 4.68043385474469 -15.003424688270425 51 27 26
-1.0818387954883038 4.652587580794856 -15.081150951691717 58 33 31
-1.0744022035172418 4.689334528067333 -15.078544704522605 65 44 43
-1.0791403691093926 4.652585869262007 -15.167872743577686 63 47 47
-1.0835412626296976 4.617798128334273 -15.255147663927627 29 19 19
-1.0843280441848913 4.60479022398438 -15.315378453550565 12 4 4
-1.0853550947610895 4.5902833757538595 -15.377742449232041 13 6 6
-1.0986980033930456 4.501150715534643 -15.534936536377677 42 36 39
-1.0986757886396405 4.492854803447127 -15.59018710797962 40 35 37
-1.102002274542277 4.464213079811991 -15.67158329192483 13 8 8
-1.1115980147533002 4.397459504995241 -15.802069431727464 11 5 5
-1.1147547216499298 4.369684721401513 -15.88322204928071 10 4 4
-1.1087534862333237 4.397493951827532 -15.893248329812625 10 5 4
-1.1070218344442708 4.399349963322322 -15.93669149791214 10 5 7
-1.1028147791596987 4.416244309767633 -15.960817715741381 14 9 11
-1.093388814579118 4.464917336992852 -15.943736266754474 20 15 16
-1.0869154947138302 4.495637225553997 -15.949797930849979 18 9 10
-1.0809239773212758 4.523434310883838 -15.959591775879588 17 8 9
-1.0749401301201396 4.551196039210671 -15.969371583338262 16 8 8
-1.0762946596609515 4.534148202106102 -16.037916731860143 20 14 14
-1.0746581685545418 4.535327850898652 -16.082748390696594 35 30 27
-1.066998990929081 4.573319089867245 -16.079114769822592 37 30 28
-1.0784247058170364 4.4945126028110645 -16.230031949996192 36 28 26
-1.0770427805334033 4.494016804298814 -16.277697725929123 17 8 6
-1.0760749475245481 4.490951566728399 -16.32894847429387 15 4 4
-1.0692778871909518 4.523613981171301 -16.332643106266307 18 5 5
-1.0676530699896638 4.524539296678931 -16.378771607525803 24 10 9
-1.0639609849815657 4.538137375097931 -16.408019331257876 33 15 13
-1.056876707127733 4.572583912835832 -16.40921463926567 37 18 16
-1.0514921333429745 4.596592696287197 -16.424409137882837 39 18 15
-1.050854012286842 4.591376750006878 -16.47920361113841 39 17 14
-1.0479631787274846 4.60000543201916 -16.515372580530816 37 17 15
-1.0401457348431369 4.6390029758350195 -16.510209271411263 27 11 10
-1.040009778848908 4.630614161529431 -16.5697255073297 23 13 12
-1.0387889747613575 4.628882359733281 -16.620339252664188 40 35 33
-1.0404892680390927 4.609056886011211 -16.69603370106515 54 43 41
-1.0399954988047753 4.602743372706179 -16.753404936494306 60 40 39
-1.043558221370303 4.5712695894788 -16.845827707907883 66 44 43
-1.0474774685980504 4.537504122839686 -16.941859369023824 85 70 67
-1.0507085029468985 4.5079204483047794 -17.032515086045898 102 96 93
-1.0480275157248653 4.514951663581006 -17.072442538356622 114 114 111
-1.0485005393661766 4.502368647145953 -17.13996236167854 130 128 129
-1.016738266112599 4.6901343544083645 -16.926244862124996 143 142 142
-0.9930098015395705 4.770360356864744 -17.16132928940991 171 171 173
-0.9287371607021528 5.124353049391281 -16.899527368177612 186 186 188
-0.9198438189816434 5.160784309170482 -16.945807250250027 193 194 196
-0.8919867898012152 5.326366805044393 -16.75243047396289 195 196 198
-0.8918818982311819 5.317345528061301 -16.815106257729422 195 196 198
-0.43855848343516124 7.518942165293461 -16.908946781546813 212 212 212
-0.4338715295030713 7.539673711079479 -16.923268467261796 209 209 209
-0.43107376694600374 7.547543458964522 -16.961435895242545 211 211 211
-0.42861098377109874 7.553102307634207 -17.00403086673158 214 214 214
-0.4265706662716482 7.555743999078625 -17.05222761612584 214 214 214
-1.6012607151049778 2.384949580887257 -12.405819292586724 122 51 33
-1.560406840547675 2.5980192574741627 -12.32779596360841 122 51 33
-1.552407986803461 2.6371465202503046 -12.328903268762478 122 51 33
-1.5450739134862188 2.672506020275822 -12.333182054703613 121 49 30
-1.5472828211501848 2.6534985156186375 -12.384761700240265 121 48 29
-1.5393069491263345 2.692522838474395 -12.385805871623393 123 50 31
-1.531916463556767 2.7282270620610802 -12.389657408596236 122 49 30
-1.5215698654561085 2.7808167390385883 -12.378576532424953 117 44 25
-1.5172526042287298 2.7990147289738214 -12.397647364381559 119 45 26
-1.5069963797769277 2.851135838699073 -12.386721573751146 124 49 30
-1.4989964777270366 2.8903943330067454 -12.387031337116898 123 48 30
-1.491811223395137 2.92501473628049 -12.391359941883156 123 47 31
-1.484455565281289 2.9606251561152286 -12.394722375410787 123 47 31
-1.4771183102486387 2.996146553105599 -12.398075949437171 123 47 31
-1.4700697596738013 3.030031225619364 -12.402809634578851 123 47 31
-1.4631308599481958 3.063302567899603 -12.408014969613454 122 46 30
-1.456933132257586 3.092340433510646 -12.416963397853607 123 47 29
-1.4375013867177517 3.197270870114167 -12.35716903842154 122 47 28
-1.4468600027119463 3.137124552950387 -12.446758033535065 122 45 27
-1.4398376330924476 3.170919836888257 -12.451243428421206 123 46 28
-1.4327645152700188 3.2050215376139812 -12.455367845002957 123 46 28
-1.4226277364384154 3.256739528067814 -12.4432795527132 124 47 29
-1.40998234543176 3.3229094578954115 -12.417743628766097 124 47 29
-1.4031589013380954 3.355646192241881 -12.422742225750275 123 44 27
-1.3959715803348742 3.3904908223422803 -12.425716685264103 123 44 27
-1.386619506421254 3.437813107573815 -12.417044640258137 124 45 28
-1.3800981470450928 3.468861514718811 -12.423333896835224 123 44 27
-1.3703484332751126 3.5185249950390665 -12.412211332126354 123 44 27
-1.3608378284493343 3.5668415542877954 -12.402177163847636 123 45 27
-1.3567073496805553 3.5841563368999028 -12.421029463692582 122 45 27
-1.3523994772606156 3.6024940713096276 -12.4389245079028 122 45 27
-1.3468539276036653 3.6279781075463484 -12.450082845359052 120 43 25
-1.3408992965927302 3.6558327966220023 -12.45895993720453 121 42 25
-1.3325062876231826 3.697790328295225 -12.454414709061766 121 42 27
-1.3253962367101273 3.73235350107777 -12.456767934869893 121 42 27
-1.3208211016393023 3.7522678264487004 -12.472996818111447 119 43 27
-1.3154835919930252 3.776597136954062 -12.48499344640535 122 50 33
-1.3071563522910616 3.8182479552783697 -12.480344202533562 128 63 49
-1.3007017611869904 3.849072258464293 -12.485975835559408 141 85 76
-1.2927789088022141 3.888422162073005 -12.483312594066483 149 94 86
-1.2816957703222323 3.94612564284847 -12.462776030452286 149 84 74
-1.2727174001634203 3.9916556407090447 -12.453826267703011 152 74 59
-1.2641774477037275 4.034668978793156 -12.447169535288868 156 75 53
-1.2576675158987323 4.0659151772317665 -12.45185245364681 162 90 59
-1.2495015984912028 4.106801366948117 -12.447025918511873 150 85 39
-1.2530784016180105 4.079418990232776 -12.509066456053183 121 66 28
-1.2602570939312736 4.031029748067763 -12.592038604369884 66 19 3
-1.2662139946048812 3.989683175066947 -12.668435848928375 57 8 3
-1.2620349654188963 4.007315942592084 -12.686785685189108 61 8 1
-1.2556439758921978 4.037840158471575 -12.692338762505116 73 17 13
-1.2597188117115032 4.007347933531874 -12.758571735783683 82 40 32
-1.2528939581922967 4.040397716826318 -12.761633902362945 88 56 46
-1.3055063046070807 3.6409858069054115 -13.652926940259066 11 3 3
-1.3071240611732704 3.624159411193749 -13.709083240627503 18 8 8
-1.2797384480879166 3.770641983768585 -13.633659080407664 19 5 4
-1.2630158782588887 3.8545317042519613 -13.622756902278837 27 6 5
-1.2581876959811287 3.860983563597835 -13.732009542802633 72 19 3
-1.2417154910826107 3.9508927261751046 -13.675248908862345 106 50 18
-1.2376441773759224 3.967588012533822 -13.69618101229278 111 67 28
-1.2342738667993158 3.9801351269121756 -13.721565092113405 97 48 19
-1.2299022958622254 3.9986000356766365 -13.7406354911192 59 14 4
-1.2299626905484446 3.9908225052782917 -13.7879562658617 58 12 2
-1.2265309955109172 4.003702812818301 -13.81314057524056 82 35 10
-1.2230246029913427 4.017018932117331 -13.837889767513808 105 68 35
-1.2242778655709259 4.002095646110902 -13.893336513817697 84 35 10
-1.2218353977098384 4.009067040353463 -13.925152328993654 62 12 4
-1.221312670919477 4.004623091065622 -13.96951005898025 59 14 6
-1.224706579580971 3.9768765796668815 -14.0395385296578 63 19 11
-1.1989307479687423 4.122518240374525 -13.919400033953494 87 39 27
-1.1873037132826836 4.184133582475001 -13.891023268413214 104 56 42
-1.1922694877649955 3.988555914946666 -14.97383700960263 47 15 9
-1.1645817733898554 4.130838633326825 -14.934369255203414 68 20 9
-1.0624835857265946 4.625614115428498 -14.977910329466699 85 55 50
-1.0491666131939752 4.698520923190124 -14.930632738612113 44 19 16
-1.0520398931963586 4.67253667845326 -15.005695402931678 49 28 25
-1.056350186929642 4.637697615420482 -15.092106663092327 55 31 27
-1.048152952022717 4.679346495135592 -15.083429000863994 63 43 42
-1.0591216207472613 4.6036182489427775 -15.221541683871383 64 49 49
-1.058917473834717 4.596246370292857 -15.274518671371897 23 12 12
-1.0572540297732635 4.597788248256782 -15.316466831409388 13 6 5
-1.0575892047870172 4.587033981588581 -15.374076933469965 17 12 13
-1.0650937773610005 4.532188229535945 -15.487761986799947 50 45 48
-1.0685112981626432 4.502361750867918 -15.570213704502581 38 34 34
-1.07181158894591 4.473183669889191 -15.652207516294391 12 6 6
-1.0765581442673913 4.4350279995432 -15.74603900574357 12 4 4
-1.088545724207699 4.352167137885618 -15.897601290962655 9 3 5
-1.0842843186824713 4.369353652874962 -15.921334303176346 8 4 4
-1.078064228977903 4.398623381163003 -15.929511084378923 9 4 2
-1.075573210902577 4.404876846367453 -15.967377254468907 13 5 5
-1.0659855499106512 4.454970478371715 -15.948496937303315 22 12 12
-1.0615195374113773 4.473431278267798 -15.970528667403912 22 12 12
-1.053512930581331 4.513805781596779 -15.963987344302613 18 9 9
-1.0477430806641375 4.540355553965367 -15.97537569271547 22 13 14
-1.0486715344926534 4.525389898663442 -16.04118583865988 23 15 15
-1.0476524958528102 4.5224530410962895 -16.091436117415306 31 25 22
-1.0452265156522114 4.528216378428727 -16.130381219531028 37 29 27
-1.0429858990567864 4.532805711696214 -16.170991366152144 37 29 27
-1.042732442165599 4.525013373126009 -16.228160638520826 29 18 18
-1.0444175908183762 4.505112291938351 -16.30167169574825 16 4 4
-1.0404476053211873 4.520370978059543 -16.328541839683574 21 7 7
-1.0380904832449351 4.5255682605304 -16.368927423827635 31 14 14
-1.0349697915796168 4.535505126774925 -16.403064599221366 36 16 15
-1.0310472289700205 4.5504319205432315 -16.430560225048055 36 17 14
-1.0256286118060327 4.57469802026467 -16.44547760655488 36 17 13
-1.0222080068531847 4.586476337678972 -16.477288024104965 36 15 13
-1.014822425153735 4.623055336968874 -16.47545362249059 32 13 12
-1.0134782827774913 4.621820494414675 -16.52504211193448 21 9 9
-1.014143527875532 4.60795473120688 -16.59207552515872 36 27 27
-1.0136394834121436 4.6013689028318 -16.64940135801559 52 41 41
-1.014657831011199 4.585180025722485 -16.7201551820772 57 40 39
-1.0155769394158785 4.569554470057517 -16.79043008930967 62 43 41
-1.0201978109385605 4.530587985016708 -16.89329688573644 75 59 57
-1.024125389620035 4.4958864857057295 -16.9907331397376 99 91 87
-1.0217088631808453 4.501058619766222 -17.033124151864833 109 107 103
-1.0218925671640886 4.489810279748086 -17.098567460723437 124 122 121
-1.013065598157291 4.5353681748852335 -17.08473552782403 138 136 137
-0.987755869182338 4.68506726882837 -16.924444202097224 147 146 147
-0.9797032355189795 4.695525092483516 -17.1085757610302 162 162 162
-0.9104056798080902 5.064619668106876 -16.92765272602277 185 185 187
-0.9014886031987434 5.1113056856127494 -16.909485326494025 188 188 190
-0.8919718310935447 5.1618697262214015 -16.885426072352786 190 191 193
-0.8897459918102946 5.16587459899271 -16.92927401519915 193 194 196
-0.8755207530105524 5.236396125689723 -16.925314707417844 196 197 199
-0.8720891782296215 5.248099665459235 -16.957939095286637 198 199 201
-0.4067578983045861 7.5423646478619055 -16.90820094713952 214 214 214
-0.4044884047410894 7.546352344096719 -16.953514362122043 213 213 213
-0.40038558828018855 7.563064310441807 -16.975320091521088 212 212 212
-0.3979193772804511 7.568363561683049 -17.0184512520756 214 214 214
-1.7013235380176432 1.7548099812944873 -12.399066053810248 119 52 36
-1.5354637402135736 2.5847554381823024 -12.333669249053003 124 51 34
-1.5308209744727534 2.604785744725623 -12.351346663443625 122 49 32
-1.5244906969307137 2.634538047603769 -12.360572489345806 121 48 30
-1.523523360078224 2.633393422321795 -12.396659197554676 121 48 29
-1.5141526643344314 2.6806831116670065 -12.390529069468077 121 48 29
-1.5075967990729693 2.7117624513995207 -12.39845816614049 117 44 25
-1.4994249842906298 2.752180500423127 -12.398117418503695 118 43 24
-1.4914513112212866 2.7914756930894544 -12.398655289567042 123 48 29
-1.4832273912681977 2.832236920499164 -12.397791618790933 126 51 32
-1.4745752832093186 2.8754949539087438 -12.3946009376062 123 48 30
-1.4638882650958838 2.9305452140170916 -12.380799459811238 121 45 29
-1.4585544950406608 2.954658647454683 -12.39439367561582 122 46 30
-1.4520842438839017 2.9853564343214867 -12.402071055704589 124 48 32
-1.4446561025926012 3.0216141320408543 -12.404698952633641 124 48 32
-1.4387784601643703 3.048905254884069 -12.415298973352051 123 48 30
-1.4258189281028355 3.1172619819464913 -12.388810937842699 122 45 25
-1.4194849511560084 3.1472385153052578 -12.396781823703385 123 46 26
-1.42668833563713 3.0986656488741158 -12.475956491040694 123 46 28
-1.4208862128652886 3.12553778102923 -12.486836705882038 123 46 28
-1.4098568727191143 3.182784357013629 -12.469954988827919 124 47 29
-1.4115238402533548 3.1662777078522293 -12.520364917704189 125 48 30
-1.3976739774101241 3.2399676920059273 -12.488175219115714 124 47 29
-1.3886643203062328 3.2855535961405433 -12.481560974169863 124 47 29
-1.3805579075905343 3.3259096954358913 -12.479629400885456 124 47 29
-1.3672180905002724 3.396768662448607 -12.449339586651263 124 47 29
-1.3584832311556232 3.4408483990229115 -12.443632553288387 122 45 27
-1.3471052423786365 3.500365047960976 -12.423411583421043 121 44 26
-1.3504494592123752 3.4740466893905166 -12.483128591194692 122 45 27
-1.3322183910467085 3.573601627078351 -12.42519305756896 122 45 27
-1.3282600366480932 3.5898984728581462 -12.445021512389587 123 46 28
-1.3240952572114852 3.607399471702463 -12.463725283017098 122 45 27
-1.3154144932489702 3.651298287745388 -12.457492611791846 120 43 27
-1.3065952694087548 3.696034357191004 -12.450325405893008 120 43 27
-1.2995201784189996 3.7305926187881475 -12.452683097801732 120 43 27
-1.2971404972540257 3.7376773939860577 -12.481131607248354 120 44 28
-1.2892221031423017 3.777196546233699 -12.478641216351463 120 48 35
-1.2813836156637868 3.816270537154482 -12.476458454310025 129 65 56
-1.2742705501644664 3.8511131980376385 -12.47822610748694 146 93 82
-1.265797386646172 3.8939546494603174 -12.472188339046143 147 92 82
-1.2596618376935198 3.923099680997991 -12.479253954688765 147 79 66
-1.249259090663322 3.9773223480078794 -12.461939915119178 151 72 52
-1.240197289925426 4.023703882376943 -12.45204703783005 158 79 52
-1.2338179758023167 4.0543427246522965 -12.457346798511976 164 91 53
-1.2269040777967737 4.0881410678938845 -12.459483649315798 150 88 44
-1.233338865950273 4.043374746598773 -12.538595534480402 94 42 17
-1.2389446368377608 4.003422070459905 -12.613326591534317 58 10 2
-1.2431776074696976 3.9714955489353043 -12.680467770811962 57 9 3
-1.2383271502635207 3.99307601413262 -12.69495034310057 65 11 5
-1.2312424548263334 4.027842667514304 -12.696327316995987 79 24 17
-1.2330497420464785 4.010135482514422 -12.74982935125982 84 45 34
-1.2272271901493208 4.03745530899697 -12.758596508741721 89 59 50
-1.282296312953307 3.6153908713396365 -13.672984820894472 16 5 5
-1.2760747948669144 3.6447789218814686 -13.681156948427875 18 6 6
-1.2659330687045582 3.6975375610606775 -13.66490797575975 19 5 4
-1.2525116018133882 3.769890290863989 -13.627973685162178 20 5 4
-1.2254290463629935 3.9162188445131756 -13.551426803619073 27 6 6
-1.2406622691760927 3.8099170088236 -13.740693453098736 52 11 5
-1.2306231409063986 3.8622160274664292 -13.72415731106886 81 25 5
-1.2164044766221749 3.9395646547873016 -13.680774068256287 113 66 29
-1.2125690200522699 3.9548177221468857 -13.70326379493749 105 58 20
-1.2099068378680762 3.9630374842573852 -13.733298592251206 84 36 13
-1.2063170709939466 3.9768048556428486 -13.757446810045053 62 15 5
-1.2029155959099789 3.9894366329848694 -13.7828476960042 68 17 4
-1.2002792106939557 3.9974686686926324 -13.813249974556818 94 50 22
-1.2001516110815498 3.9904199499392945 -13.860039178592302 103 64 29
-1.1994297581181512 3.986910146782754 -13.90314940589938 72 19 3
-1.1979549102992755 3.9879003559441646 -13.941501905211162 62 13 2
-1.1962640086440035 3.990168094301393 -13.978572408715184 61 14 7
-1.1815649214998685 4.070736875219934 -13.930026695950733 72 25 22
-1.1728712661947425 4.115202440342198 -13.920728694363579 91 43 37
-1.1648567596282955 4.155606381864065 -13.915739665420286 106 59 47
-1.306514356979237 3.215305690809875 -15.38192276456299 91 59 54
-1.1461902683012068 4.061340220769758 -15.05189355124687 69 19 10
-1.0472285921714222 4.547742923869267 -15.066441482666534 84 55 49
-1.0388434835144422 4.5908124308397715 -15.056364093603573 43 19 16
-1.0232629951322478 4.678541020998583 -14.990718484565935 49 27 26
-1.0285584468442481 4.6368088654634105 -15.085631369178067 54 28 25
-1.0309166960412128 4.613228265794767 -15.1583397513539 59 41 37
-1.0323455078705261 4.595360201819549 -15.224212385959746 59 48 45
-1.0257380121534638 4.627424887440459 -15.22769143598068 24 13 13
-1.0291478215285492 4.597149924835296 -15.30954268285218 11 3 4
-1.0303787775605655 4.580373226178062 -15.374719974341469 31 25 30
-1.0360910320488428 4.535601724859164 -15.475608302492223 49 46 50
-1.0420968477696482 4.488899698907681 -15.57942483001127 35 30 32
-1.0416190221258275 4.482580875931237 -15.63230681748988 14 8 8
-1.0490923489749315 4.426534050073273 -15.748897601068268 11 5 5
-1.058758561015566 4.3471350474458195 -15.94178162917451 9 3 3
-1.0516536027703167 4.382072774893885 -15.942726035067807 8 4 3
-1.0485212058087656 4.392131087378724 -15.975709492511115 10 4 4
-1.0502132314228279 4.371906693600805 -16.04801814655183 18 9 10
-1.0355619930582711 4.454232385642824 -15.987327248543757 21 12 11
-1.0274591458655635 4.495509358705877 -15.979677327792745 19 11 9
-1.0249221268425082 4.5018184703132915 -16.017587221453127 18 10 8
-1.0182982929889555 4.533827151958422 -16.02189921471911 17 9 7
-1.0153958766648508 4.542414523135616 -16.056924029661225 27 19 17
-1.0138211602979394 4.542613622641677 -16.10310247156649 35 27 25
-1.0125390844355 4.540934168946586 -16.151920151591632 37 29 27
-1.0122149983549888 4.533170181106652 -16.208980935619525 37 29 27
-1.0155741608428226 4.502084270765652 -16.297297660394186 31 21 20
-1.0120253867194835 4.514604449761194 -16.327811545620907 30 15 15
-1.0094662330016675 4.520847692952224 -16.366788937518805 37 18 18
-1.0063551365007486 4.530564377066859 -16.40121295112653 36 17 15
-1.0028907937495064 4.542503258011718 -16.43272779617819 36 16 12
-0.9978297078902274 4.56456084262296 -16.450642134222342 36 15 14
-0.9905805039452995 4.600518562029791 -16.449712674206445 33 13 13
-0.9875677218814428 4.609573888236356 -16.485207650840163 22 9 9
-0.9876994000833192 4.598605356311327 -16.548077901105554 32 24 24
-0.9888569749558915 4.5810512757194815 -16.62020034345472 50 40 38
-0.9885814826730565 4.5725649956745205 -16.680199732077504 58 43 40
-0.9905229286816568 4.5498887134865855 -16.75994177700925 63 41 40
-0.992013671760585 4.530015138309553 -16.836170494947197 71 52 50
-0.996175549382133 4.493004600522042 -16.936429024636897 95 84 81
-0.9997300237796536 4.459777976464583 -17.03191151152925 106 100 97
-0.9969624303426429 4.466921665482628 -17.07167539202937 119 115 114
-0.9870187304660973 4.520012831447183 -17.047440612598688 132 130 131
-0.9862091523483908 4.514594618327854 -17.104819225746297 143 141 144
-0.9567029758846345 4.6932911706297675 -16.903988217389276 149 148 150
-0.9509864988407153 4.719462175069242 -16.91656298834654 155 155 157
-0.8813670674011105 5.062478443436242 -16.921724900183065 187 187 189
-0.8735679764425912 5.102353932955274 -16.913472818832517 189 189 191
-0.8606973406501879 5.164485775147331 -16.92223871377408 194 195 197
-0.8518576586161248 5.189609236232512 -17.035190192639327 198 199 201
-0.8192765048870446 5.380559592233257 -16.85223707293811 201 202 204
-0.38002145749041294 7.542690987297237 -16.897519596482148 214 214 214
-0.3763970794225414 7.555998779609448 -16.925509743320546 214 214 214
-0.36829684078139713 7.601110849974342 -16.894413411290216 214 214 214
-1.6848587031420403 1.694086634448209 -12.407834949026528 119 52 36
-1.675469166454672 1.7412562800393507 -12.404608211773066 119 52 36
-1.4991658474263159 2.6304238730216962 -12.32355655603635 122 49 32
-1.5091780948892857 2.5651031038284495 -12.41525716167067 121 48 30
-1.4945027786787652 2.6436040471380036 -12.382146245518065 120 47 28
-1.4885446266011582 2.671326421566987 -12.393078046297592 120 47 28
-1.4799194078626146 2.7146203224005614 -12.39032598180807 119 46 27
-1.4737865783640567 2.743388732823286 -12.40020769430695 122 48 29
-1.4638264173965079 2.79452279675614 -12.39033519368692 126 51 32
-1.4559042951964354 2.833779929775215 -12.390789674687785 121 46 27
-1.4469046663641745 2.879358445667868 -12.385537107703065 121 46 28
-1.439134486833368 2.91777255447854 -12.386512156906399 120 44 28
-1.4289340686398817 2.970431449375619 -12.374689619158904 122 46 30
-1.4177055570275967 3.02914636695699 -12.35727763053422 125 49 33
-1.4189541612544958 3.0147985061174136 -12.405149582540446 128 52 36
-1.41283528954312 3.0436057588038574 -12.414395940308749 124 49 31
-1.4017489129057399 3.1015594620983364 -12.397309977912423 122 45 26
-1.3947927400181976 3.135317356267378 -12.401895552240081 123 46 26
-1.404857655938438 3.0691534946347137 -12.497012999392231 124 47 29
-1.3980548297925 3.101990162638601 -12.502537624304416 122 45 27
-1.389627027995214 3.1443931143857524 -12.499261184166915 123 46 28
-1.3802743512660882 3.1922605683508776 -12.490859572117333 124 47 29
-1.3749697158590437 3.2163411177205568 -12.504123879631223 123 46 28
-1.3617163067642701 3.287222868506748 -12.474298384147183 124 47 29
-1.3545813342985213 3.3221219928763546 -12.477394845360442 125 48 30
-1.3456197910653227 3.367803805833086 -12.470424430086501 124 47 29
-1.3390149966564144 3.3996184325814616 -12.476176917503029 124 47 29
-1.3316480407488192 3.435944430909453 -12.477657493201221 123 46 28
-1.3236100536014916 3.4762512982367735 -12.475324572426395 126 50 31
-1.313700296962078 3.527637551922978 -12.462500129947067 125 49 31
-1.3061289363552668 3.5652414655483993 -12.462435474477882 126 50 31
-1.297856455271407 3.6070124076844 -12.45834134386029 124 48 29
-1.2888026799008798 3.653431691407765 -12.449728708804964 117 40 24
-1.2838032131595676 3.675883626842867 -12.463659287502065 119 42 26
-1.273912549213595 3.727309210980895 -12.450046834690978 120 43 27
-1.2705343122697637 3.7401798931188406 -12.472975693403367 121 44 29
-1.2628386396234172 3.778644019416446 -12.471483489153234 124 52 40
-1.2576153036151947 3.80246382080323 -12.483908162806303 133 71 62
-1.2499541919761765 3.8407607088277533 -12.482390330660989 148 93 83
-1.242487279509144 3.877927225742166 -12.481848601088185 148 88 77
-1.2348907676177312 3.9158857703520136 -12.480434147688026 142 69 54
-1.2244775769376737 3.9706153040962535 -12.46265318656549 149 69 45
-1.212374683514771 4.035439804059402 -12.434853246324348 162 85 52
-1.209910278653293 4.042941622736281 -12.46266752000285 158 89 46
-1.2066550925051946 4.055141771578437 -12.48594634420653 133 80 36
-1.2132909004056311 4.008387800423286 -12.567058457291616 66 19 4
-1.2189209861340016 3.9675563342128406 -12.642712962730965 56 10 6
-1.2156218257701665 3.97993434371054 -12.666229595317535 60 10 4
-1.210877408172657 4.000934244882382 -12.68125104070326 69 15 8
-1.2093337034065434 4.002817818751131 -12.71521551230464 81 29 21
-1.2072280999691323 4.008041061628042 -12.74595011933986 87 48 39
-1.2199637378073638 3.9244886456711017 -12.865319921873212 86 58 51
-1.2568723271162265 3.6105806361329584 -13.632902907148079 7 1 1
-1.2580423965646415 3.595553113313456 -13.687058795968813 20 8 8
-1.251874840839494 3.6247409659032632 -13.6954892473803 18 6 5
-1.2415033687060435 3.679313528578577 -13.67741354953479 19 6 5
-1.2192715640400293 3.7815546660482218 -13.725254086571596 40 7 3
-1.2139029865859432 3.8059895157484984 -13.738302082372217 61 13 4
-1.2037269840605092 3.859555587092946 -13.720437628999653 97 43 20
-1.1921400198039753 3.921719201127633 -13.693220624828555 117 71 37
-1.188780576235139 3.934031014431824 -13.718884650461444 101 54 24
-1.1854667840389976 3.9460574888464794 -13.744893383457041 65 21 5
-1.1821970443395293 3.957807746867097 -13.771239868687179 60 13 3
-1.1769123221161675 3.981795271833793 -13.784469822155197 74 21 5
-1.1744761887860964 3.9884656666922202 -13.81634405277654 105 62 32
-1.1745518416411946 3.979834740437691 -13.864844281014719 97 52 21
-1.1723761741008483 3.9848774357761627 -13.898683413162093 65 15 2
-1.1756856770864221 3.956478080336093 -13.968991164046454 61 14 4
-1.1723483400197057 3.9685458059431262 -13.995444358786102 62 16 8
-1.155226776772409 4.0647097954857205 -13.929920404647262 79 31 26
-1.146945833425514 4.106998926404236 -13.923028741041126 100 52 45
-1.1451465149801487 4.109718714189185 -13.959536784181342 109 66 55
-1.1490351681417348 4.077642151737617 -14.034554215634994 104 66 56
-1.1262190054485335 4.017517722324636 -15.053345278471935 67 18 9
-1.1219233896260137 4.035066222516744 -15.075552104703618 69 19 10
-1.0143188425694802 4.560054163464856 -15.130097832168122 50 28 27
-1.0025766897185975 4.6246378688138385 -15.093189609177859 54 28 25
-1.0045511058780638 4.602836613041118 -15.16367831687647 54 37 34
-1.0083932598805583 4.569188874664121 -15.249282874011996 57 48 45
-0.9993535497695447 4.616780653273895 -15.233371492298277 27 17 17
-1.0014192169977172 4.594253116100623 -15.30546529998471 12 6 7
-1.002437751644754 4.578279808353297 -15.369598051944777 48 45 49
-1.004424839083835 4.5561206005270405 -15.4418201162333 54 51 56
-1.0041766836292085 4.54805071565181 -15.496469833639956 27 21 23
-1.0047177919805157 4.534933549608786 -15.55774936793999 15 9 9
-1.0085107575067238 4.5011350817732 -15.645674316495604 12 6 6
-1.0101621861585917 4.480845459667584 -15.716703800469565 10 4 4
-1.015404283105529 4.4376756427043835 -15.817414018594077 9 4 3
-1.0182441039887444 4.409678678201085 -15.899058539411177 9 4 3
-1.0114799090277344 4.442726069782969 -15.902218265759785 9 3 3
-1.0081650788086054 4.453823961725598 -15.933712739481777 15 6 7
-1.0013536243221246 4.4871978777458175 -15.936332702157845 20 12 11
-0.9954219494162818 4.514980994128508 -15.946135290647465 19 11 9
-0.9929294539810177 4.520816009769833 -15.984561516772903 18 10 8
-0.9862458047624727 4.553412925517853 -15.988018252864912 18 10 8
-0.9842453778053306 4.556075478941956 -16.030728974084077 23 15 13
-0.9832115993152312 4.552520372316427 -16.0817711487958 37 28 27
-0.9813091423325848 4.55449103175756 -16.125688949036984 37 29 27
-0.9817646979933942 4.541309369168029 -16.189843012898887 37 29 27
-0.9821621080808323 4.528443760974508 -16.25383637583621 37 27 26
-0.9813224057962251 4.52346824794723 -16.307562209663054 37 24 23
-0.9805009721104381 4.518331701253186 -16.361701219997855 30 14 14
-0.9768803276699366 4.531164045066828 -16.39192645134385 32 15 12
-0.9740541749448824 4.5388664085325034 -16.429114860329015 33 14 13
-0.9648359640801112 4.587752020382349 -16.41080909937482 31 13 13
-0.9620101490796751 4.595444360152888 -16.4480465464154 20 8 7
-0.9620746805013043 4.584449437451548 -16.51075977046915 31 23 21
-0.9623530874613451 4.572016549044719 -16.57568226003208 50 38 38
-0.9629864658419052 4.557228767841964 -16.64408517140688 61 43 42
-0.9630878696425407 4.545822486663051 -16.708139560321094 62 40 38
-0.9647952657758242 4.523950564040943 -16.78683253041806 67 47 46
-0.9673122754732365 4.496750200435699 -16.87321353176452 88 75 73
-0.9716450780528201 4.4576736616554395 -16.9764000850214 104 96 93
-0.9747963378423101 4.426166464622641 -17.069582559852456 114 109 107
-0.9625720235557558 4.494574993909904 -17.024268196388586 126 123 124
-0.9605110289923422 4.496902308063153 -17.070715246176967 138 136 139
-0.9354109882758007 4.627183565884182 -17.037486602907485 157 157 159
-0.8942059373457051 4.829849338997321 -17.048786119026307 174 174 176
-0.85902311034994 5.027538314163062 -16.913653610136326 183 183 185
-0.8515475412669977 5.065584696567683 -16.90819515104077 188 188 190
-0.348229943698086 7.566811896430209 -16.89537582469936 214 214 214
-1.6609234350467026 1.668845511400363 -12.422881025609643 119 52 36
-1.653305749057162 1.7059773907283438 -12.427931956746956 119 52 36
-1.6453291020279721 1.7452218666334538 -12.431163458975025 120 51 36
-1.635810556957958 1.79348999410949 -12.426868271910664 119 50 35
-1.6235792686213548 1.8576359224040733 -12.40931958059586 120 51 36
-1.4886106216029735 2.5251434381045135 -12.444309786646624 122 49 31
-1.4768866436567663 2.5869137098504575 -12.42587364257038 123 50 31
-1.4629060518336 2.6620424218205176 -12.39555980861747 122 49 30
-1.4549127462111051 2.7018893416426764 -12.395846925862934 122 49 30
