ply
format ascii 1.0
element vertex 708
property float x
property float y
property float z
property uchar diffuse_red
property uchar diffuse_green
property uchar diffuse_blue
end_header
1.047731774020228 1.8290586619622706 -15.116110896046933 105 58 43
1.1063041610947186 1.8969003578937604 -15.060693345298631 58 41 39
1.1379201647256174 1.9303398708016353 -15.053792593920818 57 45 45
1.0543779620831195 1.8164458472993035 -15.25681054855061 59 46 45
1.0487014632821614 1.8020890039934914 -15.31849924970452 95 58 48
1.0632140483179437 1.8064266758103962 -15.395024410907187 112 55 43
1.0755678641412185 1.8151118858591717 -15.42403395720261 113 59 45
1.0847407458281673 1.8197061627379227 -15.45899567101381 114 60 42
1.1073135682762603 1.8415020799218693 -15.469113133859853 123 65 49
1.1263042899817508 1.8587032512520238 -15.485845720765262 117 56 46
1.0639797010278178 1.7713076907900192 -15.654871688613323 109 54 46
1.086484617411462 1.778311204230758 -15.771535869089142 75 25 10
1.0865660216366555 1.7710427561330162 -15.824742486835346 107 47 27
1.090721748100763 1.7466285576299674 -16.032328743914107 41 37 38
1.068603548661506 1.7104849033300153 -16.129425538270166 41 37 37
-1.3706600097462465 -0.3450191315876818 -12.546963314140964 106 51 41
-1.375843437621862 -0.35695406095486426 -12.594149152821647 103 47 34
-1.3699538026268039 -0.35568298447287283 -12.628425995794263 108 46 34
-1.2654567651836297 -0.24230639170079726 -12.58705149198169 113 47 35
-0.0902653166904952 0.9617095163429665 -12.629765493934137 123 46 28
-0.027369819723054967 1.032486115272306 -12.586722114016178 123 46 26
-0.012826789382974546 1.0444370356735746 -12.608339181070763 127 49 29
0.021271727276911623 1.0802122930098008 -12.60356847439275 120 42 22
0.03577028592270315 1.0921178720603129 -12.625182343709406 119 41 19
0.06898674622821588 1.1268498873766655 -12.62137757877986 119 41 19
0.11464370211433117 1.1767828313903035 -12.60046587442048 124 46 24
0.11896645476741208 1.1762917462600404 -12.635807464779619 124 46 24
0.15331651047742856 1.2124622971968853 -12.630061960097262 122 44 22
0.18085879532413918 1.2403365385598049 -12.633520181601877 121 42 21
0.21461954153971385 1.2758283204452967 -12.628289659000657 123 42 21
0.24387988369625857 1.305837377135103 -12.629131236883367 125 44 23
0.2798823901774634 1.3441148960450873 -12.62048516075016 126 45 24
0.3092891919039551 1.374341431059472 -12.620849860570399 124 45 24
0.3337283904798789 1.3984993836071498 -12.628036314775315 123 44 22
0.3657986708662291 1.4320222300407295 -12.624439307092256 123 42 21
0.39162774592768823 1.457911871705262 -12.629475596732274 125 43 22
0.4272618651671367 1.495845329286821 -12.620577545705022 125 43 21
0.4690892120949708 1.541407284652803 -12.602726587200543 121 39 17
0.4786371910957934 1.5473551648671249 -12.630494573751514 131 49 27
0.5052128525600414 1.574220948206566 -12.634047289048429 132 50 29
0.5319549950358202 1.6013057182726609 -12.63725976217468 123 41 20
0.5519277747106512 1.6200775417320008 -12.6500777503296 127 45 24
0.5755920050333923 1.6433988320578523 -12.657541306486312 125 43 22
0.5966649436187677 1.663539777117311 -12.668668768317623 126 44 23
0.6274781598923682 1.6956892908976533 -12.665637067231753 122 41 21
0.6440151263392235 1.710259710316274 -12.68320263830666 118 38 21
0.6395340653803578 1.6989078317017965 -12.731390497775958 110 33 17
0.695068290927698 1.7615930433613656 -12.692009766193316 112 36 20
0.7461762799686364 1.818865841897352 -12.658744412956775 112 37 20
0.7762269929001935 1.850172070866558 -12.656128957847598 113 37 21
0.8334784549771377 1.9151192220284727 -12.613216408747085 122 49 31
0.8269995777526162 1.9013065151084798 -12.664292457789475 165 93 78
0.8516747480408764 1.9260142200255275 -12.669284873515629 163 86 61
0.8757470936293021 1.9499883530752298 -12.675084678321374 163 93 50
0.8938878128182637 1.9666269418775078 -12.689668569923445 112 51 23
0.8767066532609635 1.9394924064235957 -12.757212078828557 62 8 2
0.8946574029350463 1.9558798162744413 -12.772193483578489 79 15 3
0.9238157156284559 1.9861765953459156 -12.770226140603045 108 34 9
0.879649499304505 1.925466610491795 -12.879186714827142 111 38 8
0.921215947483871 1.9711636427116281 -12.858448684832483 91 35 17
0.885309801742252 1.9206156777244923 -12.955556553066991 89 54 41
0.8589048835315638 1.881812015989012 -13.038634965994904 58 39 34
0.8117139428418172 1.8170900224819588 -13.15401561710814 46 40 46
0.7332670948912954 1.688686055710214 -13.494673129829593 43 43 44
0.8963589809358288 1.8109762773675833 -13.821002289671403 78 17 2
0.9139585029656239 1.8267069136079046 -13.838094436391497 127 67 32
0.9321059183996772 1.8431297159656541 -13.854270833938596 125 74 31
0.9544097482067162 1.8647897518136745 -13.863597879860361 75 25 6
0.9860322777460331 1.898200505660797 -13.857505594134896 65 16 8
1.0192949281609 1.9337026467159077 -13.848533374680672 107 58 39
1.0252262600288913 1.934754289090674 -13.884686528927597 126 85 47
1.0143550889915964 1.9145831880325046 -13.948893081581677 99 40 10
1.0058924007554149 1.8974136349896122 -14.00936832825709 70 13 5
1.0314501578961108 1.9231991880059418 -14.013151222586608 61 11 5
1.0461700978607933 1.935295472586942 -14.0350313487947 64 12 7
1.0374958965561394 1.9112305129870624 -14.143261761788706 104 41 23
1.0471151195999147 1.9168309557038015 -14.1740390413478 111 59 40
1.0546991440299411 1.919841997102667 -14.208348745862082 114 66 45
1.041333989651342 1.8962698179417048 -14.278514285919918 109 64 48
1.067204683901421 1.91578548477192 -14.32944059658838 127 60 41
1.079397779861563 1.9245930206489827 -14.356234423089775 122 53 40
1.0427078131923002 1.8712418996241524 -14.46761761594267 119 51 41
1.0626610168482529 1.8898715824404428 -14.481307981357883 117 51 41
1.1386316983555718 1.9798199722063945 -14.397433372592605 111 49 38
1.107130345980531 1.9329618289845358 -14.500587106426389 109 47 36
1.123526717940111 1.9470800147307417 -14.520351597806924 117 58 41
1.1307744552897407 1.9495302027618768 -14.556196080752873 89 52 45
1.1407180160199895 1.9554067304925953 -14.587387120041797 56 40 42
1.1506546703418996 1.9612645220992366 -14.618661297238173 97 52 44
1.1274440732796425 1.9247544991152594 -14.708857365655923 126 64 48
1.028601339056726 1.7914707888461727 -14.934232043847715 118 55 44
1.056090147875281 1.819640317416539 -14.935184756517138 114 55 43
1.0490051648860304 1.8035624302276183 -14.997997353604395 110 53 42
1.0583727039629727 1.8085239821183885 -15.031490452979348 110 54 41
1.0774956743235684 1.8259801006386809 -15.047460348771352 123 56 41
1.0891835599409694 1.8339029149511301 -15.076861274188289 118 63 45
1.124444739438574 1.8720775023790726 -15.063492724336271 68 44 38
1.147634165290211 1.894777710174643 -15.071901847863035 62 43 46
1.1268145180772287 1.8609235739370105 -15.16070951173921 60 46 43
1.1032723799130695 1.823505058180582 -15.254961452436284 96 59 49
1.1019245682559253 1.814583122608096 -15.308842497003067 123 65 53
1.1036618105075737 1.80960389034324 -15.357243325423287 112 54 43
1.1200294674156765 1.8234537912469166 -15.378715022872646 113 59 43
1.1756255380348906 1.873385670374363 -15.430995304317246 117 58 45
1.089210778218181 1.754427547531292 -15.645430861324073 110 55 47
1.1186435232365843 1.7326357151141538 -16.01799665115271 41 36 39
-1.3197128803195253 -0.34310828490396084 -12.592279116211392 108 47 36
-1.3201335029237833 -0.34945082711689857 -12.634040430152517 110 47 35
-1.220384182639605 -0.23559419565427397 -12.556685693729307 112 47 35
-0.002508260546076002 1.0178422204594435 -12.578280824121935 124 47 27
0.012989328094361596 1.0309573782986323 -12.598592727714042 123 46 26
0.0428192796519804 1.0616017243403864 -12.599521736664602 122 44 24
0.059233547016424914 1.0758467653921722 -12.61853216400144 122 44 22
0.07914036153032544 1.0943685673827073 -12.632782542135688 124 46 24
0.12967526846187072 1.150412281910497 -12.605171981441323 124 46 24
0.1403816241919511 1.1576879005461889 -12.631819472158675 123 45 23
0.14991874600989474 1.1635237150290196 -12.66011729578815 122 44 22
0.20218988359496226 1.2217768878058504 -12.629551106229947 121 42 20
0.2232570319823366 1.24177602498877 -12.641820986349156 121 40 19
0.2414798582572013 1.2582890913595008 -12.657989256816544 122 41 20
0.2770229943904434 1.296086109925553 -12.650024457991579 125 44 23
0.3099719025924652 1.3307192363558142 -12.645504610622417 125 46 24
0.3415357649665953 1.3636708661833215 -12.642769652615232 126 46 25
0.3698374022190687 1.3926285044055593 -12.644475667690235 125 43 22
0.3989989530926805 1.422661152656179 -12.644854113199807 124 42 21
0.4276137894872689 1.4520378175315907 -12.645882339083807 124 42 20
0.4968816685492494 1.5315350100479819 -12.589105854199975 124 42 20
0.5111870812743513 1.5433265015683597 -12.61007994588376 127 45 23
0.5333757973557729 1.5648427359627588 -12.619805610234476 124 42 21
0.549373465021278 1.578725544139214 -12.63833841538312 124 42 21
0.570628080698965 1.5991018324110478 -12.649309640583228 125 43 22
0.5916504435867811 1.6191988326686007 -12.660561257120207 122 40 19
0.6210234242024355 1.649627687319108 -12.659681101057146 122 40 18
0.6428597516683006 1.670751991880823 -12.66960726662781 123 41 22
0.6637904598323328 1.6907640417986274 -12.680790956819814 115 36 19
0.6786942016583644 1.7033201045700883 -12.70072415360997 112 34 18
0.7073720792488576 1.7329418999127295 -12.700479517344139 111 35 19
0.7562271016595026 1.7875945728232043 -12.670450969484769 111 36 20
0.7648380443952898 1.792375803972515 -12.699448780077294 112 36 20
0.8009562372191015 1.8312849836092138 -12.687816651058395 125 51 34
0.8315858751955609 1.863407248696289 -12.684131189359485 162 89 75
0.8580167892704553 1.890334060542147 -12.686549558539067 158 80 55
0.8849806150903001 1.9179385875260837 -12.688063899542069 156 85 47
0.8999447229349955 1.9306349638093865 -12.707445563264372 100 35 10
0.8854579310638742 1.9066824912185774 -12.771101537670244 64 8 1
0.8941112872421781 1.9115008954282309 -12.800145891907885 71 8 2
0.9067872215035164 1.9213215636082217 -12.82316740145681 102 31 7
0.9013007164506641 1.9085000438487167 -12.873781045298234 116 43 12
0.8981751375770006 1.898594362466751 -12.921001719152784 89 30 13
0.9071205120148695 1.903725901490458 -12.949962266611625 88 49 40
0.8768178778084188 1.8598458571562952 -13.039135136301923 64 44 39
0.8261117898148229 1.7904132570610578 -13.160128842640077 46 39 45
0.7833353505180334 1.7307995849586453 -13.269546380805952 43 40 44
0.9629949093326999 1.8362187981431228 -13.834533051272906 125 76 34
0.9736348515795292 1.8431725855856316 -13.86297092698651 79 28 9
0.9953507546407669 1.864132733890381 -13.873179197388142 61 12 4
1.03364104740732 1.906085633533074 -13.855873319487284 115 66 48
1.0499340893876057 1.9202068504705245 -13.874874947061912 130 88 50
1.0118592992488695 1.8654143949733308 -13.984501061781462 104 47 15
1.0006052623936954 1.8445568406257555 -14.049855733760129 74 15 7
1.0582406504983384 1.9110850954394873 -13.99991821843328 63 12 6
1.0639130932109513 1.9116916047011197 -14.036994994671725 62 10 5
1.0705467295125173 1.9068673392002715 -14.119465019140094 104 41 22
1.04644076786012 1.8695382805569407 -14.207522348478054 111 58 38
1.0507165912106116 1.8682763822530575 -14.247620689046215 119 68 48
1.0349680796543872 1.8414893914090236 -14.322110298663958 111 67 51
1.048481701753584 1.8315347137959108 -14.491010547216906 120 52 42
1.0822652306110578 1.8678460858433619 -14.480715080501994 119 52 42
1.1543461599935965 1.9531521612420724 -14.403394750878565 117 53 42
1.135922325106466 1.9227582449150908 -14.48386928179159 115 53 41
1.1457547054959702 1.928482034822662 -14.515111914133662 121 61 44
1.1607796521682285 1.9408474574568197 -14.537276365060016 88 50 43
1.176546888171937 1.9541626918393433 -14.558140418362747 55 39 40
1.124938928402564 1.881058290008565 -14.698509617556535 97 54 43
1.141435671213503 1.8952533123216169 -14.718474984743434 125 63 45
1.0547919164577015 1.7769846368901066 -14.922579595760775 117 55 43
1.0987686021279348 1.8264105324307938 -14.89392052899007 110 51 36
1.087638047786177 1.805015995180412 -14.96397098239764 117 59 44
1.0983843191402611 1.8117268167111114 -14.994901471878325 109 52 39
1.1110733260861352 1.8209297328480307 -15.02238452170662 117 53 41
1.1255560178141906 1.8324375570773492 -15.046656268306617 124 65 48
1.1488607728354587 1.8553168144885328 -15.054886383244401 84 51 40
1.1783146026216667 1.8861413256204091 -15.051799317124864 65 42 43
1.1659787838175095 1.8630356563520651 -15.125155088356246 61 44 42
1.1436132470201859 1.8269233128639915 -15.217303989027887 99 60 50
1.1480605809133726 1.825407009979675 -15.260451094701613 122 64 52
1.1837919844134506 1.864339951609697 -15.245830545248062 111 52 41
1.1320697075910688 1.7303801733521986 -15.815486293970839 99 39 21
1.1787329978830785 1.7530248368959276 -15.995705245169958 41 37 38
1.9351291544103004 2.411244321677005 -16.85912182551399 196 196 197
-1.2933950363247946 -0.35317979158484736 -12.543205893725519 105 50 38
-1.2859703224071959 -0.3501351687251537 -12.575559167132734 109 49 38
-1.2570768195841344 -0.3212527872242861 -12.58246143596654 110 48 37
-1.2064933605661237 -0.2662311999338689 -12.56340409957577 112 48 36
-0.050519204650409044 0.919789501467009 -12.62653542804679 125 48 29
-0.0056011029595230966 0.9689574642217051 -12.60745519393679 125 48 28
0.03269062984447313 1.0100296230220556 -12.597075387664997 126 48 28
0.04981154324629422 1.0251362823002719 -12.615191003456424 123 45 25
0.06688109186198865 1.0401815484101 -12.633364545880365 123 45 23
0.1088246794762524 1.0857995733674413 -12.617601682839403 126 48 26
0.15260537186679235 1.1337093839301922 -12.59909631239118 124 46 24
0.17649062111207625 1.1571772728076652 -12.607653653896477 123 45 23
0.19450920934174976 1.1734341385817784 -12.62421709717486 122 44 22
0.20084616848981085 1.1753074877309624 -12.656896913810538 121 42 21
0.23086267561804252 1.2063466221545962 -12.656842604771533 122 41 20
0.26397995707179955 1.241226721209081 -12.652349677958883 124 43 22
0.28962169323135 1.2669083611410512 -12.658127423151821 122 41 20
0.33165008076783087 1.3128256007182637 -12.640886675935995 124 46 24
0.349410998142222 1.3288127752562993 -12.6574732330776 123 44 22
0.3769081669049834 1.3568308364880828 -12.660329011539204 124 42 21
0.4706119065852321 1.4666978050586783 -12.56954433622627 124 42 21
0.49308949352981957 1.4885822222745855 -12.57899740589463 125 43 21
0.511908221820621 1.505948655520819 -12.593588162174953 124 42 20
0.5279444823105903 1.5198749403615812 -12.612116301821102 123 41 19
0.5592357534624393 1.5526975789813866 -12.608809000108202 124 42 21
0.5583831438903841 1.5457053170295456 -12.651499589023357 123 41 20
0.580866911497528 1.5676278169215276 -12.660731249203318 122 40 19
0.6054228543436531 1.592130528439994 -12.666903179969829 122 40 19
0.6279361718564216 1.6141099916392116 -12.67595030812659 122 40 19
0.6504134064640437 1.6360542119875925 -12.6849830449206 126 45 25
0.6728555023169434 1.657964339577851 -12.694000174632913 122 42 25
0.7164990247454841 1.7062435984426045 -12.671923139938624 116 38 22
0.7274125946110455 1.7138461178636009 -12.69763209187704 112 35 19
0.752777866975062 1.7394299594451237 -12.702096369673928 110 35 18
0.7947795599031542 1.7857451719474131 -12.681882564851254 118 42 26
0.8244029441904677 1.8166734385413532 -12.679763551023893 119 44 27
0.8344892350515845 1.823264849317002 -12.706561346387666 155 82 67
0.8925746871473952 1.8897219364686073 -12.661796252284116 156 77 53
0.9132612678712371 1.909562145913017 -12.672595171617882 150 77 39
0.9131060464114196 1.9033839350526591 -12.71463546745205 109 41 7
0.914845181139297 1.899551484768223 -12.753969667931361 80 23 6
0.9201159805501131 1.900115488856391 -12.78809656724534 68 10 5
0.9253225322119123 1.9005853584350936 -12.8224170820674 96 28 9
0.9198066846540334 1.8876218759307104 -12.873143868851699 112 40 9
0.9188690873917862 1.880362363571015 -12.917087681965107 96 36 16
0.9742403588467385 1.9436316285257917 -12.874990392851736 94 53 42
0.8717769009434737 1.8029046256978356 -13.118100153900834 46 38 44
0.8135366330956018 1.7236030299030114 -13.25147962298276 43 41 44
0.9851502707177557 1.8183409901780783 -13.829072354645128 131 82 41
0.9943992000143043 1.8235026833984787 -13.859810601103842 86 33 12
1.0129763418905888 1.8405070891522222 -13.875185703730402 61 11 3
1.0415770015005101 1.8702597472139688 -13.873893180454296 107 58 40
1.0543814136597325 1.879936639573648 -13.898766588814985 132 90 51
1.0237287499502115 1.8342900919787208 -13.996274660803346 106 50 18
0.9996003397017592 1.796881333208332 -14.0833528864922 71 11 3
1.031947385943746 1.8313889209951775 -14.075899509105033 64 13 6
1.0728797078961207 1.8768711518342291 -14.053781691813688 64 11 7
1.1231344294028007 1.927592200087493 -14.06239394786353 102 38 20
1.0404190156893591 1.8151866627485633 -14.250273722346272 114 59 39
1.0536563464481983 1.8252971124026818 -14.275244923060542 120 67 48
1.0527280295170396 1.8035464232098084 -14.420491976128375 126 62 44
1.0653062658612802 1.8127614690872278 -14.446958371480179 127 55 40
1.0743322190896114 1.817414992956163 -14.479636328614873 121 52 40
1.116273719801109 1.864298247007027 -14.455019428445668 121 53 41
1.1757518168937473 1.9337432732715367 -14.399438455007754 121 53 41
1.1770336266422756 1.9284796116126257 -14.445468264174114 117 54 40
1.178816750443601 1.9238362955820945 -14.490784920893173 120 64 47
1.1771660377063498 1.9147514041750782 -14.542330636716425 82 47 41
1.1662444018093634 1.8937012969844513 -14.610509070178537 57 40 41
1.1281036178833546 1.837540223508749 -14.727391114760719 100 53 42
1.1408143601977292 1.8468419481372704 -14.754208959350036 127 64 47
1.0860950366193514 1.769155658916258 -14.901732964049511 116 53 45
1.114634079397418 1.7988198789388923 -14.900613261562512 108 49 37
1.1310390321102597 1.8128317196493553 -14.921206492651615 119 62 44
1.1391109031914937 1.8160731465907336 -14.956858816156881 112 54 42
1.1495093014434579 1.822309488369653 -14.988391264068774 115 54 43
1.1629891816490305 1.8325237198200037 -15.0143891933496 123 61 44
1.1783820970446186 1.8452105118379816 -15.036930099609002 103 59 43
1.201368968587257 1.8677369208798904 -15.045576360540288 66 40 39
1.2138081469072253 1.8765964923664589 -15.073521808213126 62 44 42
1.1971163213803964 1.847646599925075 -15.155214817473752 100 59 50
1.1392059325565356 1.7126097638983433 -15.680346429058394 100 53 45
1.1252035347524911 1.6636242599665731 -15.921433137224025 107 53 36
-1.2925128245512432 -0.3937771960464804 -12.524207995849205 107 68 58
-1.2598329380980613 -0.36028056871320047 -12.526673487383935 110 59 48
-1.2478450668296652 -0.3517586756379041 -12.553582674897452 111 55 44
-1.227026406157345 -0.3325711774086777 -12.570011148670877 111 51 40
-1.2069788060313522 -0.31431134750428846 -12.587329890442131 112 47 36
-1.1431796411199002 -0.24313135403722708 -12.55218310189406 112 48 35
-1.1741926487960814 -0.2866249058063568 -12.630680280086075 115 48 35
-1.1258644762987702 -0.24011633911542685 -12.655233515060923 115 48 32
-0.020034630834963707 0.9178621325347214 -12.5693867393962 124 47 29
-0.023132279536340228 0.9080748718592817 -12.6148162914286 124 47 29
0.012158202675230712 0.9455305307853452 -12.608617126468609 125 48 29
0.06965524769149978 1.0103669543299238 -12.57219342686464 124 47 28
0.07427046342384536 1.0100771589805477 -12.60721175745039 121 43 22
0.10037917987247047 1.0362783714709378 -12.613048925661015 122 44 23
0.12653860126463634 1.0625552602638644 -12.618726220536804 123 45 24
0.15263869958551757 1.088772165345996 -12.624393363392372 123 45 24
0.18067745855339856 1.1173966848359553 -12.627302812252685 124 46 25
0.19044935397999696 1.1234645015227924 -12.655306656788985 125 47 27
0.21575250147689973 1.148726786026507 -12.661864979799857 124 45 24
0.25190460911319024 1.1874215141755613 -12.653272935765902 123 42 21
0.28565029691680355 1.2231644154550363 -12.647850543705779 121 40 19
0.34376630547515186 1.2891081414597174 -12.608207943651653 119 38 17
0.3520827774193669 1.2934088224521725 -12.63800344646134 121 41 20
0.37261604001017323 1.3128438544052061 -12.65068074964373 127 47 25
0.40921180938900026 1.3522067658308607 -12.640648223914035 121 40 19
0.4854115575345035 1.4407417071032125 -12.574362828213577 123 42 21
0.5075222525156553 1.4622021410871762 -12.584337753815257 125 43 22
0.5208091823462779 1.4727104492664713 -12.606822331286622 129 47 26
0.531548358105137 1.4800494386936753 -12.632967442688916 123 42 20
0.5465684473832311 1.4927057477864505 -12.65301704903591 123 41 20
0.5708206585885929 1.5168482585324146 -12.659790086169686 123 41 20
0.5923959038656625 1.537670138814482 -12.67034422756172 122 40 19
0.6183211043499144 1.563918444667074 -12.674543308783015 122 40 19
0.655208348966577 1.6038421748804064 -12.66272301642935 122 41 21
0.6762492672704328 1.6240362318405976 -12.673790302492545 122 41 22
0.7064862028763148 1.655710851461352 -12.671361671007805 123 43 25
0.7368321673837221 1.6875419209262867 -12.668632597817378 116 38 22
0.7607756144771121 1.711397196663035 -12.675180371774985 112 35 18
0.8002363062932472 1.7546552552207269 -12.658743810828938 110 34 18
0.7562693169596639 1.6936352973522464 -12.765604687000376 116 40 23
0.8238076269298271 1.772028038973863 -12.707396942118448 119 44 25
0.8441836728347174 1.7914599751450941 -12.71897090398058 154 82 64
0.8795260816940758 1.8296429881551655 -12.708120175008386 149 70 46
0.9198700311498431 1.8741215526979014 -12.689573686925678 157 81 46
0.9308164172194164 1.8817767627669348 -12.71501737826518 138 67 19
0.9397875286892132 1.8869481255074585 -12.74348328715425 110 54 28
0.9427474564535663 1.8845655270181019 -12.781112486565679 60 6 2
0.9465577626882582 1.8832336966920473 -12.817568737655904 88 22 7
0.9414337462261368 1.8706586492912542 -12.867753968574211 105 34 7
0.9443192971447898 1.8681253981852848 -12.905891473658206 96 34 12
0.9890219984751791 1.9181827428199991 -12.880000709118747 95 48 37
0.9813417924292906 1.902344272902937 -12.934435999224434 68 43 40
1.0014623255320485 1.7930402699657346 -13.833221354293041 131 83 40
1.0060958466494823 1.7922784473747546 -13.87163042023171 86 35 12
1.0175661878352065 1.8002231342191202 -13.898823359279112 61 11 2
1.0413741944155062 1.8239137615081935 -13.905539246408445 112 62 44
1.0603031107540684 1.8413835284019324 -13.9203110859607 135 93 54
1.0561148311637973 1.8157771618213179 -14.067183702013725 63 12 5
1.1025078514798956 1.8683931338514768 -14.03571573661532 64 11 7
1.1109152583800208 1.8723772340406324 -14.0683480634657 76 16 5
1.147584461759342 1.9125912439070634 -14.052963268397633 103 38 20
1.0752071292499474 1.7991094253339757 -14.318875027884271 114 68 52
1.0783325068373308 1.7961861323487165 -14.361421836949852 70 32 24
1.0847264785171502 1.7974465240246174 -14.398459842831688 112 55 38
1.1017462575113903 1.8123690848621674 -14.417164592563822 131 57 38
1.1079920719242722 1.813415594052497 -14.454619742608719 122 52 40
1.1325396387073159 1.8380349671949627 -14.460212568495098 123 52 40
1.176443393378082 1.8876326940297927 -14.431780259400078 123 53 39
1.177917810577175 1.8825190605243964 -14.477642481341483 117 52 37
1.1771807090422586 1.8745251148237605 -14.527574794047334 119 64 48
1.1787560805113113 1.8694912386092923 -14.573608440935953 69 41 36
1.1672227549770762 1.8474821956764291 -14.643092148008238 60 41 41
1.137667259671474 1.8021068046503794 -14.745012118796378 103 53 42
1.14833688214775 1.808736577472521 -14.775557438253912 128 63 46
1.1238297107686934 1.7697803829399534 -14.869262454138195 115 53 45
1.1532176077767602 1.800629119911103 -14.866463316348513 108 50 39
1.176025450752185 1.822963653250417 -14.875389149844876 116 60 43
1.1921816060353398 1.8366740642098964 -14.896286580327565 114 57 43
1.187295943944993 1.823049055334959 -14.955427930430869 113 54 43
1.203210244629119 1.836426285318705 -14.976896064029788 121 60 45
1.2162602055236365 1.8460767596925978 -15.003609503714102 115 61 46
1.2296592613304265 1.8561758974306874 -15.029721920827404 71 41 39
1.2187023471883318 1.7668980146905158 -15.567882067024609 103 54 47
1.2167817638707978 1.733522731411652 -15.784629142197721 108 54 37
-1.2284457133862774 -0.3699076685568752 -12.51266635053642 106 60 52
-1.209718357166949 -0.35323131112061734 -12.53153162672912 104 49 40
-1.2331978909315704 -0.38774041961318595 -12.600739091923206 107 48 37
-1.178913472538699 -0.3279404277012574 -12.577176003365842 112 49 39
-1.1713648898776006 -0.3248310647627335 -12.609444283544821 111 47 35
-1.1443577080294878 -0.2981002325137023 -12.618343004008189 113 48 35
-1.1146632224020738 -0.2680926301633164 -12.623914904240978 114 48 34
-1.1010607102182246 -0.2576317435425324 -12.648895766644971 114 48 34
-1.0805973106368403 -0.23883039371832027 -12.665556259392687 115 49 35
-0.10910499870539914 0.7807414414599387 -12.58952900271246 124 47 29
-0.08540572758316811 0.8039159280996078 -12.599265048368316 124 47 29
-0.06062746717598699 0.8284318169749838 -12.607489632303988 124 47 29
-0.013052272467136916 0.8811075821674113 -12.585018005259524 122 45 27
0.02118253923553315 0.9173428249774735 -12.580248722205031 122 45 27
0.05680220634218891 0.9553131130421093 -12.573448100747893 123 46 28
0.07779329780308508 0.9752180784019346 -12.586313527403592 122 45 26
0.053521732054587545 0.9391264841222746 -12.660712114529023 122 44 24
0.08341179910838648 0.9700322452523604 -12.661538003764583 123 45 25
0.13787603852528552 1.031393062799439 -12.62859290465836 121 43 23
0.1673034306685799 1.0617775331953947 -12.629698862874438 121 43 23
0.21109388543230834 1.1099879882183954 -12.610891129582233 121 43 23
0.24485068554974365 1.1457879740639383 -12.605705835026935 121 43 23
0.2844390034772455 1.1888493862737395 -12.592272011288193 123 44 24
0.27856697679896225 1.1754886478142677 -12.641876015529721 124 43 22
0.3036335657654745 1.2005401782266034 -12.648486949686685 123 42 22
0.33731636234808926 1.2363151831869175 -12.6429477431403 123 42 22
0.35671258055310284 1.2543445542162246 -12.657315688065495 123 42 21
0.3798567476198116 1.2770431210199575 -12.666366986281329 125 44 23
0.4444149143449958 1.351316861637529 -12.61679614038492 123 42 21
0.4613852917746213 1.3663720065776124 -12.634278312777976 121 40 19
0.48859086033780885 1.3941867851633862 -12.637182453846926 122 40 19
0.5023109160273691 1.4051992885660374 -12.659230234030979 124 42 21
0.530713338395902 1.4345299857927536 -12.660266728748297 125 44 23
0.5641011414732793 1.4701022473979641 -12.65402110155023 123 41 20
0.5829895355406802 1.4875870138723082 -12.668508313726793 122 40 19
0.6144128479618631 1.520742948439744 -12.664837515802857 124 42 21
0.6413770333775908 1.5483445970859337 -12.667486089242562 124 42 21
0.6746059604239405 1.5838004985105094 -12.660908938969836 124 44 21
0.6776904837295268 1.5815439383647663 -12.69817560254183 124 43 22
0.7045891455101239 1.6090992657249696 -12.700676061362184 125 44 24
0.7507161548269101 1.6607686215605524 -12.674812246651111 116 37 19
0.7656483760756183 1.6733640542979762 -12.694643385564213 108 31 14
0.7819981626555603 1.6877375754646637 -12.71238112924633 111 35 19
0.8060904485650298 1.7118321226789464 -12.718620851866058 113 37 21
0.8026394848747196 1.7013434916509986 -12.76577397514209 118 44 25
0.8746389478456118 1.7856507871894616 -12.700436700155441 147 75 57
0.9014620461479295 1.8132309436348595 -12.702232118009292 156 78 53
0.9227868438357745 1.8339098447896385 -12.712178553913642 152 76 42
0.9428444887416054 1.8530023330395324 -12.723975717517241 130 55 7
0.9629256171690992 1.8721314118223082 -12.735689491160215 108 48 22
0.963930360478396 1.8672255409980112 -12.776304599432988 58 6 1
0.9733042088913613 1.8728530025309693 -12.80431651892061 84 19 4
0.9555100800125103 1.8441931363818158 -12.873881517886193 99 27 4
0.9695466965219954 1.855670822985851 -12.894996780449178 93 29 8
0.9283246720925673 1.7973445030786461 -13.001072371036255 95 45 34
0.9101299541998618 1.7680406225181402 -13.072195331078692 70 43 41
0.8974079003514905 1.7456087415721981 -13.135185326116464 46 39 44
0.9587829212743983 1.7258542532276984 -13.70502553977408 35 5 1
0.9432613171802302 1.6791282546149473 -13.914041111193445 108 46 14
1.0329097995610859 1.7870718779848689 -13.812408243208978 137 88 49
1.019759757902854 1.7634848667944265 -13.880251624910489 86 35 12
1.0355481873910177 1.7769345179833849 -13.900318649175578 64 13 4
1.0526245397492655 1.7920355437107114 -13.91823862412172 106 57 37
1.0566481143568982 1.790391679579085 -13.95797726127445 131 89 52
1.0889881127927623 1.811401174292028 -14.043731908540881 63 12 5
1.1250989363891009 1.8509694419549483 -14.02950206180428 65 12 7
1.1446191411706685 1.8692176951728312 -14.043254305611784 76 15 5
1.0711508375689913 1.7607441923889233 -14.263174668518442 109 56 36
1.079164099787497 1.7640799456764222 -14.297190495455107 113 63 46
1.1502078235934423 1.8487326778086768 -14.222721405674891 116 69 54
1.1136967221641658 1.7946061421145991 -14.333509868122931 68 33 29
1.1292471522870944 1.8076554495312633 -14.354623493212609 92 44 31
1.1342296959197045 1.807041555239369 -14.394126358368212 131 62 39
1.1383192474735022 1.8052539483233652 -14.435313969957985 120 51 32
1.1515410569744562 1.8152679915704812 -14.460647559494802 105 46 35
1.191709212006856 1.8601821276401047 -14.438673748713605 99 42 31
1.1954835602712377 1.8579636469842002 -14.480569253721995 116 54 39
1.1922228741972694 1.8465995817286753 -14.535047841455725 109 62 45
1.197352530600564 1.846092374833396 -14.57486490299177 60 39 36
1.1757682484677332 1.8108715099116388 -14.662363576957445 62 41 41
1.164273730303206 1.7886986253507935 -14.732284905516266 103 54 41
1.1760837194788865 1.7967850000163663 -14.760773851924675 126 62 44
1.1682784145196203 1.7793374110829063 -14.824579253818289 116 55 45
1.1889041831491785 1.7988714189493242 -14.837388300677226 105 47 37
1.235044058954693 1.8516602324473608 -14.803972664156355 112 56 41
1.235519245383407 1.8449561287096445 -14.85311206552899 117 61 46
1.2270012258756644 1.8264895302806048 -14.918823627095094 113 54 42
1.1429409887922235 1.7093411771446796 -15.122905239439312 117 58 45
1.2603161869615622 1.8552143858522658 -14.958811879686756 121 63 49
1.1484549146385845 1.671176489131116 -15.42254906736435 113 54 44
1.151689704368402 1.6677550498038176 -15.468833796132902 108 52 38
1.2804952643254968 1.7985698384299829 -15.488558170956939 107 55 48
-1.2918746411846174 -0.4947480894713836 -12.611222187923536 113 73 67
-1.2347734886775252 -0.431423588643872 -12.584685325768543 104 50 43
-1.2193207280178826 -0.418748238788182 -12.607621897966757 112 53 44
-1.1733799241160243 -0.3689467920690408 -12.594010164011294 113 52 43
-1.152898056493509 -0.3501299393135726 -12.61080033148652 116 53 43
-1.0900787874169913 -0.2797029360651262 -12.576467706466723 112 48 37
-1.0863027325574035 -0.2812258857415664 -12.613262056764563 113 48 36
-1.0777179050984795 -0.27689666742960206 -12.644316083246004 115 49 37
-1.0701677233493663 -0.2738397707491096 -12.676694165429511 115 49 37
-0.09579028892092012 0.7514963432353712 -12.596745716427677 124 47 29
-0.06881596973667481 0.7787587021548585 -12.602111147382866 124 47 29
-0.04444867052901724 0.8028054062550396 -12.61087869939493 127 50 32
-0.004519860865798364 0.8461514524555982 -12.598630982795028 123 46 28
0.034721364689958456 0.8886756090927408 -12.587103568168022 122 45 27
0.06689572391444809 0.9224613907922121 -12.584944644237211 122 45 27
0.03252881980917888 0.8736620439661085 -12.673058029918082 122 45 26
0.06933481981949008 0.9131999830497239 -12.66459017199568 122 44 24
0.10861358164965296 0.9558380838443039 -12.652557136060798 121 43 23
0.1493128974757867 1.0002730227533556 -12.638368944664776 120 42 22
0.17579222042025267 1.0270504431147813 -12.643532340485844 121 43 23
0.21636706006656725 1.071386421110633 -12.62913817545984 120 42 22
0.25645895020901266 1.1151536596762286 -12.615192261616922 121 43 23
0.29068167852008164 1.1516401363302702 -12.609184888784863 123 44 24
0.3162447047994119 1.1773554899728769 -12.61508399914704 124 43 24
0.32186577915977965 1.1782099167087807 -12.648784647754702 124 43 24
0.34379906809149396 1.1994086214049648 -12.659687244345669 124 43 24
0.37039515035740544 1.2264380562785595 -12.663969237487041 124 43 22
0.39437945258867346 1.250219274043456 -12.67183974141872 123 42 21
0.4644174134818 1.3315792673453295 -12.61438986555115 123 42 21
0.47708287417906226 1.3412580237979546 -12.637983939823538 121 40 19
0.510262388022376 1.37660348361206 -12.632354080637539 122 40 19
0.5278079090367234 1.3923986219641256 -12.648924796347583 121 40 19
0.5649419476879554 1.4327356500074506 -12.637365997329722 121 40 19
0.5816419968383135 1.4474902448133982 -12.655024432510515 123 41 20
0.5992039473788671 1.4633275346706327 -12.671425963627833 120 39 18
0.6303201364853446 1.4961754819630864 -12.668167953742355 124 43 22
0.6602034962052139 1.5274973980149236 -12.666555122408248 126 45 24
0.6932639845755006 1.5628304955172538 -12.660172975751607 129 49 25
0.7129028333383243 1.581319037029596 -12.673260144085756 122 42 20
0.7393410331856698 1.6083642796834434 -12.676326852061788 120 39 19
0.7631359471825228 1.632099178299999 -12.68318024158073 115 36 17
0.7990364018633769 1.6710866220168672 -12.672070213371098 111 34 17
0.8149998454214971 1.6849889499094308 -12.690309808337393 111 35 19
0.8519066233495995 1.7252890704316748 -12.677404439091493 110 34 18
0.8452492354426848 1.7106812206052284 -12.729270130926764 119 44 27
0.8854488614310152 1.7551670424449366 -12.711229871509584 140 69 53
0.9169065522246687 1.78865166968161 -12.706071797782588 152 76 52
0.943530187597649 1.8160530661913552 -12.708036319013772 154 78 45
0.9711106804455389 1.8446804415849591 -12.70844343091056 129 49 6
0.9581408923764778 1.8220420753188442 -12.77019669474089 103 38 13
0.9738364061963463 1.8356365959190275 -12.788632877086432 62 10 2
0.992031031195852 1.8523961368267523 -12.803251064319912 82 19 6
0.9737334817232828 1.8229288072264929 -12.873694444454543 101 28 7
1.0120104471359546 1.8651271487845995 -12.857595882339727 87 21 3
0.9502761706314455 1.7805098441953628 -12.995338796012991 94 46 35
1.00284768747973 1.7158412504918035 -13.801017679926247 71 13 2
1.0336712571984004 1.748611196091927 -13.796231589989624 106 42 11
1.0602852081835117 1.7759947183068991 -13.798248772996468 136 85 48
1.0496068966332182 1.7554358008430517 -13.862054309367162 91 39 16
1.043492285388183 1.7407072506109627 -13.918545908815869 62 10 2
1.0535866566539314 1.7468150824140354 -13.948192649236134 98 49 31
1.1420207895282353 1.8262514681614617 -14.032897199322168 64 11 7
1.1547352384778353 1.8357207716581767 -14.058249163070247 74 14 3
1.1049312870121577 1.764323897122102 -14.190516223843538 100 36 15
1.1357566459695958 1.7971705507243954 -14.185224877744318 111 60 37
1.1497204198778386 1.8082052427121207 -14.208781804778823 113 62 45
1.1942504960587952 1.8588474961337482 -14.179588732676294 118 69 54
1.1828048191498048 1.8369518712520794 -14.24702967660909 65 35 30
1.1777430485657092 1.823293795704604 -14.30368754953491 69 35 28
1.1915567370455573 1.8341086444022396 -14.327674706709427 116 61 41
1.1602405477087867 1.7862834504117915 -14.43063269919552 125 62 36
1.1778950941083837 1.802046083872873 -14.448188363776707 111 55 33
1.211377356151048 1.8384031792661002 -14.437855184783952 112 55 36
1.2002537591063138 1.816720053959009 -14.506123134647993 120 64 45
1.208639887893785 1.8204056682240486 -14.54012666033558 82 49 36
1.2167578873568923 1.823728432130638 -14.574696941633935 55 42 40
1.2206056652437054 1.8214670323264661 -14.616979823027247 62 41 39
1.2245069821629642 1.819254112759256 -14.659311362650033 106 55 41
1.193303526385213 1.7711658296641808 -14.7648369056661 125 62 44
1.197428430303983 1.769171259314895 -14.807264393570431 114 55 44
1.2129749065614623 1.7820943058881262 -14.829186908538261 107 49 40
1.2605010809563542 1.8368728072862481 -14.79310914774419 109 53 39
1.2615005720079147 1.83076896041623 -14.841331267592372 118 62 47
1.1724770975606065 1.706650433636443 -15.05411658363599 115 56 43
1.1617301801335573 1.6850054244862465 -15.124772092349037 115 55 44
1.1583008923356815 1.6499581887611257 -15.337280547852243 103 59 49
1.1713773460912114 1.6594548831075837 -15.364989432446563 120 62 50
1.1821423673367484 1.6659009012856245 -15.397062218379979 112 53 42
1.1992344443583178 1.6806746244835455 -15.417344157851534 104 49 36
1.2187639827343668 1.6986638016017128 -15.433034773420733 114 61 45
1.228508923722055 1.69594286012933 -15.519826843059551 114 62 50
1.2391700712975071 1.7021998682662405 -15.552446195215886 118 60 48
1.191896367439016 1.5674696323859134 -16.130012916628484 39 36 37
-1.2820061024636633 -0.530877616482134 -12.622934028571526 108 73 68
-1.218295263014979 -0.4593102014284689 -12.588464258114861 108 55 47
-1.2011836799840214 -0.44461709347686895 -12.609435598995601 111 54 43
-1.162805504891013 -0.4039309681020731 -12.604856985092852 108 48 39
-1.1355960774598626 -0.37687713567502623 -12.613572023738087 111 50 39
-1.0673409858189773 -0.29959636819354163 -12.572580334268594 122 59 48
-1.0405661765156804 -0.2730263318496826 -12.58150102888237 118 54 43
-1.0405877598512374 -0.2792581828190377 -12.62294961488654 119 53 41
-1.026806521287083 -0.26859918019095286 -12.647679120755221 116 49 38
-0.9815597331300507 -0.21937535737522929 -12.633896858379778 116 49 37
-0.2650440349166816 0.5329547421928842 -12.596974935847939 121 45 29
-0.2453182000633829 0.5511861155147795 -12.612515858221235 124 48 32
-0.23189289363631005 0.561610878370689 -12.636332628491601 125 49 33
-0.020961882480984073 0.7986076247406908 -12.521847619517025 121 44 26
-0.04882060323987236 0.7578017743048777 -12.60041248984787 124 47 29
-0.009437239087215055 0.8005630224267843 -12.588975459653817 127 50 32
0.006117055217544021 0.8137050115620301 -12.60946626782027 122 45 27
0.053085000177285124 0.8659539474733737 -12.587465436534444 121 44 26
0.07485470586342924 0.8868573605958652 -12.599389839451893 122 45 27
0.10210865750441478 0.9146031687271403 -12.603795581972811 122 45 26
0.16699469739632145 0.9830870994157044 -12.598084864908657 123 45 25
0.19569680615217644 1.0126927209526588 -12.600151285071828 121 43 24
0.22698939539095342 1.045550705200574 -12.598530354903485 121 43 23
0.2589120386376993 1.0792167076849637 -12.595899233794501 121 43 23
0.28486513004470737 1.1054413294483085 -12.601408690676113 124 46 26
0.3065003632474901 1.1262787289963514 -12.612838180003205 123 44 25
0.3093327008151001 1.1235917935588429 -12.650479407744292 118 37 20
0.3323631252203638 1.1461797941798375 -12.65993008696472 120 39 22
0.3643508691136357 1.1800002662085438 -12.656720778485605 123 42 24
0.3976511489341674 1.2154882964778722 -12.651511927935557 123 42 22
0.405016177784173 1.2184713851094955 -12.682840028607949 125 44 23
0.4253881603727234 1.2377660192841864 -12.69577893777154 126 45 24
0.45316433143983037 1.2663640025923293 -12.69812949542368 120 38 17
0.4953520630216537 1.313083989918061 -12.679777999363006 119 37 16
0.5538216121165336 1.3803067951744863 -12.63784403164469 119 38 17
0.5727399992510596 1.3978464057987399 -12.652384935474865 122 41 20
0.6016816467386175 1.428003890588574 -12.6524341116491 121 40 19
0.6140174001362042 1.4372722121249 -12.676389985224027 123 42 21
0.6848713320610362 1.5202558074261319 -12.615411803205593 126 45 24
0.673525520101065 1.4997066286178518 -12.673645046527655 125 43 23
0.7065042082758892 1.5350210021203425 -12.667357975039517 123 42 22
0.7332585005173251 1.5625058227817732 -12.67002957310816 121 40 21
0.7574178887916827 1.5867305512813559 -12.676409341474479 120 39 22
0.7840003431219813 1.6140289652583935 -12.679129709297346 117 38 21
0.7825117409125664 1.605861113935596 -12.723294952463736 114 38 20
0.8186115736138442 1.6452087533266848 -12.711799851231477 112 36 20
0.8666539342161093 1.6996990767888525 -12.682312386169432 112 36 20
0.8873136776494377 1.7195654354132275 -12.693436970242098 110 36 20
0.9143523694141211 1.7475212093838248 -12.69494352331543 134 63 47
0.9033250713880197 1.7272406107401217 -12.753599943905524 167 92 69
0.9381037896308664 1.7650202858057376 -12.743379893627077 160 84 51
0.9646013669394469 1.7923190715629613 -12.74550726428058 128 45 6
0.998724389837121 1.8293174683023041 -12.73594051649308 101 31 8
1.0204863411916416 1.8506382936917931 -12.745024666728856 62 11 1
1.0441069491269008 1.874331846060123 -12.751201673126166 77 16 4
1.0437051536227737 1.8674804328784265 -12.79414069784779 99 25 5
1.024140236150906 1.8362152757053893 -12.86672222411601 87 20 3
0.9818805776760082 1.7759956155987142 -12.974686093828037 93 45 35
0.9727310252872505 1.7578815638847134 -13.031944468633341 79 52 49
1.1181512328272811 1.8043528857183668 -13.73347285278829 137 86 47
1.0599643229337588 1.72232361730304 -13.87620908459306 93 42 17
1.0583873026388133 1.71333171401868 -13.9252598739652 62 8 3
1.1124014629145327 1.7552319591896959 -14.021361131642053 74 13 1
1.1409995931676784 1.785266571040098 -14.019840552474253 63 11 4
1.152604980538265 1.7932781919429388 -14.047103752781936 65 13 8
1.1471015772545448 1.7790736110139083 -14.103633070709698 74 14 4
1.2192620507177336 1.865714858328185 -14.027329400985348 102 38 18
1.222675796885956 1.8489044322761714 -14.163292556180764 120 71 53
1.2202607554835758 1.8386238288915768 -14.215115285185577 68 39 31
1.2075213339490753 1.81485716111177 -14.285130088175542 55 33 29
1.2142693413079595 1.8164541006471016 -14.32141818049979 79 39 27
1.2209394973378762 1.817933576962444 -14.357948725785977 117 63 42
1.1979609134282478 1.7806818432554437 -14.446741823872213 125 64 38
1.2015165910016696 1.7780336688835296 -14.489156812632785 123 64 39
1.2088662385193034 1.7803244229044362 -14.524999361131556 97 58 45
1.231204776230265 1.8022115249466273 -14.534314998975896 59 43 37
1.2368024970456561 1.8021909987302314 -14.573397075540957 51 42 42
1.2398961244992037 1.798871151690367 -14.617080978141512 63 41 38
1.242119742903978 1.7943876010297206 -14.662479896037834 110 58 43
1.2052694516006364 1.7386162029985126 -14.778385427012193 126 63 44
1.221348604711629 1.7522382688195925 -14.79932323894208 112 54 42
1.2293296852677669 1.7552212326470418 -14.834938233342879 105 50 39
1.1791521818704345 1.6817315002283229 -14.976395393721425 107 53 39
1.1953334469147388 1.6954197158552908 -14.99760206760146 118 62 46
1.1857708193059828 1.675216854121694 -15.06592974131139 118 61 45
1.1709984831618954 1.6481035792808978 -15.144140149713547 115 56 44
1.2077271018044664 1.6656558185622767 -15.282507997220018 103 59 50
1.258142232621653 1.677440280623851 -15.55459807754215 117 59 46
1.1685189169131034 1.5423362511398002 -15.832905355704828 95 48 40
1.6224448091904966 1.86645452396683 -16.82745808774147 167 166 166
-1.2099396293916245 -0.4971935305172597 -12.601976744704146 109 54 45
-1.1796578374018227 -0.46635839358857556 -12.607197435028079 106 50 35
-1.1491248053665801 -0.4351993306385049 -12.612011921240093 108 47 36
-1.1192590605925408 -0.40484312316167426 -12.617525804139632 110 47 34
-1.0899182781497352 -0.37511611613537177 -12.623573968588449 112 50 37
-1.0046170228203142 -0.27662866608768955 -12.561523265416412 123 61 48
-0.9912190795864224 -0.26643345876665503 -12.586591650698544 118 52 40
-0.9836261594184736 -0.2633802772232823 -12.618785000663006 115 49 37
-0.9506160723614343 -0.22906843310304126 -12.619864639115262 115 49 35
-0.2417046413342092 0.5219260351016111 -12.54979315146134 123 47 31
-0.2248899395857622 0.53656537643801 -12.569080692325421 122 46 30
-0.19466491373675554 0.5678862352045995 -12.570703597364272 123 47 31
-0.18217566102549476 0.5771531979882019 -12.595634790734167 120 44 28
-0.174934215522637 0.5798813775988059 -12.62755039195725 122 46 30
-0.031610699042222024 0.7333687922537235 -12.602453251769454 123 46 28
0.019358461714790387 0.7907040007908455 -12.575364323391454 124 47 29
0.030082569199166187 0.7978172264616203 -12.602343503639734 122 45 27
0.07521874529305173 0.8479287688684822 -12.582725698377155 122 45 27
0.1722435774599833 0.9441667904427007 -12.616351017214438 124 47 29
0.2043048064378823 0.9780346243090721 -12.61381993523855 121 44 26
0.24421537926271775 1.02176519559527 -12.60029784815782 121 42 25
0.2667613866030205 1.0437466052986393 -12.610631637823063 122 44 26
0.28775697838506353 1.0637914621764164 -12.623060133086222 123 45 25
0.3212388135456874 1.0995230287989077 -12.618020101159678 124 45 25
0.34373731690222176 1.121479222740148 -12.62819283840205 122 41 22
0.3171367131537801 1.0817221644699666 -12.70724834261166 119 38 19
0.3630142666798837 1.133069470007742 -12.684584172897292 121 40 21
0.40522622496258 1.1798452801306674 -12.666826029938257 123 42 23
0.3967295574396119 1.1628071122479184 -12.72072164278811 125 44 24
0.42607238457969787 1.1934080950273698 -12.721014487515712 122 41 20
0.47053200085466607 1.2430837322410664 -12.699609784539316 122 41 20
0.5149482565070747 1.2927449565928901 -12.678001281350749 120 38 17
0.560306844990138 1.3436357842700515 -12.654772539118879 122 41 20
0.5865339268985781 1.3704120323195088 -12.658832658297602 128 47 26
0.6132688486390387 1.3978450633400445 -12.662058365180942 127 46 25
0.631467808828369 1.4145040404816775 -12.677557191014898 123 42 21
0.6600681535916437 1.4443224322862696 -12.677897235936822 125 44 23
0.6894685665574554 1.4751721002137153 -12.676945442300987 125 44 23
0.722152160589093 1.5101989901440813 -12.671053849511601 118 35 17
0.7555807545246753 1.5461945891325808 -12.663903783383386 120 39 22
0.784544674826424 1.576556628539782 -12.663161649245522 120 41 24
0.8122518220870765 1.6053443609749722 -12.664147392761226 113 36 18
0.8042928884254592 1.5888866508891866 -12.717918542950555 115 40 21
0.8270889230693093 1.6114483690577996 -12.726145298096819 111 36 19
0.9037001652117751 1.7023957863029326 -12.653956730542436 110 37 21
0.8542224446864468 1.6331387520699474 -12.770028311435855 111 38 21
0.8711070752668753 1.6482005464237632 -12.787009209394157 126 55 38
0.9060362706251373 1.6862309493792713 -12.776772410394823 154 82 55
0.9408748483237042 1.7241750321031866 -12.766480688776486 159 82 47
0.9666584122728468 1.7506100050272009 -12.769735902968428 123 39 4
0.999116229238254 1.7855702713704247 -12.762727523202868 102 31 7
1.0206989662371608 1.8066827221624915 -12.772156462124826 66 12 2
1.0395223217457445 1.8242825186166294 -12.78574943094236 75 13 1
1.0031325361139034 1.7713678852650592 -12.88417232886822 98 24 5
1.0100379485111857 1.7737060531944868 -12.916345793156529 88 19 3
1.0078177322540198 1.7643622179751555 -12.962720676310461 92 40 30
0.9991904382592325 1.7467938746960305 -13.019215572349031 80 47 42
0.8113968108518153 1.4244593458139283 -13.852337254631916 6 2 2
1.0730103586571458 1.6996139185422283 -13.839609209045346 135 86 45
1.0783191591118344 1.699479145331014 -13.87709976865256 93 43 16
1.0870192902300335 1.7037282950613726 -13.909031648786318 63 7 2
1.1424591129571153 1.7616221997257373 -13.909077005540473 127 82 49
1.206013000855891 1.8230865219858305 -13.941494228382368 65 8 4
1.2158661279906724 1.8288298950631736 -13.971511412613545 64 11 3
1.1811383215110984 1.776443848985692 -14.077903234721044 73 13 5
1.254068583108265 1.864415508558512 -13.999980604340301 103 39 19
1.2463079650249194 1.8327905662112158 -14.155243170137329 120 69 49
1.234270466648998 1.8098241820159906 -14.223861167089304 72 41 29
1.2249232027012216 1.7903304264769346 -14.288102631576448 54 34 34
1.236233638386457 1.7978484669966726 -14.316451856821573 56 31 25
1.2413496542536357 1.7972399810822113 -14.355740428304301 74 38 31
1.2193744593413918 1.7610828878353297 -14.44292063168866 92 51 39
1.2259002366686067 1.7622623565502984 -14.480125723266518 82 47 35
1.230751115731306 1.7612253874287065 -14.520414907551931 60 41 38
1.2519780308792994 1.7816888156075015 -14.531675099324175 52 41 40
1.2679407026406215 1.7952387792537774 -14.552279783150297 50 41 42
