ply
format ascii 1.0
element vertex 702
property float x
property float y
property float z
property uchar diffuse_red
property uchar diffuse_green
property uchar diffuse_blue
end_header
2.111509183835743 -1.1177417463455122 -13.713125617213638 151 81 39
2.1501755384558097 -1.1302715200408837 -13.706896087934535 138 70 39
2.1836802842336267 -1.141667908524664 -13.70636628097788 123 53 32
2.2134454790520843 -1.1522440219569394 -13.709973602863744 116 45 25
2.2431080630002596 -1.1627895026348103 -13.71362109296738 107 36 21
2.276248036979993 -1.174076583896635 -13.713230372195547 105 34 18
2.3023023885683314 -1.1838269595886088 -13.720836895897222 127 55 35
2.33386196318959 -1.1947548881679424 -13.722081836619676 129 57 33
2.372967150822487 -1.207292346832877 -13.714567176379447 127 54 30
2.4140421466264286 -1.2202365003800122 -13.704644108588646 131 56 35
2.455895513840675 -1.2333303038755778 -13.69366954388267 135 59 35
2.486390134686679 -1.24398107282592 -13.695699394775819 134 57 30
2.5077940741367506 -1.25268455739683 -13.708208639525868 134 57 29
2.5588298075048534 -1.2676913627814255 -13.68616218252637 132 52 26
2.582471105934963 -1.2768537972588865 -13.695908950448288 134 53 27
2.594381469528379 -1.283523773728657 -13.719362743317472 136 55 27
2.620982642892627 -1.2933081817244407 -13.725588679544177 128 46 18
2.647540966890997 -1.303076846135737 -13.731804742376411 131 48 20
2.6720040074671987 -1.3123967516169757 -13.740436752895437 128 44 18
2.699965991104567 -1.3224484173155686 -13.744875187668129 123 41 14
2.7264153537037688 -1.3321742757425312 -13.751041120441755 119 39 13
2.7567983507516747 -1.3427189946988454 -13.752458092026277 115 36 12
2.8163849995072923 -1.3593721776953536 -13.718881706899147 116 40 15
2.8309537263186826 -1.3665794371089544 -13.738980733554934 117 38 19
2.840209357578469 -1.3726796778621202 -13.765485101769167 126 45 22
2.876505473527323 -1.3844205051363607 -13.759448989179276 156 78 36
2.901120288721308 -1.393717377724439 -13.767404588070331 157 88 41
2.933945235823491 -1.404713280246983 -13.765357473326375 134 65 33
2.9592857728473447 -1.4141463590054766 -13.772302714107063 130 51 20
2.970856290092903 -1.420724919814256 -13.795980182813942 152 76 30
2.999914174816687 -1.4309184907418127 -13.798317107783486 175 102 53
3.0241978827552654 -1.4401191322649098 -13.806425934773848 174 104 74
3.0442854714690375 -1.4484512241809793 -13.819645320683385 149 79 60
3.062180030571903 -1.4563308698224837 -13.835549070295073 136 57 30
3.0634500649015415 -1.4608031829871337 -13.872005010066253 158 74 37
3.091553219550079 -1.4707763672072762 -13.87529917256318 183 102 77
3.1070831386862974 -1.4781742883727416 -13.894152658213965 196 139 127
3.1489330663998985 -1.4909364956079918 -13.88019505814171 168 109 99
3.158405001198606 -1.4970948209522177 -13.90655616728393 152 74 58
3.1850764881380975 -1.506750288911453 -13.911401001256461 203 140 115
3.217429928129822 -1.5175493423847783 -13.909032096261452 191 125 91
3.2367472208317363 -1.5257007445417026 -13.92299782591508 179 114 88
3.2523423377722747 -1.533099391210588 -13.94165662054634 171 119 107
3.2715955397941228 -1.5412359995621228 -13.955686615284854 149 93 83
3.2812036381743637 -1.5474324487541864 -13.981971621338475 146 95 82
3.470378350207578 -1.6108555118304873 -13.970644674624253 134 90 51
3.5029864878812536 -1.6215988002017705 -13.966986167125622 92 52 32
3.503499691805236 -1.6259829881051473 -14.004982559926628 115 69 46
3.470967626141787 -1.6238601583661418 -14.086231782321585 152 97 50
3.5551202979268854 -1.649058288590009 -14.053973215089309 168 97 65
3.5351165678784104 -1.6494535658286447 -14.119285698070243 150 88 66
3.5164217147712122 -1.6501358963870156 -14.183149692948287 146 88 76
3.5134888403256106 -1.6539256703232847 -14.226416450527942 133 80 68
3.7754811687887635 -1.7308998125513362 -14.11266834470048 87 17 4
3.7958201348737566 -1.7391644527734504 -14.124502870066292 76 15 4
3.823768206323127 -1.7488859374633108 -14.126003371576568 66 16 8
3.85533680570461 -1.7592909420221718 -14.122499497034553 67 22 17
3.873090226505859 -1.7670448769408469 -14.137703970298473 83 50 42
3.8657388246885587 -1.7700145162113772 -14.187204866498508 82 57 49
3.8649560107587426 -1.7742540479382356 -14.227895618017612 57 45 41
3.758123130353497 -1.7583945527969405 -14.414468596442626 49 43 45
3.7292134575887026 -1.757389255246367 -14.494625950557143 48 43 46
3.7182580163296937 -1.7598141578423345 -14.550333264098079 48 43 44
3.7228069760811957 -1.7651842426872602 -14.584773490901956 47 42 42
3.7236437582099997 -1.7698681097864093 -14.624476625115491 48 44 45
3.7092037005643297 -1.7717028517120432 -14.685611654433771 49 45 46
3.705408701383096 -1.7755567694023584 -14.732118553678795 46 41 42
3.6970051139339652 -1.778569885831782 -14.785259659295434 41 37 38
3.688050563468246 -1.7815037056608507 -14.83938548865154 29 29 29
3.691669420225346 -1.7867958412037348 -14.875992863757695 26 26 27
3.6950820665071253 -1.7920623894862961 -14.913005730457343 17 18 20
3.6997075519154503 -1.7975658789092896 -14.948414128452525 13 14 16
3.6970854870801384 -1.8017454392902794 -14.994240527697936 12 13 15
3.712412586484869 -1.8092433928283942 -15.014623133338112 10 11 13
3.705660312602915 -1.812694402862474 -15.066620565450567 8 9 11
3.7029493013761208 -1.8169071447911869 -15.11302107152214 8 8 10
3.6976455239830033 -1.8206656573886215 -15.163323678820788 6 6 8
3.733935257418409 -1.8320155967093803 -15.153778329285728 4 4 6
3.7208730014057405 -1.8343891504465466 -15.215525002390223 4 4 6
3.702979775005992 -1.8359167288838003 -15.284545579792717 4 4 6
3.71367687410601 -1.8426411725034295 -15.312235989025542 23 23 25
3.746642481205302 -1.8533835793205116 -15.307466150469253 37 37 39
3.76467287777848 -1.8614285039699772 -15.324442760651106 17 18 20
3.782887236695971 -1.8695062136834455 -15.341147532560344 14 14 16
3.820212341890647 -1.8809988462507823 -15.329694618496633 15 15 17
3.8659391460528925 -1.8939703573038946 -15.305660168240603 17 16 18
3.8794621280205615 -1.9011907766687348 -15.329105820225461 23 22 24
3.8885745569288597 -1.907633385778396 -15.359143102032046 26 26 29
3.933254951110322 -1.920372476825788 -15.336240233715849 33 33 37
3.9563290874345345 -1.9292761783330081 -15.345401773856116 30 32 35
3.973625792817378 -1.9371588878712587 -15.363178531760921 44 44 51
3.9928475352540467 -1.9453795417178483 -15.378064393215693 49 48 53
4.011146926891909 -1.9534374606675426 -15.394328030343665 63 63 65
4.029444253514287 -1.96149445242939 -15.41058967073631 49 48 50
4.04773951512118 -1.969550517003387 -15.426849314393628 18 16 19
4.063972833380145 -1.9772485323469247 -15.446240924963982 10 8 13
4.0924304007824 -1.9870612823449019 -15.446992749336381 18 18 20
4.119168598630276 -1.9965669663512284 -15.450279422194669 37 39 37
4.117805190720038 -2.0012335906544507 -15.496618039636626 34 36 37
4.114343769701527 -2.0055597622011434 -15.546358818652985 22 24 28
4.108878838228094 -2.0095648991651704 -15.599385372754053 14 16 19
4.10578772049053 -2.013997909323124 -15.6489477053753 12 12 14
4.132754150911057 -2.0235577121778734 -15.65201849603034 11 11 13
3.9980273124106267 -2.026119239746404 -16.090994566929453 6 6 8
4.060098802087293 -2.041617074435891 -16.039317934216925 6 6 8
4.11659475159533 -2.0561423260564045 -15.99607039477244 52 52 55
4.170047228580529 -2.07012313565599 -15.95730167557349 44 45 49
4.220160238761835 -2.083515160013813 -15.923525067876051 18 17 22
4.269879956875154 -2.096808667550829 -15.890072993373678 11 10 15
4.202817599374118 -2.090897338062941 -16.0437015309586 21 19 25
4.261881508695089 -2.1057144921743003 -15.995162970993105 26 27 31
4.34427518683894 -2.1242931826287603 -15.908573431811654 27 28 32
4.352555752496514 -2.1307546786288825 -15.941348870501852 28 29 31
4.3426128529406345 -2.134273631434481 -16.003807940073578 29 29 31
4.39799902578592 -2.148372839915309 -15.960139541357995 38 38 39
4.422977543657567 -2.1575373366922515 -15.96577743905587 46 46 46
4.448465350467719 -2.1667758186579658 -15.97051129363357 64 66 65
4.445916763665651 -2.1715237945809345 -16.02124255090716 28 28 30
4.432589030514736 -2.174576624759542 -16.089941160406248 30 30 32
4.423377980759997 -2.1783172666463018 -16.15214269706139 47 45 48
4.411924240463936 -2.181732896896605 -16.218332362059588 70 69 69
4.489151601878041 -2.1991638533725517 -16.137327535960996 70 70 68
4.46445674319192 -2.2005150525669217 -16.22574981741534 63 60 57
4.443153508451686 -2.2024446637315203 -16.3089253481559 64 56 53
4.414390023146578 -2.2032543084268816 -16.40501677985 71 63 60
4.388412302842949 -2.2045494900325036 -16.49689304109023 78 70 67
4.305333432502536 -2.202486184979449 -16.734698445701515 94 91 86
4.412552069587473 -2.2407416039936843 -16.749125234979534 141 140 138
4.492946262781505 -2.2583983511168793 -16.66038404011623 149 148 147
4.517534133437769 -2.2675631067769237 -16.66723005463495 154 152 153
4.549804201829217 -2.277875238367831 -16.66072255424202 161 159 160
4.57883591950238 -2.2876862252943275 -16.65968627772188 167 165 165
4.620771568497086 -2.29940908172107 -16.636080827120136 173 172 172
4.652723910047303 -2.3096210855553556 -16.62965007522747 180 180 181
4.664948387203256 -2.31689789983652 -16.657612851952596 187 189 188
4.660412730948504 -2.3217117974406207 -16.715072579216937 193 195 195
4.663056702963475 -2.3276064724364263 -16.760128780917583 195 196 198
4.7038347061691015 -2.3390941560918703 -16.737973402985272 199 199 201
4.750124036943252 -2.351357215479078 -16.70580674340694 201 201 203
4.810758271282968 -2.371169826203438 -16.697520180128706 203 203 205
4.843003368479052 -2.3813312092590433 -16.68972879821168 205 205 207
7.720692163713209 -3.3571810142358007 -16.617370435079067 217 217 217
7.749382281657928 -3.36503367937346 -16.599708813611965 213 213 213
7.778992586210894 -3.3729074059406656 -16.579397068117977 212 212 212
7.803994784008291 -3.3805217068475812 -16.570966703005766 217 215 216
7.852047206826111 -3.3955998162271666 -16.55877232553044 218 216 217
-4.135239208991021 1.1136451099347724 -12.550883643060759 203 196 193
-4.059335859922436 1.0895728578045132 -12.534825973920288 179 165 160
-3.963422942505364 1.0602150449404588 -12.505058064498341 129 108 102
-3.8692779233775227 1.0313584394123039 -12.476195692733507 101 72 66
-3.103408731943448 0.7792727463531104 -12.396358363603525 102 44 33
-3.072402040528681 0.7673125898296824 -12.40880576627384 102 44 31
-3.0529594757300487 0.7583845306729622 -12.429378594053947 102 44 30
-3.020698616704631 0.7461032041239897 -12.440876206512272 103 43 30
-2.9539960138763313 0.7248263469000387 -12.427860425512318 104 43 29
-2.9257908573944356 0.7136225160236827 -12.442081749480288 105 43 30
-2.8701492783612546 0.6952645968063729 -12.436670278365618 106 42 30
-2.828764350711647 0.6806387967168455 -12.441329328495893 108 44 31
-2.5548408161709535 0.5864463438522165 -12.448798884654142 111 44 28
-2.5044185923750604 0.5695535896330595 -12.446190838963371 109 43 27
-2.4750696961257956 0.5581287973569695 -12.45890310468118 109 43 26
-2.4366532049847667 0.5443636955436353 -12.464911616706386 112 45 29
-2.404236046979176 0.5321570070971051 -12.475266023895877 112 44 28
-1.590644924630415 0.25119065124939777 -12.508191542688174 119 42 24
-1.5540525961805933 0.2380938919953186 -12.513783159817255 118 41 21
-1.510779165986973 0.2233133323248513 -12.514072818097763 120 43 23
-1.464047925791868 0.20766957070320036 -12.511544702454872 120 43 23
-1.4311102931162614 0.19552618077025952 -12.51974793321515 121 43 23
-1.359462300089687 0.1736135879843126 -12.497349985382392 122 44 24
-1.3627217773805365 0.17062546547415147 -12.533985967433942 121 43 23
-1.3140457250370732 0.15453616530878334 -12.529515857341226 120 42 20
-1.2965636143746506 0.14631586202591973 -12.549734681866255 122 41 20
-1.248220312720811 0.1303318150291699 -12.545337438245813 122 41 20
-1.212244900353629 0.11747025337282002 -12.550706106323894 122 41 20
-1.2018560477070617 0.11104021866440261 -12.576530775609251 123 42 21
-1.15773003668329 0.09614499703130663 -12.575248197395194 124 43 22
-1.085499763262579 0.07422144614948767 -12.551174496047889 124 43 22
-1.0530778135852978 0.06228781558477081 -12.559073771554973 123 42 21
-1.0409703528812546 0.05543992779533591 -12.58339804370278 122 41 20
-1.0082473086056654 0.04343939358976856 -12.590978120662829 122 41 20
-0.9753332364423262 0.031398122496628655 -12.598340402148228 122 41 20
-0.9278145868906833 0.015723708299554495 -12.593687711226542 124 42 21
-0.8802379708668155 4.946366801927837e-05 -12.588856932052977 122 40 19
-0.8429672421216603 -0.013046663801543623 -12.59237641512589 123 41 20
-0.7954477825523298 -0.028679939538867494 -12.587353569627552 125 43 22
-0.7755695081223806 -0.037437470587906585 -12.605075029028145 126 44 23
-0.7442677495362382 -0.0490270820059755 -12.613311765683914 122 40 19
-0.7311638761233707 -0.05610277833864252 -12.63663695354716 122 40 19
-0.6091442586245899 -0.09013090757357078 -12.569087292925397 122 40 19
-0.5661347649591626 -0.10457603055785158 -12.567182868270429 123 41 20
-0.5744548023469092 -0.10633482368904579 -12.608246417713229 124 42 21
-0.5783693141705131 -0.1091945512782928 -12.645730144561565 124 42 21
-0.5809371969184953 -0.11239812604906385 -12.682185116470224 123 41 20
-0.4802875781445781 -0.14101641056748004 -12.631378902572589 127 46 25
-0.44593710470524517 -0.15329172220016885 -12.63645754302812 127 46 25
-0.38951571534958607 -0.17097899826816287 -12.622676605958308 126 45 24
-0.35894164958231123 -0.18230545482744565 -12.630777956263849 127 45 24
-0.2911092034012075 -0.20275565364663706 -12.606932034873513 129 47 26
-0.34414205979727175 -0.19359426759352716 -12.686593767950159 131 49 27
-0.2610085558862316 -0.21776545087536991 -12.649396421062773 136 56 33
-0.21608538055379078 -0.23256943252057338 -12.644870101952058 137 58 38
-0.18178311740614017 -0.24476805596151063 -12.649410173215735 138 65 51
-0.14681677784047764 -0.25712003236068304 -12.65329802688388 150 85 74
-0.1029662786091432 -0.27162575934255173 -12.64937346628222 163 104 92
-0.08797819036819021 -0.2790997709183263 -12.670519174044198 167 111 95
0.014294390022565828 -0.31542118459045954 -12.683618225796259 143 67 43
0.034214169079793244 -0.3240810862293453 -12.700340665441619 143 67 42
0.05495555020665854 -0.3329388731346645 -12.716329066474398 144 69 43
0.07463426233983128 -0.34153880821495863 -12.733249855519823 152 80 62
0.11069049269497366 -0.357941381614731 -12.770021183612148 140 73 53
0.07388096702174973 -0.3529456902849861 -12.837496868560176 134 59 34
0.12521999304906828 -0.36917044214325423 -12.82612566623449 100 22 2
0.14627538251890826 -0.3781056403996419 -12.841849447703167 97 19 3
0.10360755479086858 -0.37175731967980297 -12.915080685749082 90 17 4
0.02813803905058343 -0.35758635856901577 -13.018312568191114 67 9 2
0.05737618427428792 -0.36852050023900573 -13.02697685949298 61 13 9
0.08957531402562591 -0.38015628758986275 -13.032892808838076 51 14 9
0.11386142123308929 -0.38989569768591825 -13.04596332460553 21 4 2
0.11195738748354778 -0.39338821475046815 -13.082978641507001 9 3 4
0.11039554878805546 -0.3969740367002126 -13.119785531966878 34 30 30
0.11766189132999916 -0.40267110887918256 -13.148570665554484 24 22 22
0.1328422554214841 -0.41025470491087646 -13.170110121931492 8 6 7
0.14862885266911885 -0.41798422590770645 -13.1911071682212 7 7 7
0.16130453448718196 -0.424978337481305 -13.21500749022788 8 8 8
0.2333426266200842 -0.450013031414229 -13.219325958136075 9 9 9
0.15941569525519128 -0.48152096442479886 -13.726127590789721 17 11 11
0.22726612142716007 -0.50145354224713 -13.697600509272986 10 3 3
0.2720055842035478 -0.5159898964957481 -13.691241801155524 78 35 19
0.30633343158519466 -0.5280961046459449 -13.694877950795632 133 57 23
0.349580706086841 -0.5422588712472804 -13.68972557388193 135 57 34
0.40931660182860696 -0.5602207839585143 -13.668302905854494 141 75 56
0.4603091376128008 -0.5761380821552997 -13.655239195514081 137 77 62
0.5379430406728964 -0.598181686101547 -13.615778410919294 130 69 55
0.6233958432886952 -0.621990515125108 -13.568277558195572 123 59 47
0.6636886227425522 -0.6353680133985802 -13.565106353345241 127 59 44
0.6636411366279136 -0.6394633529009202 -13.601854311296059 135 63 40
0.7909682604151342 -0.6727972011915566 -13.511932019118646 148 74 45
0.6688531544468646 -0.6489051167002649 -13.67036645058697 164 99 65
0.7078978306933212 -0.6619794736128914 -13.668287699591207 184 133 98
0.7349246560838827 -0.6722948451593098 -13.678157490628848 157 109 86
0.7681056667437174 -0.6840094550021982 -13.681787014311576 129 74 55
0.7936257374236009 -0.6939691289477379 -13.693067405222392 116 56 40
0.8240077361060489 -0.7050309767988623 -13.699388795822792 119 63 49
0.8543007151246833 -0.7160652173421738 -13.70573460232661 115 65 49
0.9553739694346035 -0.7431550531662943 -13.639976981773414 128 72 53
0.9662551594128992 -0.7497528705410426 -13.665801540760622 127 53 26
1.0077888216481519 -0.7674312526696212 -13.697290883807653 131 57 34
1.0193181201218025 -0.7741837893415022 -13.722524077433173 154 90 60
1.0426028036708574 -0.7835898271100121 -13.735665433843256 142 97 75
1.0577907210647846 -0.7911709277288452 -13.757159578478888 117 78 68
1.070823272294426 -0.7982699367510635 -13.78091038618936 113 64 47
1.1052998759966481 -0.8101839156450377 -13.782375300629383 149 80 36
1.1540723074870103 -0.8252904152735931 -13.768827537434046 139 53 21
1.217155241095889 -0.8435786582314944 -13.740126070611623 134 49 22
1.3348085767341669 -0.8740280458408451 -13.653890556267594 131 50 22
1.3589474874760272 -0.8835530168839341 -13.665492837283846 128 50 22
1.3815786881378909 -0.8927383444930381 -13.678652117211962 121 44 22
1.410078949281691 -0.9032260901380609 -13.685574293756428 122 44 23
1.4318722082980004 -0.9122176753633782 -13.699554412812665 126 48 22
1.4823273645069017 -0.9275622626329978 -13.683008850503946 131 52 22
1.5038706156257415 -0.9364842743313078 -13.697128689094228 138 59 28
1.5140505587831363 -0.9428920340865692 -13.723390632327106 132 55 25
1.577747464079704 -0.9611180450330286 -13.692262718313483 137 60 31
1.595501682606443 -0.9691879639472243 -13.710308565365853 134 56 29
1.6225949508170645 -0.9793132950630605 -13.71827742110958 129 51 24
1.6565056763176118 -0.9909305162466246 -13.718813707356665 127 50 25
1.6875266785108636 -1.0019031069259254 -13.722390855506486 121 46 23
1.7223686727907603 -1.013703875739665 -13.721730898541406 112 40 19
1.7610847858115815 -1.0263404876657705 -13.716740514418127 103 35 15
1.7992011353047275 -1.038832019086342 -13.712280380738727 100 34 14
1.835377036566289 -1.050886741208403 -13.709826968718305 113 47 25
1.868867645755384 -1.0623444708145782 -13.710217475582496 132 62 39
1.899639000712419 -1.0732005552578585 -13.713513769663628 135 63 34
1.941123417394782 -1.0863722386419574 -13.704873165773913 133 54 26
1.9685254212350047 -1.0964769526729734 -13.711717305083118 131 48 23
1.9960647561250813 -1.1066047693317511 -13.718349604398234 131 49 21
2.032669299059874 -1.118683293015299 -13.714803232801408 145 58 21
2.0691583872724806 -1.1307238118100116 -13.711268869953308 154 69 27
2.097338113173371 -1.1409628521822768 -13.716944557614541 154 75 35
2.135786908136639 -1.1534011439840357 -13.710995910971793 147 70 34
2.1663354029177118 -1.1641300852301244 -13.713834683449406 151 74 37
2.202548336385969 -1.1760630942191401 -13.710180619788426 150 76 34
2.2323979090604995 -1.1866224481790137 -13.713632654823607 135 63 30
2.2675853576469898 -1.1983125348861825 -13.710931149199254 119 45 24
2.2975493258748356 -1.2088770406015992 -13.71408076723065 116 40 24
2.3232290775378788 -1.218521351876075 -13.722056103769557 119 46 25
2.3552719797580783 -1.2295112613383044 -13.722675215688676 123 52 31
2.395137964864099 -1.24214936020563 -13.714195475581214 124 49 29
2.445054173005148 -1.256898456683104 -13.693969237327913 124 47 24
2.4926464807466706 -1.2711330582324805 -13.676223422931704 129 52 27
2.497711444233956 -1.2763759454713433 -13.707654804291113 129 51 26
2.5313359401316013 -1.287641244908756 -13.70591757483151 129 49 24
2.545520998938537 -1.2948088567061884 -13.726770866180921 130 51 25
2.6007256305823914 -1.3105855379760698 -13.69961980974337 136 57 28
2.630132486050625 -1.3209311013718013 -13.702509597111519 137 58 28
2.6446505170281673 -1.3281549107464474 -13.722850898455357 140 61 30
2.6651908187999176 -1.3366377851589266 -13.73610091947868 136 56 28
2.694405100196038 -1.3469254343075596 -13.739059684443491 132 51 25
2.719166053299836 -1.3562781812243667 -13.747227846942305 127 45 21
2.7474753845609436 -1.3663620165347956 -13.75112155018907 125 43 20
2.777136166007451 -1.376717689629272 -13.753328207511588 122 41 17
2.8053379004280377 -1.3867623387596013 -13.757199425332423 117 36 14
2.8342788989010934 -1.3969514204244335 -13.760109666228312 118 36 15
2.85887390411394 -1.4062361325816424 -13.768175244758595 125 49 19
2.8894719714155466 -1.416750092515765 -13.768941554350285 130 57 25
2.917975113981619 -1.4268238160113136 -13.772154508168223 125 49 22
2.943335394381595 -1.4362449187681297 -13.779107999615439 128 45 18
2.9686354077216146 -1.445647497639213 -13.786079508919206 157 80 36
2.982331044619512 -1.452674832185701 -13.807169867641285 172 103 56
3.01004858073157 -1.4625621229101924 -13.811109573251189 160 93 58
3.060048932627879 -1.4769731256295962 -13.787605210107357 138 65 41
3.051441159096174 -1.4794619087372105 -13.836069739376253 144 64 26
3.06614236885368 -1.486693202270846 -13.85591994844373 170 90 46
3.075923626255298 -1.4929316661844905 -13.881883203778997 174 100 78
3.0992176852282123 -1.501903050274738 -13.891111155569327 168 102 91
3.1223094737818604 -1.510828943944633 -13.900548662804008 143 68 56
3.141844307469839 -1.5190352040555808 -13.91438913593304 157 85 60
3.173209530804847 -1.5296131080439574 -13.913390116707843 214 149 122
3.207319473492321 -1.540729328234441 -13.908841719164098 180 115 86
3.2572704991727113 -1.5549975035525812 -13.88421104729294 176 119 98
3.2767402581594087 -1.563160711199925 -13.897864951491984 151 100 92
3.3078984533813216 -1.573648309050662 -13.896689426462018 133 78 73
3.3282760742074204 -1.5819833772925243 -13.909113931405727 139 83 73
3.3206614142083124 -1.584767363538403 -13.957191785222049 173 126 116
3.427691935232822 -1.6231329542017865 -13.97406802600551 166 113 70
3.540534547538761 -1.6495918266028469 -13.866820130726737 116 75 39
3.5348630471268425 -1.6527717487013693 -13.912517685247991 90 52 35
3.5112084584113967 -1.652457548469656 -13.981764094146353 121 75 44
3.493980915503724 -1.6534299214895836 -14.042932093110311 160 98 50
3.5505785058147445 -1.67313307872025 -14.046631962052391 177 112 87
3.533564104373392 -1.6741946763213464 -14.107948178095054 151 88 67
3.5111345283695785 -1.6786407656439528 -14.216009551485378 133 81 69
3.8244303257862917 -1.773727049103078 -14.111535427887402 69 15 8
3.8422745660452167 -1.7814986004922588 -14.126640310011354 66 24 19
3.877312489642601 -1.7925107920964882 -14.118335386892763 78 50 45
3.862560392012753 -1.794142232192211 -14.177853494815931 73 54 50
3.7891557899981283 -1.7847954951316547 -14.317913337713602 51 43 43
3.7714977932032143 -1.7859645977420422 -14.382150878952844 43 41 43
3.73372855856386 -1.78340841761825 -14.474353804448253 41 39 40
3.6665729098718947 -1.7754257633572579 -14.607570492660608 40 38 39
3.6725345554325166 -1.7811089347815745 -14.640205644988654 38 36 37
3.67512667270503 -1.7861775250566772 -14.677611776778388 38 34 35
3.677163786517835 -1.7911567473332606 -14.71590976159779 35 31 32
3.677941154223972 -1.7959173747777712 -14.756091325555387 34 30 31
3.6740534566292213 -1.7998343486843826 -14.802942825168081 30 27 29
3.6722064205968916 -1.80414541369925 -14.847100535022669 26 24 28
3.6739766390103474 -1.8091366654783818 -14.886319031941756 23 23 26
3.6752051902546112 -1.8140433598608088 -14.9264317541554 21 22 25
3.67778977961654 -1.8192121783384543 -14.964756636091481 17 18 20
3.6842583876253343 -1.825100899279771 -14.997684680704719 14 14 16
3.6931594458662325 -1.831441004025986 -15.027237571516796 11 11 13
3.695938861908405 -1.8366819935362668 -15.065614038389143 9 9 11
3.6906066732068874 -1.8404734387092658 -15.11574367801175 8 8 10
3.7205986038085763 -1.8506425421109414 -15.115274094076822 6 6 8
3.707374141092923 -1.8530440689261476 -15.177021724034548 4 4 6
3.696365617661553 -1.8558712915532654 -15.235824124023761 3 4 6
3.662657973075075 -1.8546731089887638 -15.327792472645221 5 4 7
3.696222432660883 -1.86550202316975 -15.322337798405023 23 23 25
3.7302115311262023 -1.8763915004065517 -15.316130924312661 46 48 49
3.746107396000661 -1.8840611759836976 -15.336260242364697 18 19 21
3.7628681888604314 -1.8918854953309074 -15.355137062276262 15 15 17
3.797601051463367 -1.9028766857185637 -15.347573686326148 16 16 18
3.849381943149055 -1.9168464977061508 -15.314702316201586 18 18 20
3.8810161427137126 -1.9272540677115697 -15.31136155324636 23 23 25
3.887726098834599 -1.9332938329978893 -15.344904426616548 24 24 26
3.905350899770643 -1.9412458923399083 -15.362291090080092 33 32 37
3.9348838500589576 -1.9512668997747369 -15.361895962738918 31 30 37
3.971087875697587 -1.9624320928891263 -15.351406451607506 58 57 64
4.0033936591282195 -1.972905729489991 -15.346610454767507 53 51 57
4.034785933371821 -1.9832076189222676 -15.34306207344747 65 63 66
4.057441385382592 -1.991995289291744 -15.352593301560894 44 41 44
4.067044457728087 -1.9985425736336528 -15.381859503623751 15 12 15
4.07382742101836 -2.004616296360098 -15.415483493224848 11 8 11
4.086680296367823 -2.0117344130486323 -15.439952395279779 22 23 25
4.101784204036569 -2.0192395290685567 -15.461023308588775 36 40 41
4.104879082023521 -2.024714583606449 -15.500530866681965 33 35 37
4.1083081323040265 -2.0302607973094644 -15.539656502676436 21 21 25
4.099069476000696 -2.0336901873982414 -15.598449728716922 13 14 17
4.092039369444135 -2.0375175250640716 -15.654072226124772 12 12 14
4.1234149314688375 -2.0477927785436565 -15.650336685478683 10 10 11
3.985932462677466 -2.050494196002499 -16.09326921559407 7 7 9
4.049294353610954 -2.066088487046658 -16.03964001881789 10 10 12
4.114464431284778 -2.0819312806513146 -15.982723937242604 52 51 55
4.161967228459119 -2.0948435404183323 -15.953431961294577 41 40 45
4.207504722738218 -2.1074052582394973 -15.926993457254486 14 13 18
4.247397977317627 -2.1190233452917377 -15.909313993439394 12 11 16
4.18535595737177 -2.1141573243699834 -16.054809798971526 23 22 27
4.270847891709999 -2.1331220843669616 -15.96389444489991 27 28 32
4.301032695766067 -2.143142608681967 -15.961509376090618 28 29 33
4.323603777753285 -2.151932721868456 -15.971319438644997 28 29 33
4.31663329427043 -2.1560108240821427 -16.029001599550675 32 32 34
4.349521533123896 -2.16644516496436 -16.02208015768803 37 37 39
4.41086785332492 -2.181366704223551 -15.96857770871918 51 51 53
4.442730989332524 -2.1915912606089227 -15.96290383993403 64 64 66
4.454032461389742 -2.198569105798165 -15.990844781288287 21 22 24
4.47319432140039 -2.206785095071621 -16.005908333489874 32 33 35
4.490729496658049 -2.214745773356518 -16.023645041692713 53 55 54
4.513515791021035 -2.223523315763563 -16.03268718690902 70 71 69
4.483121048786882 -2.224055451537101 -16.130029276899577 70 70 65
4.457748654732611 -2.2254168212810157 -16.21948422630054 62 57 52
4.42051843587283 -2.2303567052395867 -16.377043538884287 71 64 58
4.277445650667982 -2.224858165571634 -16.7637152867355 94 93 90
4.406783230586434 -2.2663637631570577 -16.740706337518226 141 141 141
4.457922329612254 -2.279495875874386 -16.70230275819984 152 152 152
4.488825038695046 -2.2895929629403415 -16.698415168286317 156 156 156
4.534050038602361 -2.301788022770988 -16.66965144457443 161 161 160
4.576025092981575 -2.313473997983781 -16.6462373436284 167 167 167
4.603027639363812 -2.3229410666437555 -16.648599133113922 174 174 174
4.65132286654042 -2.335500940180118 -16.61374376564106 181 181 183
4.636718009985265 -2.338895370160651 -16.688570604097308 186 187 189
4.6324876659121275 -2.343828504070941 -16.745548076258174 192 193 195
4.63345363927123 -2.3495365301106297 -16.793622780675534 196 197 199
4.658076462590887 -2.3586565389399627 -16.800131537202077 200 200 202
4.680877051714847 -2.36750878690182 -16.80979784191121 201 201 203
4.78857767227 -2.3884232187567807 -16.668657980457535 203 203 205
4.824037906663958 -2.3990045551190775 -16.65521575253117 204 204 206
7.7206829811447 -3.3793544433024976 -16.59386074859169 216 216 216
7.750242065298826 -3.387195223398667 -16.57389958689511 212 212 212
7.779110692818349 -3.3949750027742684 -16.555496425518974 214 214 214
7.804422004719274 -3.4025621522982714 -16.54620758064092 218 216 217
-4.104914209177741 1.0696903335330246 -12.556163792554145 205 202 200
-4.038872871373211 1.0483305059431078 -12.546636656851028 195 187 184
-3.951805541048448 1.0214533191009876 -12.522721583485772 158 142 135
-3.852589707730013 0.991408590399177 -12.49031368323934 110 86 79
-3.6562967160994013 0.931984397730949 -12.42604047086483 96 58 51
-3.1013995771334653 0.7441604845876297 -12.419909124118881 101 44 32
-3.070134825081544 0.7321528528021501 -12.432174166196013 100 43 30
-3.040002239074555 0.7204442092552901 -12.44519712407088 101 43 31
-2.9572430839035784 0.6950820856149771 -12.420826882525297 102 42 30
-2.930133222924998 0.6841781166756924 -12.435816575564711 103 43 29
-2.6166368031481504 0.5721848320356677 -12.484384590045664 110 44 28
-2.6313247642729376 0.5720822155344205 -12.52945118907769 109 44 27
-2.4881323136412767 0.5313926430323648 -12.45903094937355 108 44 28
-2.454307076313677 0.5188393272610796 -12.468427033750327 111 46 30
-2.4280525780066933 0.5082343651849806 -12.483342284516805 112 45 29
-1.6405141847738642 0.23843862983151354 -12.503192465124913 119 42 24
-1.625244323987955 0.23073586578654748 -12.525449590622106 119 42 23
-1.5522077047855474 0.2084940319605173 -12.502696800784092 117 40 20
-1.520613624079595 0.19669746400193922 -12.512103940753548 122 45 25
-1.4736512792923353 0.18104718384228113 -12.509410445959126 121 44 24
-1.4268573974241328 0.1654529164423677 -12.506727744119685 120 42 22
-1.3560905928709754 0.1438635613932635 -12.485024954564523 123 45 25
-1.3523856713132263 0.1390921918699266 -12.516110225836009 121 43 23
-1.3063270548979817 0.12371832578786823 -12.513687630719925 120 42 20
-1.288092518772082 0.11531099772844278 -12.53326662233889 121 40 20
-1.2326575636366384 0.09761639816192091 -12.523191779314132 122 41 20
-1.213353374697193 0.08895063993449881 -12.54184188170828 121 40 19
-1.1869982048935581 0.07852826587827844 -12.554838669493876 122 41 20
-1.1273797900596776 0.05983107087058137 -12.541058896627536 122 41 20
-1.0987137984882542 0.04884991633304958 -12.552053222064309 122 41 20
-1.0733964454011202 0.038705281486108856 -12.565712311682013 122 41 20
-1.061547444581759 0.031905365194461854 -12.590264365473008 122 41 20
-1.0158498438524228 0.016712329068976572 -12.587326900915633 123 42 21
-0.9963258510340562 0.008013301857286326 -12.605610587284401 123 42 21
-0.9484701079080544 -0.007692859897459048 -12.600725662597098 121 39 18
-0.9010607476354391 -0.02327383253668991 -12.59607490964734 121 39 18
-0.8683982476194183 -0.03520040553232162 -12.603420379588119 123 41 20
-0.8282176891717423 -0.04897346909369871 -12.604503633591788 124 42 21
-0.7977620054275878 -0.06034037985403007 -12.61353107638222 121 39 18
-0.762536138766059 -0.07287489245902234 -12.61854985276059 121 39 18
-0.733401006551504 -0.08390402603686953 -12.628558321299511 122 40 19
-0.7126901395526852 -0.09285969593522347 -12.645544881025181 124 42 21
-0.5826791605562232 -0.12861839655007135 -12.571118562001137 124 42 21
-0.5850238213445973 -0.13189542988043357 -12.607167526826391 123 41 20
-0.5541313199015514 -0.14331692037499932 -12.615364702153743 122 40 19
-0.5263664707418352 -0.1539675101585254 -12.626142950086475 121 39 18
-0.49373657055759335 -0.1658012362447927 -12.632764787262698 120 39 18
-0.4566261676736838 -0.17872037572364263 -12.635521543776987 126 45 24
-0.39291438049553573 -0.1981105926696023 -12.615568134289731 127 46 25
-0.3693240230700381 -0.20771265459430954 -12.629617874666927 129 47 26
-0.34168806229785 -0.2182955603698311 -12.640184653126319 129 47 26
-0.34615971547341395 -0.22107732023951465 -12.678245408912172 128 45 25
-0.286856238720949 -0.23934019420702102 -12.661568985258324 134 53 33
-0.23593245789820472 -0.2555508055162763 -12.651924274785515 142 63 46
-0.1812492165714099 -0.27265363137111054 -12.638872555350638 147 74 63
-0.15693947964372335 -0.28239461807989286 -12.65198892827566 153 88 78
-0.11939395780225581 -0.2953283210491122 -12.653566403528234 169 111 99
-0.09306977986719911 -0.30554527025751343 -12.664838473668269 166 108 93
-0.046351159050106006 -0.32453953580309913 -12.692470086820622 143 73 51
0.013200085060301348 -0.34273136588953057 -12.674420067123286 138 61 38
0.07009730839770079 -0.36026325258991143 -12.658509083550431 138 61 36
0.05359436692652597 -0.3601730552180715 -12.70732602255185 138 61 37
0.07203455916524248 -0.3684716969001227 -12.725324908486447 149 78 60
0.09011601182497397 -0.38057714110053875 -12.778090358121286 135 66 48
0.03703164638739853 -0.3718106598711357 -12.860107051837353 112 36 13
0.09461465270908942 -0.38946608921071424 -12.84322758356994 101 23 4
0.11816860975459598 -0.3989970904198721 -12.856757912716152 95 19 4
0.06808824247654854 -0.39101379096699795 -12.936673973197683 86 16 4
-0.0030020548590252716 -0.37807911207700684 -13.035938279473122 72 15 4
0.11640929568437297 -0.4103915116161303 -12.96288132575985 66 17 10
0.04064635362881219 -0.39639785310875264 -13.066822300368166 46 11 6
0.058092765336384744 -0.40451852164148505 -13.086233968708846 19 3 1
0.08510969050272177 -0.41490228605980795 -13.096899554154202 10 3 4
0.08775732856647966 -0.41952783424881823 -13.129873051048339 35 30 31
0.09798808641733991 -0.42595087577322954 -13.155955131240974 15 13 13
0.08706769366606348 -0.4273974915036871 -13.201588382594942 8 6 7
0.06546147627117449 -0.4263478764270068 -13.25725772383206 7 7 7
0.1984638278794515 -0.4616443332065028 -13.169747422254128 8 8 8
0.06586190715634466 -0.43455293075514634 -13.328663909012626 9 9 9
0.1107204736038403 -0.48617446538924547 -13.650620415089705 10 4 6
0.22520222466699558 -0.5168337392331614 -13.577754794887003 12 6 8
0.1126614476910488 -0.49917440209839015 -13.759827024670503 10 4 4
0.18648406697162034 -0.5203937885889851 -13.725663094728173 13 3 3
0.24876630489594298 -0.5389238674415249 -13.702395809777174 91 42 21
0.258571895465459 -0.5453662538926993 -13.729927322273431 144 68 27
0.32536399207832645 -0.5648947115118905 -13.701936492719884 152 80 54
0.38681443330860255 -0.5831693732137531 -13.678909659881956 142 78 60
0.4365741708322375 -0.5987416524830791 -13.667115702960924 136 77 61
0.5138436622516336 -0.6205838411736448 -13.628100397002111 136 75 60
0.5732400143130292 -0.638309426662701 -13.606390052124823 120 52 37
0.6576309172220398 -0.6617081991948726 -13.559739516823313 123 53 38
0.6598141962195694 -0.6663494719065135 -13.594248235330003 127 54 35
0.6581778581855593 -0.6743001937450632 -13.66952715021728 153 73 40
0.6866276905016138 -0.684930037501227 -13.678062445576694 164 92 54
0.712199069948424 -0.6949020600885125 -13.68943029952693 164 109 68
0.7440576136810204 -0.7062913148796595 -13.694437857243559 153 103 71
0.7752381417637499 -0.7175191794112932 -13.700055617732733 139 94 63
0.8085889775458313 -0.7292284598821981 -13.703408731121328 138 91 58
0.8396052527730538 -0.740402796714444 -13.709046618622825 142 83 50
0.9562024936658373 -0.770809931159429 -13.627589611134685 137 63 30
0.9802205943364308 -0.7887259575130994 -13.713927216028948 141 68 41
1.0179086518584128 -0.8013465871007273 -13.712305644935828 155 94 62
1.0489196863600494 -0.8124644485905279 -13.717459513760822 137 96 76
1.045410350684115 -0.8158802047941887 -13.758237624358406 111 70 63
1.0517103746383087 -0.8214935234103178 -13.788971641017882 120 70 50
1.1195543291288308 -0.8450029918583413 -13.793048140218303 135 51 21
1.2001111473097978 -0.8670754794652873 -13.746187691649313 130 50 22
1.321010481723711 -0.8980323432924775 -13.65666148194865 130 52 26
1.350185729647981 -0.9086587029865552 -13.66298502547875 126 49 30
1.3704220516936214 -0.917306143113799 -13.67867061911258 115 39 25
1.39273532048525 -0.9264097333030061 -13.692148661302681 118 41 25
1.4301139710530535 -0.938823638261588 -13.689627909013598 132 55 28
1.4655314808289246 -0.9507941362890993 -13.689079313748277 130 50 21
1.5032271957967032 -0.9632525661274303 -13.685999345593993 131 50 24
1.5313604789478088 -0.9736046768947175 -13.693028548859498 135 54 26
1.5608248240195675 -0.9842409984708049 -13.698571095599949 141 60 31
1.5913397623980492 -0.9950989419002862 -13.702916321796145 142 62 31
1.6196310509683736 -1.0054640086435682 -13.709585143960268 143 61 30
1.643160646300358 -1.0147863170543843 -13.72134190278432 140 58 27
1.666413956506589 -1.0240449411367327 -13.733365726747449 137 57 26
1.7006020482243276 -1.0356712980894582 -13.733467852923305 134 55 25
1.7433674950191307 -1.0491436701718138 -13.724118842026058 122 46 21
1.7797108955199663 -1.0612108078195213 -13.72164181570439 116 43 21
1.8159451948564103 -1.0732417463902248 -13.71917245447922 110 40 22
1.8526602194262658 -1.0853636320961735 -13.716062651125167 107 38 22
1.8874631647172775 -1.09706116564201 -13.71494612807702 106 38 19
1.9245812191087444 -1.109244168774275 -13.711165493400332 114 45 23
1.947500852026259 -1.1183693280471383 -13.723011411193399 123 51 28
1.9804915175906697 -1.129646876220768 -13.723626770483516 131 55 27
2.0147780589876465 -1.1411907550939033 -13.722703029394264 139 55 23
2.0455247366520597 -1.1519677816939784 -13.725635477044625 143 53 19
2.0803533140991917 -1.1636051566293784 -13.723909522971688 146 56 22
2.1137920883525014 -1.1749349197919763 -13.72363974244482 144 56 22
2.1495482140203306 -1.186745509208782 -13.72065801805709 145 60 24
2.1801447007119306 -1.1974497476087917 -13.723397872026164 152 70 28
2.213987815024818 -1.2088317004889488 -13.722374315884913 152 73 28
2.2478635398295026 -1.220208966034031 -13.721211237949834 146 71 35
2.2844837257109507 -1.2321532610647374 -13.716814985276692 135 64 33
2.318105239489814 -1.2434526661257654 -13.715727157079723 121 53 26
2.360423883906857 -1.2565680055289281 -13.704561895710734 112 42 22
2.398411275751954 -1.2687568334542907 -13.698219194607596 109 37 17
2.4328837156490604 -1.2801947524498702 -13.69579887591862 115 42 20
2.462507522300326 -1.2906067837399906 -13.698877169408943 124 49 25
2.483120078777122 -1.2991296431616985 -13.71232916780735 128 52 28
2.518662162882327 -1.3107599711906233 -13.70839573632803 127 51 25
2.537147167264526 -1.3188304252327385 -13.724240566515615 126 48 22
2.5651436520723916 -1.328874292487866 -13.728953266536173 129 52 24
2.6007236689354425 -1.3404815066120317 -13.72470124753319 132 55 27
2.6312051775230643 -1.3510208201610707 -13.726327285496165 134 58 29
2.666753801736614 -1.3625963939174508 -13.721889647436178 141 63 36
2.693077110481333 -1.3722574561859036 -13.72824504795037 135 58 30
2.720868781534742 -1.3822138230986347 -13.732799180428046 133 54 26
2.741194492735909 -1.3906295979433696 -13.746165924963034 132 52 23
2.767674780719907 -1.4003043449354386 -13.752170478527553 132 51 22
2.7988162284102334 -1.4109255623877193 -13.752537250827295 125 44 17
2.82807714605383 -1.4211523541023927 -13.755067284293919 120 39 15
2.8592714711408815 -1.4317640073902351 -13.755190446365969 123 40 15
2.888292737260099 -1.441923044309199 -13.757841386861674 119 36 13
2.91174801201735 -1.4509431558448336 -13.76714731595425 117 35 14
2.9352733109599782 -1.4599727023436309 -13.776326215453365 119 37 15
2.9627437068323825 -1.469795225466721 -13.780661801786447 139 64 30
2.9951571439025892 -1.4806075182533582 -13.77889531982095 150 89 48
3.0235886625160244 -1.490605840996833 -13.781897073002769 140 77 42
3.046626058938216 -1.4995108855132038 -13.791441051441701 130 58 29
3.0599718905348077 -1.5064666326869154 -13.812871985046089 150 76 36
3.086724065906071 -1.5161103084023428 -13.817784161882454 170 99 58
3.0928562513388043 -1.5216250725985012 -13.848150624819732 167 102 79
3.1470464866777075 -1.5367350763105814 -13.818945758343162 150 81 68
3.1669777098751792 -1.5449954352073192 -13.83212316551542 134 55 36
3.152961796279854 -1.546509008813858 -13.887655459438008 166 88 54
3.1941487485089377 -1.5589931073843735 -13.874306443030836 192 119 85
3.2162207980064945 -1.5676755519911494 -13.884782798480568 207 140 112
3.2540311970210967 -1.5794619611354255 -13.87541103903269 166 110 95
3.305940053021641 -1.5940100483283497 -13.848092365803385 140 91 85
3.457320036150727 -1.6538818361696979 -13.922808465445442 154 108 65
3.533553615631229 -1.673002122871141 -13.862820286261893 101 61 30
3.524068893656696 -1.6754977820553618 -13.913420713918942 99 59 40
3.5032571867508446 -1.6758299525579532 -13.97892942088658 138 87 51
3.511418887939749 -1.6817721360185443 -14.006976679700642 162 98 53
3.49103852310554 -1.6822385032355027 -14.072376146286162 177 116 87
3.5232306377377336 -1.6972196474085 -14.108167017639094 148 85 66
3.8142107064786615 -1.7832503662962562 -13.994675213708122 96 19 4
3.8179931622601764 -1.7883580868771216 -14.02850389812226 92 17 5
3.856563117212321 -1.8044043441142472 -14.054545807188674 73 15 5
3.842747191493231 -1.8062503699563948 -14.1124188621116 72 31 25
3.8151470464633084 -1.8055584801177311 -14.189274263014124 77 53 49
3.7622497970166044 -1.809244141122589 -14.380922769652281 41 39 41
3.6848697130983465 -1.7995229670836335 -14.527534641301921 42 40 41
3.650979930366651 -1.7978822897553521 -14.614903243523441 41 39 40
3.6460363855762914 -1.8015964705885361 -14.662634108460411 41 39 40
3.654652111866775 -1.8078115014393867 -14.691730911190108 41 39 40
3.655108488824715 -1.8125454364652585 -14.732251469012027 41 38 39
3.660241169009506 -1.818146105209673 -14.76638309270761 41 38 39
3.6582953719681726 -1.822472644469494 -14.81052042655708 39 36 38
3.6563404639514987 -1.8268153144258683 -14.854827899501137 35 33 36
3.6543801569568073 -1.8311748896329367 -14.899301205998547 30 31 32
3.6763777101484525 -1.839869978685916 -14.910113426409072 27 29 30
3.6712343215171916 -1.8436823710908883 -14.959314226709527 22 22 24
3.671567284198395 -1.8484976858948667 -15.000925987065397 16 16 18
3.6760069952157846 -1.8540634743221283 -15.036832311347148 12 12 14
3.6885496538830695 -1.8610868185814893 -15.061276133388365 10 10 12
3.689692643228846 -1.8660871113170316 -15.102089544991152 9 9 11
3.7209151548158337 -1.8764396194516093 -15.099834678987062 7 7 9
3.6829510510908836 -1.8745370442121043 -15.197134843129318 5 5 7
3.6898338064349874 -1.8806014359992125 -15.23010865237449 4 5 7
3.6669058268580397 -1.881429539358479 -15.30636853343593 5 3 6
3.6931753012956987 -1.8909317192125363 -15.311479764794354 9 9 11
3.7194024827772685 -1.900418478114467 -15.316581680824317 48 51 52
3.736944685320763 -1.9083811309787924 -15.33430701092152 19 20 22
3.7565908078266625 -1.9167103425435803 -15.348950863647774 16 16 18
3.783179158915968 -1.9262429922200945 -15.353373051460148 17 17 19
3.843612002076455 -1.941626144517583 -15.307817356794583 18 18 20
3.878650734267416 -1.9525841085213402 -15.299447184933019 28 28 30
3.9009121914960527 -1.961325725189873 -15.309877736091089 28 28 30
3.9371628142678956 -1.9724641359168054 -15.299460936355386 29 28 33
3.9494960110885167 -1.9794906738788687 -15.324562755714346 33 32 38
3.964865407452388 -1.9870406721382894 -15.345168743091854 48 49 55
4.006345999658873 -1.9990362900295577 -15.32661413937707 58 58 62
4.041807806923921 -2.009987054213777 -15.31690830259273 64 63 65
4.033208599779924 -2.0134661367322453 -15.373549217747811 27 27 29
4.052316211857071 -2.0216448523382953 -15.388480267264168 10 10 12
4.065585113986409 -2.0288402381705435 -15.412263150475141 10 9 12
4.072355381122542 -2.03495047250617 -15.445980829423005 26 27 29
4.0971410096820575 -2.044083188852828 -15.452283615570447 34 38 39
4.113645964807501 -2.0518287252657887 -15.471206012815042 29 31 33
4.1254809845569715 -2.058799599640738 -15.497312981542866 18 18 22
4.119815851968371 -2.062877914953295 -15.550435640994404 13 14 17
4.124470695477768 -2.0686842269874166 -15.587823678865721 11 11 13
3.979686208824825 -2.075828993913381 -16.086336940758684 6 6 8
4.0400225830224405 -2.0908131712260323 -16.037540573055782 10 10 12
4.103586391363993 -2.106272259249386 -15.983243801470199 42 42 46
4.1505701937495525 -2.1190235480356097 -15.954831373208268 30 29 34
4.1982456381759246 -2.131854619651136 -15.925045595946056 11 10 15
4.236194941320538 -2.1431041856597943 -15.910505473329795 14 13 18
4.201455012234931 -2.142788727346176 -16.012157424613687 22 22 27
4.2520550222600955 -2.156036634571983 -15.977267868586512 27 28 32
4.273394872800213 -2.1646341708786023 -15.989194147551473 29 30 34
4.298684280694347 -2.173848856225046 -15.994707729369614 29 30 34
4.3310779051646024 -2.1894156074461226 -16.035075061931373 38 38 40
4.383924391891851 -2.202902571504854 -15.995547121075818 55 55 57
4.415464999350284 -2.2130487856935623 -15.990510334402341 53 53 55
4.430186345376759 -2.22058228785069 -16.01291866634454 21 22 24
4.450970572429789 -2.229052274104042 -16.025386649708732 39 40 42
4.468528324592811 -2.2370242877173903 -16.04314806807573 60 62 62
4.463235901115596 -2.241505767129799 -16.098717971895272 70 71 70
4.461893655170926 -2.246614487419053 -16.147962621046815 67 67 62
4.439421546349112 -2.2485405906233664 -16.232568626407698 58 53 48
4.455552166322032 -2.305497780371927 -16.688111542543698 151 151 151
4.487002839033829 -2.31563513579803 -16.683266744455626 157 157 156
4.548703099054179 -2.330134678414143 -16.62608119227112 162 162 160
4.576969447299788 -2.3397641412726906 -16.62631532067782 168 168 168
4.5874145467252765 -2.3468237522836617 -16.657386272762412 174 174 174
4.611488599396588 -2.355840674409611 -16.664803657561194 183 183 185
4.600939353359291 -2.359922444930821 -16.732640696855817 187 188 190
4.604716042001923 -2.3660692810313613 -16.775682300326785 192 193 195
4.75797889571621 -2.404473825986522 -16.654764786773036 201 201 203
4.791426360305375 -2.414737832880263 -16.645037543311318 202 202 204
4.778605460854797 -2.4185659711492153 -16.717459675594004 203 203 205
7.720879713916462 -3.4014764188048305 -16.56988075627842 216 216 216
7.749842337506589 -3.409232800970212 -16.55144587606606 215 215 215
-4.086861611908798 1.0290296167433641 -12.569652108239467 207 206 206
-4.025157924930335 1.0088953824073665 -12.562975535996081 201 197 194
-3.9278586242101525 0.9794763991923632 -12.532027445430929 183 173 168
-3.838664096089959 0.9522076174765604 -12.506288919977191 141 118 112
-3.741099508578307 0.9227854787601595 -12.474581224228475 103 74 68
-3.6459578951204743 0.8940291764192567 -12.444229242835673 99 60 54
-3.529516985777485 0.8597587408079708 -12.398989689814243 96 53 46
-3.380181544753534 0.7973658615200379 -12.502566142301458 98 46 33
-3.0722033995784575 0.7019985638707291 -12.424309578044241 99 43 30
-3.080633596886053 0.700256486866522 -12.464592312945758 99 42 30
-3.1170414529628347 0.7057113248889295 -12.524835146762719 100 42 30
-3.00686572756017 0.6733968785254427 -12.481047908681443 100 41 28
-2.812956671544132 0.6195834304627079 -12.377168902434743 102 42 28
-2.6861972109163164 0.5557902275255162 -12.56001191782488 109 46 31
-2.6003781946002267 0.5299535302967748 -12.531741309701573 108 45 29
-1.6252223103100922 0.20542101560496673 -12.481730276778295 116 39 21
-1.5796943326325685 0.1901514803116202 -12.480427583235802 117 40 22
-1.531283842073087 0.1741750013823118 -12.476765679738488 121 44 24
-1.4981217411785623 0.16201780109782327 -12.484886633099839 121 44 24
-1.4776869899965952 0.15304000690568165 -12.502916194755585 118 41 21
-1.413526592868939 0.13317438051316932 -12.486595399243077 119 41 21
-1.3787314751304933 0.12063633826286368 -12.493207526237077 125 47 27
