ply
format ascii 1.0
element vertex 846
property float x
property float y
property float z
property float nx
property float ny
property float nz
property uchar diffuse_red
property uchar diffuse_green
property uchar diffuse_blue
property uchar class
property uchar detection
end_header
5.0812 -1.2080 -16.6319 -0.520 0.019 0.854 180 179 179 0 0
-0.7085 -1.0240 -12.8877 0.401 -0.358 0.843 116 70 55 0 0
-0.0342 -1.1036 -13.6907 0.447 -0.362 0.818 111 52 37 0 0
1.0941 -1.0377 -13.7063 0.073 0.058 0.996 122 45 29 0 0
1.4151 -1.0168 -13.6962 0.309 0.236 0.921 139 72 47 0 0
1.8871 -0.9796 -13.6384 0.162 -0.180 0.970 125 42 17 0 0
2.4247 -0.9600 -13.7249 0.326 0.184 0.927 146 70 28 0 0
2.7047 -0.9552 -13.8061 0.443 -0.151 0.884 160 96 82 0 0
2.8220 -0.9578 -13.8704 0.678 -0.108 0.727 164 90 68 0 0
3.4963 -0.9354 -13.9930 0.567 0.373 0.734 138 71 31 0 0
3.6583 -1.0447 -14.7880 0.899 0.210 0.385 55 10 4 0 0
3.6683 -1.0486 -14.8181 0.871 0.437 0.223 55 10 4 0 0
3.7001 -1.1332 -15.3953 0.808 0.314 0.499 109 61 52 0 0
3.7122 -1.1368 -15.4241 0.539 0.539 0.648 156 99 75 0 0
3.7487 -1.1339 -15.4193 0.072 0.360 0.930 146 73 35 0 0
3.7747 -1.1337 -15.4288 -0.017 0.392 0.920 139 56 18 0 0
4.0813 -1.1261 -15.5016 0.418 -0.427 0.802 76 30 15 0 0
4.0881 -1.1311 -15.5379 0.931 0.192 0.311 56 18 11 0 0
4.8903 -1.2556 -16.6917 0.149 -0.102 0.984 171 169 170 0 0
4.9599 -1.2494 -16.6786 0.343 -0.133 0.930 175 173 174 0 0
5.0918 -1.2469 -16.7153 -0.383 -0.341 0.858 183 183 183 0 0
5.1448 -1.2379 -16.6767 -0.442 -0.327 0.835 185 185 185 0 0
-0.6723 -1.0567 -12.9286 0.818 -0.104 0.566 116 83 76 0 0
0.1034 -1.1339 -13.7559 -0.151 -0.358 0.922 108 40 24 0 0
0.2144 -1.1291 -13.7697 -0.152 -0.373 0.915 113 45 26 0 0
0.3008 -1.1234 -13.7668 0.029 -0.538 0.843 114 44 25 0 0
1.0965 -1.0646 -13.7016 0.019 0.203 0.979 117 43 29 0 0
1.3885 -1.0437 -13.6821 0.345 0.051 0.937 128 67 41 0 0
1.4727 -1.0433 -13.7132 0.492 0.104 0.864 167 107 81 0 0
1.8782 -1.0081 -13.6456 0.068 -0.267 0.961 120 48 23 0 0
2.4267 -0.9857 -13.7205 0.326 0.184 0.927 132 56 23 0 0
2.9097 -0.9514 -13.6901 0.742 0.398 0.539 152 79 65 0 0
3.7499 -1.1602 -15.4152 0.213 0.413 0.885 149 80 42 0 0
3.8108 -1.1575 -15.4220 0.159 0.218 0.963 140 55 21 0 0
3.8415 -1.1561 -15.4250 -0.082 0.391 0.917 132 50 21 0 0
4.0087 -1.1380 -15.3730 0.428 -0.125 0.895 136 71 44 0 0
4.0159 -1.1429 -15.4085 0.646 -0.259 0.718 129 58 31 0 0
4.7790 -1.3095 -16.8230 0.501 -0.004 0.865 171 169 170 0 0
4.8832 -1.3004 -16.8052 0.468 -0.575 0.670 179 177 178 0 0
-0.6001 -1.0826 -12.9399 0.750 -0.303 0.588 116 93 84 0 0
-0.5713 -1.0827 -12.9526 0.524 -0.554 0.646 109 81 72 0 0
-0.1179 -1.1774 -13.7619 0.681 0.091 0.726 98 44 32 0 0
-0.0968 -1.1791 -13.7815 0.681 0.091 0.726 98 41 28 0 0
-0.0832 -1.1823 -13.8080 0.839 -0.295 0.457 99 38 25 0 0
0.2440 -1.1574 -13.7787 -0.092 -0.314 0.945 114 44 26 0 0
0.2845 -1.1550 -13.7798 -0.091 -0.184 0.979 114 44 26 0 0
0.3738 -1.1427 -13.7351 0.222 -0.520 0.825 112 43 26 0 0
0.4584 -1.1430 -13.7718 0.588 0.509 0.629 112 39 23 0 0
1.0999 -1.0914 -13.6962 0.019 0.203 0.979 114 44 29 0 0
1.4811 -1.0685 -13.7026 0.367 0.167 0.915 170 118 90 0 0
2.4018 -1.0117 -13.7066 0.326 0.184 0.927 120 51 29 0 0
2.4287 -1.0114 -13.7162 0.326 0.184 0.927 120 45 23 0 0
2.4543 -1.0115 -13.7272 0.419 0.299 0.857 126 48 21 0 0
3.7027 -1.0919 -14.7683 0.588 0.447 0.674 53 8 2 0 0
4.2149 -1.1765 -15.5353 0.783 0.429 0.451 8 2 2 0 0
4.2243 -1.1809 -15.5680 0.556 0.337 0.760 8 2 2 0 0
4.2510 -1.1804 -15.5756 0.296 0.365 0.883 7 3 2 0 0
4.5681 -1.1961 -15.8091 -0.528 -0.453 0.718 33 31 32 0 0
5.2401 -1.3162 -16.8749 -0.343 0.357 0.869 200 200 200 0 0
-0.3794 -1.2231 -13.7621 0.205 -0.861 0.465 117 108 105 0 0
-0.2160 -1.2081 -13.7321 0.267 -0.565 0.780 121 97 92 0 0
-0.1481 -1.2004 -13.7097 0.949 0.186 0.253 116 77 72 0 0
0.1377 -1.1957 -13.7973 0.107 -0.568 0.816 116 48 30 0 0
0.6645 -1.1518 -13.7290 0.106 -0.204 0.973 116 41 21 0 0
0.7523 -1.1452 -13.7223 0.113 -0.300 0.947 140 64 26 0 0
1.1032 -1.1181 -13.6907 0.019 0.203 0.979 112 42 26 0 0
1.2389 -1.1067 -13.6726 0.077 0.148 0.986 119 65 44 0 0
2.4578 -1.0368 -13.7211 0.377 0.300 0.876 139 67 31 0 0
2.4679 -1.0405 -13.7491 0.378 0.203 0.903 173 98 41 0 0
3.6000 -1.0477 -14.2656 0.681 0.071 0.729 82 21 11 0 0
3.7641 -1.2097 -15.3909 0.782 0.358 0.510 148 95 71 0 0
3.7811 -1.2120 -15.4129 0.599 0.502 0.623 145 80 47 0 0
3.8128 -1.2102 -15.4144 0.072 0.175 0.982 159 82 41 0 0
4.4348 -1.1965 -15.5822 0.716 0.327 0.617 27 24 26 0 0
4.4246 -1.2283 -15.7861 0.951 -0.306 0.041 21 21 21 0 0
4.4210 -1.2367 -15.8391 0.867 -0.417 0.272 22 24 23 0 0
4.8274 -1.3724 -16.8938 0.233 -0.313 0.921 179 177 179 0 0
-0.3850 -1.2652 -13.8424 -0.043 -0.586 0.809 171 164 163 0 0
-0.1439 -1.2282 -13.7036 0.951 0.252 0.179 100 60 53 0 0
-0.0513 -1.2452 -13.8521 0.845 -0.158 0.511 102 41 27 0 0
0.6442 -1.1780 -13.7075 0.500 -0.105 0.860 111 38 22 0 0
1.4255 -1.1230 -13.6770 0.343 0.186 0.921 172 93 40 0 0
1.4590 -1.1216 -13.6819 0.196 0.179 0.964 155 78 40 0 0
2.2521 -1.0746 -13.7086 0.888 0.150 0.435 127 60 42 0 0
2.4742 -1.0652 -13.7400 0.470 0.324 0.821 160 90 42 0 0
2.4959 -1.0661 -13.7552 0.378 0.203 0.903 143 69 26 0 0
2.5227 -1.0658 -13.7648 0.635 -0.085 0.768 121 41 18 0 0
2.5454 -1.0666 -13.7788 0.603 0.394 0.694 128 47 20 0 0
2.5587 -1.0695 -13.8033 0.807 0.387 0.445 154 72 32 0 0
2.5777 -1.0710 -13.8214 0.631 0.406 0.661 179 105 63 0 0
2.6866 -1.0574 -13.7784 0.729 -0.189 0.657 169 102 85 0 0
2.7073 -1.0585 -13.7944 0.594 -0.250 0.765 162 97 87 0 0
3.7714 -1.1656 -14.9331 0.846 0.434 0.309 54 10 4 0 0
3.8075 -1.1966 -15.1492 0.990 -0.031 0.135 86 31 9 0 0
3.8062 -1.2108 -15.2404 0.922 0.193 0.337 88 45 24 0 0
3.8177 -1.2145 -15.2696 0.922 0.193 0.337 56 9 2 0 0
3.9520 -1.2260 -15.4002 0.878 -0.022 0.478 130 64 34 0 0
3.9969 -1.2345 -15.4740 0.455 -0.326 0.829 67 12 4 0 0
4.4073 -1.2672 -15.8574 0.938 -0.047 0.343 18 18 20 0 0
4.4169 -1.2718 -15.8908 0.730 -0.197 0.654 31 31 31 0 0
4.6204 -1.3856 -16.7137 0.871 0.359 0.336 137 134 133 0 0
4.7931 -1.4026 -16.8961 0.024 -0.538 0.842 179 179 181 0 0
4.8272 -1.3997 -16.8915 0.463 -0.688 0.559 180 180 182 0 0
5.1016 -1.3587 -16.7404 0.103 -0.237 0.966 191 191 191 0 0
0.4818 -1.2284 -13.7817 0.492 -0.282 0.824 109 40 24 0 0
0.7336 -1.2048 -13.7358 0.116 -0.404 0.907 148 81 40 0 0
1.0308 -1.1827 -13.7185 0.297 -0.113 0.948 114 41 26 0 0
1.1667 -1.1651 -13.6624 -0.045 -0.034 0.998 114 42 22 0 0
1.2764 -1.1531 -13.6310 0.426 0.572 0.701 111 43 27 0 0
1.5810 -1.1455 -13.7107 0.483 0.341 0.807 179 130 102 0 0
2.3153 -1.0983 -13.7161 0.712 -0.217 0.668 126 51 29 0 0
2.5884 -1.0946 -13.8073 0.314 0.327 0.892 173 99 60 0 0
2.8386 -1.0834 -13.8406 -0.028 0.029 0.999 159 100 88 0 0
3.8136 -1.2282 -15.1831 0.927 0.209 0.312 89 45 19 0 0
3.9662 -1.2627 -15.4692 0.707 -0.203 0.678 85 20 4 0 0
4.0218 -1.2682 -15.5284 0.569 -0.011 0.822 44 18 14 0 0
4.3966 -1.2969 -15.8711 0.843 -0.098 0.528 17 16 18 0 0
4.4125 -1.3071 -15.9431 0.041 -0.444 0.895 27 27 27 0 0
4.4170 -1.3207 -16.0328 0.542 -0.583 0.606 23 21 20 0 0
4.6278 -1.4104 -16.6990 0.842 0.077 0.533 137 136 134 0 0
4.6483 -1.4119 -16.7171 0.495 0.271 0.825 144 142 143 0 0
4.6746 -1.4276 -16.8293 0.772 0.129 0.622 162 161 164 0 0
-0.4493 -1.3365 -13.8952 -0.063 -0.442 0.895 202 203 206 0 0
0.5168 -1.2491 -13.7465 0.700 -0.081 0.709 109 41 24 0 0
0.5353 -1.2512 -13.7677 0.478 -0.100 0.873 111 41 26 0 0
1.0265 -1.2112 -13.7206 0.297 -0.113 0.948 113 40 25 0 0
1.6795 -1.1683 -13.7238 0.211 -0.042 0.977 145 71 52 0 0
2.5310 -1.1161 -13.7513 0.668 0.348 0.658 126 52 28 0 0
2.6089 -1.1219 -13.8216 0.707 0.059 0.705 154 81 59 0 0
2.8049 -1.1176 -13.8769 0.471 0.275 0.838 166 114 103 0 0
3.5624 -1.0770 -13.9394 0.882 -0.143 0.448 137 82 40 0 0
3.5775 -1.0794 -13.9612 0.822 -0.097 0.561 119 60 21 0 0
3.7765 -1.2029 -14.8346 0.986 -0.085 0.145 62 12 1 0 0
3.7848 -1.2142 -14.9107 0.913 0.322 0.251 76 19 4 0 0
3.9459 -1.2878 -15.4496 0.766 -0.193 0.613 95 21 1 0 0
3.9552 -1.2923 -15.4823 0.676 0.002 0.737 78 16 1 0 0
4.0199 -1.2953 -15.5287 0.716 0.016 0.698 38 11 7 0 0
4.4038 -1.2696 -15.5277 -0.070 0.273 0.959 29 26 29 0 0
4.3845 -1.3271 -15.8870 0.286 -0.671 0.684 17 15 17 0 0
4.4443 -1.3315 -15.9403 0.473 -0.693 0.544 18 16 16 0 0
4.6510 -1.4382 -16.7100 0.495 0.271 0.825 148 146 148 0 0
4.6721 -1.4395 -16.7272 0.347 0.444 0.826 152 150 153 0 0
4.6716 -1.4559 -16.8317 0.651 0.636 0.414 164 163 166 0 0
5.2875 -1.3988 -16.7286 -0.573 0.046 0.818 202 202 202 0 0
-0.3586 -1.3652 -13.9290 -0.141 -0.670 0.729 200 198 201 0 0
0.1000 -1.3361 -13.9402 0.474 0.140 0.869 109 43 29 0 0
0.6009 -1.2650 -13.7034 0.254 0.327 0.910 111 41 26 0 0
1.4287 -1.2036 -13.6672 0.397 0.098 0.913 122 62 38 0 0
1.4636 -1.2018 -13.6707 0.355 0.185 0.916 105 41 25 0 0
1.4912 -1.2016 -13.6814 0.355 0.185 0.916 135 64 26 0 0
1.5207 -1.2010 -13.6902 0.266 0.129 0.955 171 92 39 0 0
1.8478 -1.1870 -13.7414 0.166 -0.387 0.907 134 49 19 0 0
2.6152 -1.1403 -13.7732 0.481 0.348 0.805 132 50 26 0 0
3.5731 -1.1059 -13.9644 0.709 0.435 0.555 117 64 25 0 0
3.6658 -1.1070 -14.0113 0.309 -0.111 0.944 112 36 5 0 0
3.6661 -1.1456 -14.2561 0.956 0.020 0.292 68 11 4 0 0
3.8052 -1.2415 -14.9246 0.986 0.126 0.107 93 55 31 0 0
3.8129 -1.2463 -14.9582 0.996 0.073 0.052 93 54 36 0 0
3.8290 -1.2696 -15.1129 0.891 0.449 0.075 41 10 5 0 0
3.9457 -1.3216 -15.4934 0.632 -0.137 0.763 84 23 6 0 0
3.9661 -1.3230 -15.5106 0.632 -0.137 0.763 93 45 29 0 0
4.3557 -1.3625 -15.9279 0.172 -0.616 0.768 15 13 15 0 0
4.4096 -1.3611 -15.9424 0.303 -0.565 0.767 28 26 27 0 0
4.4260 -1.3637 -15.9658 0.628 -0.569 0.530 17 15 16 0 0
4.6558 -1.4638 -16.6996 0.556 0.494 0.669 149 147 150 0 0
4.6513 -1.4816 -16.8105 0.822 0.336 0.459 160 158 161 0 0
4.6650 -1.4853 -16.8398 0.811 0.245 0.532 165 164 167 0 0
5.2412 -1.4330 -16.7542 0.827 0.087 0.555 201 201 203 0 0
0.0749 -1.3764 -14.0006 0.561 0.639 0.527 110 44 30 0 0
0.0971 -1.3779 -14.0193 0.408 0.733 0.544 110 44 30 0 0
1.3479 -1.2307 -13.6303 0.448 0.292 0.845 120 46 29 0 0
1.5916 -1.2240 -13.6933 0.396 0.163 0.904 119 44 24 0 0
1.8340 -1.2170 -13.7536 0.255 -0.357 0.899 136 52 23 0 0
2.6227 -1.1645 -13.7627 0.534 0.311 0.786 121 44 22 0 0
2.8045 -1.1696 -13.8730 0.646 0.327 0.690 173 111 96 0 0
3.6917 -1.1773 -14.3041 0.522 -0.134 0.842 71 14 6 0 0
3.7034 -1.1807 -14.3308 0.532 -0.124 0.838 70 14 5 0 0
3.7637 -1.2042 -14.5046 0.969 0.240 0.057 39 6 2 0 0
3.7604 -1.2185 -14.5936 0.938 0.341 0.065 63 12 5 0 0
3.8394 -1.2929 -15.0964 0.891 0.449 0.075 48 13 4 0 0
3.8936 -1.3271 -15.3358 0.749 0.141 0.648 84 25 4 0 0
3.9104 -1.3295 -15.3577 0.733 0.039 0.679 95 38 10 0 0
3.9086 -1.3445 -15.4515 0.643 -0.070 0.763 95 30 4 0 0
3.9269 -1.3464 -15.4715 0.728 0.007 0.685 89 25 5 0 0
4.3548 -1.3894 -15.9269 0.624 -0.310 0.718 11 9 12 0 0
4.3733 -1.3913 -15.9470 0.692 -0.264 0.672 27 25 26 0 0
4.3927 -1.3930 -15.9658 0.745 -0.248 0.620 31 29 30 0 0
4.4016 -1.3978 -16.0005 0.954 -0.272 0.129 20 18 19 0 0
4.5396 -1.5044 -16.7314 -0.048 -0.202 0.978 122 120 121 0 0
4.5993 -1.4931 -16.6862 0.901 -0.128 0.413 131 129 130 0 0
4.6313 -1.4908 -16.6855 0.789 -0.003 0.614 138 136 137 0 0
4.6392 -1.4964 -16.7242 0.563 -0.378 0.735 147 145 148 0 0
4.6560 -1.5073 -16.8001 0.822 0.336 0.459 160 158 161 0 0
4.6680 -1.5116 -16.8323 0.811 0.245 0.532 165 163 166 0 0
4.6807 -1.5157 -16.8635 0.913 0.177 0.367 170 170 172 0 0
-0.3183 -1.4337 -14.0058 -0.105 -0.779 0.618 201 199 202 0 0
0.0318 -1.4020 -13.9598 0.419 0.778 0.468 107 49 38 0 0
0.5825 -1.3373 -13.7937 0.064 -0.414 0.908 137 58 28 0 0
0.6626 -1.3320 -13.7949 0.000 -0.361 0.933 135 97 69 0 0
1.4022 -1.2700 -13.7281 0.290 -0.193 0.937 105 49 32 0 0
2.7627 -1.1871 -13.7999 0.704 0.183 0.686 148 74 50 0 0
2.7288 -1.2019 -13.8775 0.412 -0.006 0.911 162 80 46 0 0
3.6033 -1.2070 -14.2894 0.676 0.323 0.662 64 7 1 0 0
3.6479 -1.2015 -14.2746 0.787 -0.149 0.599 56 7 2 0 0
3.6664 -1.2031 -14.2925 0.522 -0.134 0.842 61 9 4 0 0
3.7001 -1.2072 -14.3327 0.532 -0.124 0.838 69 12 6 0 0
3.8878 -1.3698 -15.4325 0.468 0.158 0.869 69 12 2 0 0
3.9058 -1.3718 -15.4530 0.724 0.024 0.689 70 14 1 0 0
3.9286 -1.3725 -15.4668 0.865 0.062 0.497 78 25 9 0 0
3.9441 -1.3752 -15.4909 0.835 -0.106 0.540 99 52 36 0 0
4.0160 -1.3983 -15.6663 0.748 -0.414 0.518 15 3 3 0 0
4.3569 -1.3550 -15.5432 0.844 -0.030 0.535 18 16 19 0 0
4.3334 -1.4073 -15.8608 0.606 -0.622 0.496 8 6 9 0 0
4.3490 -1.4178 -15.9333 0.698 -0.236 0.677 30 28 30 0 0
4.9943 -1.4874 -16.6495 0.608 0.779 0.153 189 189 191 0 0
5.0044 -1.4923 -16.6843 0.284 0.725 0.627 190 190 192 0 0
0.0977 -1.4289 -13.9748 0.433 0.706 0.561 107 47 35 0 0
0.2874 -1.4186 -13.9933 0.071 -0.759 0.647 110 43 29 0 0
0.5708 -1.3680 -13.8026 0.053 -0.459 0.887 136 59 29 0 0
0.6105 -1.3654 -13.8036 0.053 -0.459 0.887 152 95 60 0 0
0.6501 -1.3627 -13.8046 0.053 -0.459 0.887 115 74 55 0 0
0.7319 -1.3568 -13.8038 0.020 -0.395 0.918 140 90 68 0 0
0.7842 -1.3513 -13.7922 -0.061 -0.225 0.972 126 56 35 0 0
1.3960 -1.2986 -13.7321 0.290 -0.193 0.937 100 40 28 0 0
1.5688 -1.2770 -13.6734 0.393 0.209 0.896 109 42 21 0 0
2.2079 -1.2246 -13.6267 0.452 -0.195 0.871 128 51 29 0 0
2.5456 -1.2044 -13.6489 0.377 -0.059 0.925 127 52 30 0 0
2.7523 -1.2093 -13.7701 0.389 -0.070 0.919 141 63 41 0 0
2.7626 -1.2130 -13.7978 0.665 -0.019 0.746 134 54 24 0 0
3.5625 -1.1782 -13.9307 0.676 0.138 0.724 119 38 13 0 0
3.6116 -1.2303 -14.2768 0.619 0.618 0.484 75 12 2 0 0
3.6430 -1.2284 -14.2785 0.776 0.464 0.426 61 6 1 0 0
3.6927 -1.2215 -14.2570 0.810 0.150 0.567 59 9 1 0 0
3.7151 -1.2220 -14.2699 0.715 0.277 0.642 65 11 2 0 0
3.7279 -1.2251 -14.2952 0.759 -0.001 0.651 68 12 2 0 0
3.7560 -1.2307 -14.3424 0.934 -0.231 0.274 69 13 1 0 0
3.7641 -1.2352 -14.3737 0.934 -0.231 0.274 66 13 2 0 0
3.8611 -1.3391 -15.0623 0.888 0.455 0.070 96 43 9 0 0
3.8887 -1.3961 -15.4289 0.578 0.025 0.816 62 14 9 0 0
4.0786 -1.4210 -15.6670 0.056 -0.501 0.864 15 4 4 0 0
4.2624 -1.4330 -15.8216 0.914 -0.325 0.243 10 8 11 0 0
4.3173 -1.4389 -15.8825 0.637 -0.475 0.607 7 5 8 0 0
4.3207 -1.4456 -15.9253 0.505 0.335 0.795 17 15 18 0 0
4.3473 -1.4450 -15.9333 0.708 0.252 0.660 44 42 45 0 0
4.3867 -1.4793 -16.1643 0.739 0.663 0.117 27 26 24 0 0
4.6092 -1.5442 -16.6650 0.846 0.380 0.374 131 129 130 0 0
4.6233 -1.5478 -16.6934 0.846 0.380 0.374 139 137 138 0 0
4.6381 -1.5511 -16.7208 0.861 0.267 0.432 147 145 148 0 0
4.6755 -1.5720 -16.8669 0.883 0.084 0.462 173 173 175 0 0
0.1147 -1.4539 -13.9566 0.329 0.482 0.812 110 62 54 0 0
0.1388 -1.4549 -13.9734 0.403 0.608 0.684 109 52 44 0 0
0.7264 -1.3860 -13.8068 -0.029 -0.233 0.972 142 87 63 0 0
0.7680 -1.3828 -13.8056 -0.033 -0.126 0.991 122 52 33 0 0
1.5408 -1.3043 -13.6611 0.306 0.156 0.939 102 41 26 0 0
1.8210 -1.3067 -13.7995 0.287 -0.113 0.951 134 60 31 0 0
2.2088 -1.2506 -13.6235 0.458 -0.282 0.843 110 45 29 0 0
2.2474 -1.2474 -13.6210 0.610 -0.038 0.792 130 55 30 0 0
2.2610 -1.2504 -13.6451 0.425 -0.167 0.890 140 52 24 0 0
2.2877 -1.2501 -13.6552 0.415 -0.003 0.910 147 63 34 0 0
2.5411 -1.2440 -13.7293 0.282 0.267 0.921 125 45 23 0 0
2.7696 -1.2372 -13.7877 0.650 0.162 0.743 140 57 21 0 0
2.7750 -1.2486 -13.8603 0.786 0.299 0.542 175 103 73 0 0
3.7218 -1.2456 -14.2592 0.764 0.421 0.488 64 10 1 0 0
3.7251 -1.2581 -14.3380 0.803 0.463 0.374 79 16 1 0 0
4.0588 -1.4537 -15.6932 0.402 -0.260 0.878 15 4 5 0 0
4.3261 -1.4705 -15.9148 0.543 0.484 0.687 30 28 31 0 0
4.3787 -1.4851 -16.0279 0.834 0.548 -0.063 13 11 12 0 0
4.4172 -1.5044 -16.1639 0.817 0.566 0.113 33 29 28 0 0
4.6274 -1.5736 -16.6841 0.461 0.854 0.240 139 137 138 0 0
4.6774 -1.5987 -16.8611 0.811 -0.534 0.239 173 174 176 0 0
4.9164 -1.5593 -16.7234 -0.381 0.348 0.856 187 187 189 0 0
5.0075 -1.5448 -16.6740 0.587 0.492 0.643 192 192 194 0 0
5.0157 -1.5504 -16.7121 0.683 0.175 0.709 194 194 196 0 0
0.1523 -1.4805 -13.9585 0.403 0.608 0.684 120 80 75 0 0
0.1735 -1.4822 -13.9780 0.566 0.662 0.491 110 60 53 0 0
0.1935 -1.4841 -13.9985 0.566 0.662 0.491 103 50 41 0 0
1.5157 -1.3435 -13.7229 0.424 0.232 0.876 106 47 30 0 0
1.6628 -1.3400 -13.7667 0.377 -0.040 0.925 143 72 31 0 0
1.7211 -1.3387 -13.7843 0.198 -0.016 0.980 177 128 92 0 0
1.7504 -1.3380 -13.7928 0.477 -0.253 0.842 164 103 84 0 0
2.4996 -1.2742 -13.7338 0.548 0.360 0.755 124 54 33 0 0
2.5291 -1.2731 -13.7403 0.569 0.331 0.753 124 49 26 0 0
2.7437 -1.2633 -13.7754 0.540 0.409 0.736 132 54 23 0 0
3.6244 -1.2249 -13.9308 0.759 0.259 0.598 121 38 9 0 0
3.6399 -1.2273 -13.9519 0.808 0.164 0.566 133 51 10 0 0
3.7794 -1.4301 -15.2583 0.991 0.058 0.118 46 9 5 0 0
4.3343 -1.4945 -15.9000 0.581 0.386 0.716 25 23 26 0 0
4.3508 -1.4971 -15.9231 0.680 0.302 0.668 19 17 21 0 0
4.5154 -1.6301 -16.8118 -0.133 -0.404 0.905 128 126 127 0 0
4.6400 -1.5965 -16.6611 0.729 0.685 0.014 139 137 138 0 0
4.6599 -1.5982 -16.6801 0.557 0.814 0.166 147 147 148 0 0
4.6614 -1.6060 -16.7292 0.952 -0.009 0.307 155 155 157 0 0
4.6755 -1.6097 -16.7576 0.987 -0.110 0.117 161 161 163 0 0
5.0129 -1.5697 -16.6622 0.585 0.251 0.771 192 192 194 0 0
5.0677 -1.5761 -16.7255 0.639 0.411 0.650 196 196 198 0 0
-0.2764 -1.5734 -14.1563 -0.177 -0.704 0.688 202 202 205 0 0
-0.2293 -1.5694 -14.1527 -0.160 -0.731 0.663 198 202 205 0 0
0.2069 -1.5097 -13.9837 0.628 0.645 0.435 114 77 73 0 0
1.1939 -1.3836 -13.6565 0.803 0.040 0.595 115 42 27 0 0
1.2809 -1.3884 -13.7246 0.526 0.216 0.823 119 44 25 0 0
2.5029 -1.2994 -13.7280 0.680 0.353 0.643 140 80 63 0 0
2.5214 -1.3011 -13.7466 0.680 0.353 0.643 120 51 32 0 0
3.6209 -1.2511 -13.9329 0.557 -0.219 0.801 121 42 16 0 0
3.6423 -1.2518 -13.9467 0.837 -0.176 0.518 136 57 23 0 0
3.6575 -1.2542 -13.9683 0.843 -0.105 0.528 126 44 8 0 0
4.2146 -1.5358 -15.9331 0.287 -0.462 0.839 6 4 7 0 0
4.2462 -1.5336 -15.9338 -0.087 -0.285 0.955 13 12 14 0 0
4.3544 -1.5226 -15.9152 0.680 0.302 0.668 22 20 25 0 0
4.4740 -1.5636 -16.2184 0.639 0.769 0.027 37 34 33 0 0
4.6607 -1.6335 -16.7277 0.952 -0.009 0.307 155 155 157 0 0
4.6748 -1.6371 -16.7564 0.935 0.263 0.240 162 162 164 0 0
4.6922 -1.6396 -16.7794 0.926 0.183 0.329 167 167 169 0 0
4.9048 -1.6172 -16.7378 -0.167 0.439 0.883 188 188 190 0 0
4.9943 -1.6030 -16.6911 0.776 0.406 0.482 193 193 195 0 0
5.0167 -1.6037 -16.7053 0.632 0.323 0.704 194 194 196 0 0
5.0726 -1.6011 -16.7145 0.639 0.411 0.650 198 198 200 0 0
5.0974 -1.6009 -16.7244 0.383 0.349 0.855 199 199 201 0 0
5.1815 -1.5882 -16.6846 0.736 -0.583 0.344 201 201 203 0 0
5.3232 -1.5719 -16.6483 -0.050 -0.169 0.984 204 204 204 0 0
-0.2338 -1.6062 -14.1944 -0.160 -0.731 0.663 201 202 204 0 0
-0.1587 -1.5957 -14.1647 -0.160 -0.731 0.663 202 201 203 0 0
-0.0129 -1.5756 -14.1084 -0.161 -0.730 0.664 194 192 193 0 0
0.7238 -1.4768 -13.8415 0.369 -0.565 0.738 103 40 32 0 0
0.9563 -1.4415 -13.7327 -0.169 -0.252 0.953 110 39 25 0 0
1.2639 -1.4198 -13.7393 0.374 0.019 0.927 118 43 24 0 0
1.2955 -1.4186 -13.7465 0.518 0.073 0.853 118 44 26 0 0
1.6253 -1.3775 -13.6458 0.360 0.304 0.882 99 41 29 0 0
1.6522 -1.3773 -13.6569 0.360 0.304 0.882 102 46 31 0 0
1.7380 -1.3756 -13.6849 0.255 0.204 0.945 166 91 32 0 0
1.7899 -1.3757 -13.7086 0.322 0.146 0.935 126 59 27 0 0
2.8326 -1.3114 -13.7886 0.606 0.335 0.722 131 47 26 0 0
3.6377 -1.2783 -13.9502 0.698 -0.236 0.676 140 73 43 0 0
3.6629 -1.2779 -13.9594 0.798 -0.070 0.598 135 64 29 0 0
3.8736 -1.3968 -14.7736 0.849 0.333 0.409 73 19 5 0 0
3.8875 -1.3998 -14.7984 0.893 0.273 0.357 72 24 12 0 0
3.8469 -1.4481 -15.0722 0.992 0.111 -0.056 44 10 5 0 0
3.8510 -1.4542 -15.1111 0.813 0.581 -0.034 44 9 5 0 0
4.3580 -1.5480 -15.9074 0.680 0.302 0.668 22 21 25 0 0
4.6759 -1.6639 -16.7519 0.904 -0.017 0.427 162 162 164 0 0
4.9233 -1.6377 -16.7042 -0.151 0.314 0.937 188 188 190 0 0
4.9567 -1.6345 -16.6999 -0.151 0.314 0.937 190 190 192 0 0
4.9993 -1.6280 -16.6800 0.798 0.232 0.556 193 193 195 0 0
5.0176 -1.6301 -16.7011 0.676 -0.083 0.732 194 194 196 0 0
5.1221 -1.6275 -16.7318 0.380 -0.304 0.873 201 201 203 0 0
-0.0909 -1.6226 -14.1790 -0.161 -0.730 0.664 201 201 203 0 0
-0.0159 -1.6119 -14.1487 -0.169 -0.722 0.671 201 199 202 0 0
0.0586 -1.6012 -14.1185 -0.169 -0.722 0.671 188 183 185 0 0
0.7298 -1.5033 -13.8335 0.072 -0.643 0.763 100 37 27 0 0
1.7429 -1.4012 -13.6776 0.187 0.126 0.974 166 97 37 0 0
2.6514 -1.3391 -13.7157 0.348 0.051 0.936 128 53 31 0 0
2.8681 -1.3214 -13.7070 0.626 -0.069 0.777 126 49 24 0 0
2.8345 -1.3367 -13.7842 0.492 0.356 0.794 124 43 19 0 0
3.6638 -1.3029 -13.9561 0.640 -0.257 0.725 144 85 56 0 0
3.7575 -1.3373 -14.2052 0.804 0.495 0.328 109 72 47 0 0
3.8542 -1.4212 -14.7540 0.965 0.081 0.250 55 11 4 0 0
3.8464 -1.5041 -15.2492 0.021 0.491 0.871 45 10 6 0 0
4.3051 -1.5839 -15.9366 0.350 -0.207 0.913 18 18 21 0 0
4.5000 -1.6834 -16.6235 -0.508 -0.433 0.745 89 85 82 0 0
4.7602 -1.6961 -16.8178 0.550 0.684 0.480 181 181 183 0 0
4.9688 -1.6744 -16.7812 0.356 -0.710 0.608 195 195 197 0 0
5.0126 -1.6674 -16.7592 -0.098 -0.561 0.822 198 198 200 0 0
5.0555 -1.6607 -16.7385 0.147 -0.571 0.808 198 198 200 0 0
-0.0123 -1.6467 -14.1829 -0.161 -0.717 0.678 199 200 202 0 0
2.8658 -1.3477 -13.7074 0.626 -0.069 0.777 111 40 25 0 0
3.6521 -1.3247 -13.9281 0.838 -0.129 0.530 99 24 7 0 0
3.6650 -1.3277 -13.9524 0.603 0.105 0.791 124 66 47 0 0
3.6775 -1.3310 -13.9773 0.811 0.343 0.473 143 92 63 0 0
3.6883 -1.3347 -14.0043 0.810 0.331 0.483 128 58 22 0 0
3.6890 -1.3412 -14.0439 0.608 0.006 0.794 111 43 17 0 0
3.7008 -1.3447 -14.0698 0.688 0.407 0.601 100 44 15 0 0
3.7560 -1.3562 -14.1638 0.783 0.525 0.333 94 58 39 0 0
3.8660 -1.4149 -14.5648 0.923 0.379 0.071 68 13 4 0 0
3.8525 -1.4260 -14.6251 0.997 0.037 0.072 61 9 6 0 0
3.8556 -1.4323 -14.6639 0.997 0.037 0.072 56 11 8 0 0
3.8599 -1.4454 -14.7441 0.989 -0.028 0.146 46 10 5 0 0
3.8572 -1.5272 -15.2319 0.251 0.546 0.799 46 11 5 0 0
3.8924 -1.5240 -15.2285 0.451 0.381 0.807 47 11 6 0 0
4.4206 -1.5967 -15.9037 0.432 0.703 0.565 31 30 35 0 0
4.4911 -1.7137 -16.6352 -0.513 -0.353 0.783 86 83 78 0 0
4.6764 -1.7181 -16.7460 0.631 -0.337 0.699 160 160 162 0 0
4.9088 -1.7053 -16.7754 0.449 -0.647 0.616 191 191 193 0 0
5.0306 -1.6878 -16.7260 -0.146 -0.004 0.989 198 198 200 0 0
5.0518 -1.6889 -16.7422 -0.225 -0.019 0.974 199 199 201 0 0
1.4237 -1.4885 -13.7275 0.438 -0.006 0.899 119 44 24 0 0
1.6776 -1.4581 -13.6630 0.250 -0.180 0.951 110 42 28 0 0
1.8087 -1.4512 -13.6826 0.269 0.167 0.949 124 55 29 0 0
2.8575 -1.3756 -13.7146 0.395 0.160 0.905 111 38 22 0 0
3.6464 -1.3515 -13.9331 0.617 0.254 0.744 117 36 3 0 0
3.6661 -1.3527 -13.9490 0.617 0.254 0.744 97 33 13 0 0
3.8431 -1.4402 -14.5501 0.994 -0.090 0.066 59 12 5 0 0
3.8451 -1.4468 -14.5900 0.994 -0.090 0.066 56 12 4 0 0
3.8538 -1.4514 -14.6211 0.932 -0.363 -0.015 53 11 3 0 0
3.8514 -1.4665 -14.7100 0.967 0.171 0.191 48 10 3 0 0
3.9055 -1.6390 -15.7585 0.978 -0.205 0.030 5 3 4 0 0
3.9155 -1.6676 -15.9330 0.924 -0.310 0.223 3 3 5 0 0
3.9165 -1.6753 -15.9793 0.741 -0.537 0.403 3 2 5 0 0
3.9446 -1.6743 -15.9861 0.817 0.287 0.500 9 7 10 0 0
3.9530 -1.6796 -16.0218 0.610 -0.190 0.769 19 19 21 0 0
4.3531 -1.6457 -16.0037 0.273 0.524 0.807 37 36 41 0 0
4.3765 -1.6460 -16.0166 0.375 0.486 0.790 38 38 41 0 0
4.4038 -1.6451 -16.0233 0.436 0.369 0.821 36 36 38 0 0
1.8098 -1.4777 -13.6793 0.158 0.064 0.985 152 92 61 0 0
1.8748 -1.4743 -13.6892 0.289 0.123 0.949 133 55 16 0 0
3.0221 -1.4032 -13.7993 0.409 0.318 0.856 175 92 55 0 0
3.0533 -1.4215 -13.9216 0.597 0.302 0.744 163 104 90 0 0
3.6316 -1.3809 -13.9490 0.574 -0.304 0.760 134 52 7 0 0
3.6681 -1.3841 -13.9846 0.478 -0.193 0.857 116 57 35 0 0
3.6910 -1.3843 -13.9966 0.659 0.136 0.740 153 92 60 0 0
3.8058 -1.4843 -14.6393 0.942 -0.334 -0.018 51 11 4 0 0
3.8826 -1.4902 -14.7093 0.692 0.662 0.289 47 10 5 0 0
3.8737 -1.5002 -14.7644 0.820 0.556 0.136 45 10 5 0 0
3.9671 -1.6860 -15.9033 0.843 -0.136 0.520 4 3 6 0 0
4.3828 -1.6706 -16.0044 0.375 0.486 0.790 35 35 37 0 0
4.5864 -1.6841 -16.1782 0.914 0.351 -0.202 51 49 48 0 0
4.4186 -1.7849 -16.6949 0.659 0.727 -0.192 77 71 63 0 0
4.7248 -1.7816 -16.8167 0.320 0.183 0.930 174 174 175 0 0
1.0440 -1.5911 -13.8297 0.732 -0.619 0.285 113 42 25 0 0
1.7785 -1.4992 -13.6322 0.426 0.653 0.626 109 41 27 0 0
1.8403 -1.5032 -13.6842 0.203 0.101 0.974 155 95 50 0 0
2.9665 -1.4308 -13.7824 0.668 0.326 0.669 139 62 28 0 0
3.0668 -1.4435 -13.9037 0.835 0.273 0.477 173 110 90 0 0
3.8769 -1.5031 -14.6289 0.203 0.898 0.390 50 11 4 0 0
3.9172 -1.5799 -15.0978 0.951 0.287 0.118 89 50 38 0 0
3.8971 -1.7196 -15.9072 0.798 -0.563 0.215 3 3 5 0 0
3.9799 -1.7088 -15.8822 0.926 0.237 0.295 5 3 6 0 0
3.9624 -1.7390 -16.0510 0.493 -0.276 0.825 14 14 16 0 0
4.4196 -1.6931 -15.9944 0.507 0.237 0.829 32 32 34 0 0
4.4380 -1.8141 -16.7124 0.633 0.513 0.580 82 76 73 0 0
5.0572 -1.7407 -16.5695 -0.537 -0.441 0.720 196 196 198 0 0
0.0909 -1.7723 -14.2764 -0.157 -0.722 0.673 199 202 205 0 0
1.7955 -1.5216 -13.6126 0.510 0.598 0.618 118 43 25 0 0
1.8176 -1.5225 -13.6283 0.593 0.448 0.669 109 40 28 0 0
1.8468 -1.5282 -13.6752 0.459 -0.002 0.888 118 62 37 0 0
1.8765 -1.5272 -13.6831 0.467 0.312 0.827 112 46 27 0 0
3.0746 -1.4467 -13.7737 0.251 0.141 0.958 147 74 49 0 0
3.8956 -1.5901 -14.9922 0.972 0.145 0.188 86 49 38 0 0
3.8999 -1.5963 -15.0305 0.957 0.130 0.258 92 55 41 0 0
3.9565 -1.7681 -16.0572 0.493 -0.276 0.825 6 6 8 0 0
4.2555 -1.7340 -15.9987 0.778 0.139 0.612 12 10 14 0 0
4.4729 -1.7097 -15.9587 0.326 0.509 0.797 34 34 36 0 0
4.5654 -1.8225 -16.6589 -0.173 -0.284 0.943 107 103 102 0 0
0.6177 -1.7055 -13.9674 -0.303 0.398 0.866 163 154 154 0 0
0.6487 -1.7046 -13.9767 0.273 0.838 0.473 132 112 110 0 0
1.9101 -1.5518 -13.6846 0.226 0.224 0.948 140 70 37 0 0
2.1518 -1.5552 -13.8182 0.494 -0.365 0.789 144 64 34 0 0
3.8411 -1.4785 -14.1679 0.750 0.480 0.454 104 36 13 0 0
3.9097 -1.6270 -15.0591 0.885 0.395 0.248 89 53 44 0 0
3.9612 -1.6491 -15.2113 0.818 -0.336 0.466 18 6 6 0 0
3.9127 -1.6803 -15.3692 0.566 0.008 0.824 6 3 4 0 0
4.2656 -1.7657 -16.0294 0.477 0.045 0.878 12 12 16 0 0
4.4528 -1.7432 -15.9871 0.566 0.477 0.673 34 34 36 0 0
7.5565 -1.6117 -16.6838 0.448 -0.021 0.894 213 213 213 0 0
7.6222 -1.6003 -16.6487 0.155 0.330 0.931 216 216 216 0 0
0.6692 -1.7277 -13.9547 0.226 0.831 0.508 176 169 169 0 0
1.7116 -1.5901 -13.6558 -0.195 0.165 0.967 119 46 27 0 0
1.9131 -1.5776 -13.6792 0.226 0.224 0.948 130 64 32 0 0
3.6652 -1.4788 -13.9392 0.691 0.314 0.652 113 69 31 0 0
3.9175 -1.6352 -14.9578 0.975 0.047 0.215 87 51 41 0 0
3.9245 -1.6407 -14.9923 0.955 -0.088 0.283 73 39 33 0 0
3.9864 -1.8206 -16.0565 0.633 -0.047 0.772 8 8 10 0 0
4.5628 -1.8251 -16.3544 0.935 -0.202 -0.291 69 66 65 0 0
4.6952 -1.8832 -16.7513 0.032 -0.487 0.873 162 162 164 0 0
4.9888 -1.8372 -16.6253 -0.237 0.167 0.957 195 195 197 0 0
7.4532 -1.6350 -16.6269 0.293 0.394 0.871 216 216 216 0 0
7.5003 -1.6326 -16.6355 0.369 0.278 0.887 216 216 216 0 0
7.5917 -1.6290 -16.6582 -0.013 0.469 0.883 216 216 216 0 0
7.6277 -1.6217 -16.6333 -0.161 0.290 0.944 216 216 216 0 0
0.7443 -1.7506 -13.9580 0.314 0.853 0.417 154 141 138 0 0
1.9137 -1.5973 -13.6378 0.580 0.526 0.622 112 42 26 0 0
1.9126 -1.6044 -13.6777 0.167 0.000 0.986 107 42 23 0 0
1.9399 -1.6039 -13.6878 0.120 -0.071 0.990 133 77 45 0 0
1.9731 -1.6018 -13.6918 0.120 -0.082 0.989 124 62 36 0 0
2.0693 -1.6100 -13.7846 0.605 0.282 0.745 156 85 54 0 0
3.0858 -1.5202 -13.7544 0.388 0.214 0.897 132 62 40 0 0
3.4184 -1.5141 -13.8771 0.086 -0.424 0.902 156 70 42 0 0
3.6710 -1.5023 -13.9298 0.673 0.204 0.711 75 34 13 0 0
3.8984 -1.6597 -14.9374 0.959 -0.053 0.277 81 51 41 0 0
3.9059 -1.6650 -14.9712 0.941 -0.161 0.298 64 37 30 0 0
3.9474 -1.7061 -15.2257 0.516 -0.562 0.646 28 22 24 0 0
4.0444 -1.8448 -16.0649 0.582 -0.380 0.719 8 8 10 0 0
4.5495 -1.8567 -16.3728 0.891 -0.401 -0.214 71 67 66 0 0
4.9459 -1.8892 -16.7469 -0.523 0.117 0.844 197 197 197 0 0
0.7938 -1.7729 -13.9468 0.373 0.857 0.355 163 153 153 0 0
0.8170 -1.7739 -13.9634 0.351 0.788 0.506 126 104 101 0 0
1.9215 -1.6218 -13.6276 0.578 0.468 0.668 117 44 27 0 0
1.9460 -1.6288 -13.6792 0.235 -0.157 0.959 101 39 23 0 0
2.1745 -1.6355 -13.8264 0.437 0.244 0.866 169 108 85 0 0
4.5297 -1.9354 -16.6549 -0.217 -0.080 0.973 99 97 92 0 0
7.5745 -1.6962 -16.7512 0.661 0.619 0.425 216 216 216 0 0
0.8355 -1.7971 -13.9430 0.431 0.868 0.247 176 168 168 0 0
0.8638 -1.7967 -13.9546 0.274 0.483 0.832 140 120 116 0 0
0.8946 -1.7957 -13.9636 0.292 0.491 0.821 111 75 70 0 0
1.4484 -1.7267 -13.8404 0.373 -0.490 0.787 115 43 24 0 0
1.9337 -1.6519 -13.6512 0.749 -0.253 0.612 120 48 28 0 0
1.9696 -1.6491 -13.6524 0.580 0.440 0.685 109 40 27 0 0
1.9803 -1.6530 -13.6799 0.316 0.324 0.892 96 36 24 0 0
2.1706 -1.6631 -13.8283 0.562 0.194 0.804 172 103 79 0 0
2.1971 -1.6628 -13.8391 0.451 0.200 0.870 164 85 60 0 0
2.2195 -1.6635 -13.8541 0.437 0.268 0.858 149 66 40 0 0
3.6587 -1.5563 -13.9407 0.680 0.076 0.729 136 84 50 0 0
3.6746 -1.5586 -13.9613 0.642 -0.012 0.767 165 107 57 0 0
3.6940 -1.5599 -13.9776 0.642 -0.012 0.767 173 106 63 0 0
3.7148 -1.5607 -13.9922 0.549 0.071 0.833 167 93 57 0 0
3.8240 -1.5487 -13.9769 0.704 0.152 0.693 110 27 2 0 0
3.8890 -1.5646 -14.0981 0.878 0.138 0.458 83 13 5 0 0
3.9118 -1.6765 -14.7407 0.994 -0.111 0.012 69 38 34 0 0
3.9348 -1.6845 -14.7965 0.935 0.291 0.205 42 23 21 0 0
4.0175 -1.8913 -16.0035 0.786 0.169 0.595 7 7 9 0 0
4.5518 -1.9635 -16.6681 -0.091 -0.035 0.995 110 108 106 0 0
5.0433 -1.9148 -16.6294 0.154 0.310 0.938 201 201 200 0 0
5.1162 -1.8959 -16.5575 0.741 0.260 0.619 201 201 201 0 0
5.1728 -1.9015 -16.6165 0.079 -0.250 0.965 204 204 206 0 0
7.5408 -1.7061 -16.6509 0.864 0.175 0.473 216 216 216 0 0
7.5519 -1.7109 -16.6836 0.911 0.091 0.402 212 212 212 0 0
7.5685 -1.7130 -16.7037 0.738 0.126 0.663 211 211 211 0 0
7.5968 -1.7198 -16.7555 0.643 0.371 0.670 216 216 216 0 0
0.8697 -1.8231 -13.9465 0.293 0.340 0.894 185 180 177 0 0
0.8994 -1.8224 -13.9566 0.293 0.340 0.894 149 133 131 0 0
0.9358 -1.8198 -13.9600 0.362 0.474 0.803 117 84 80 0 0
1.9276 -1.6801 -13.6554 0.749 -0.253 0.612 119 46 26 0 0
1.9768 -1.6736 -13.6427 0.580 0.440 0.685 115 44 29 0 0
2.1848 -1.6857 -13.8109 0.575 0.380 0.725 154 80 59 0 0
2.2330 -1.6862 -13.8372 0.339 0.342 0.877 155 84 62 0 0
2.8853 -1.6271 -13.8206 0.286 0.112 0.952 134 70 54 0 0
3.6276 -1.5767 -13.8965 0.556 -0.045 0.830 94 51 34 0 0
3.6548 -1.5827 -13.9433 0.777 -0.117 0.619 158 100 53 0 0
3.8891 -1.5897 -14.0958 0.480 0.286 0.829 84 14 5 0 0
3.9384 -1.7014 -14.7460 0.910 0.358 0.209 29 19 20 0 0
3.8102 -1.8225 -15.3633 0.599 -0.172 0.782 13 13 15 0 0
4.0997 -1.8064 -15.4132 0.976 0.146 0.163 6 6 8 0 0
4.5103 -2.0062 -16.7324 -0.074 -0.100 0.992 115 112 110 0 0
4.5439 -2.0028 -16.7295 -0.074 -0.100 0.992 124 123 121 0 0
5.0427 -1.9417 -16.6277 0.344 0.155 0.926 200 200 200 0 0
5.0629 -1.9432 -16.6455 0.551 -0.035 0.834 202 202 202 0 0
5.1772 -1.9264 -16.6065 0.390 -0.774 0.499 204 204 206 0 0
7.5702 -1.7365 -16.6972 0.259 0.178 0.949 212 212 212 0 0
7.5887 -1.7377 -16.7129 0.419 0.691 0.589 213 213 213 0 0
7.6084 -1.7383 -16.7260 0.419 0.691 0.589 216 216 216 0 0
0.9061 -1.8485 -13.9478 0.279 0.161 0.947 192 188 191 0 0
0.9351 -1.8479 -13.9585 0.293 0.340 0.894 160 146 147 0 0
0.9720 -1.8452 -13.9614 0.250 0.367 0.896 134 107 106 0 0
1.0247 -1.8383 -13.9484 0.255 0.826 0.502 108 68 62 0 0
2.0429 -1.7027 -13.6871 0.045 0.128 0.991 105 44 27 0 0
2.1874 -1.7115 -13.8059 0.529 0.267 0.805 126 58 31 0 0
2.3769 -1.6932 -13.7964 0.267 -0.054 0.962 149 70 47 0 0
3.1777 -1.6165 -13.7571 0.355 0.005 0.935 112 44 28 0 0
3.2031 -1.6160 -13.7668 0.355 0.005 0.935 152 81 45 0 0
3.2424 -1.6114 -13.7602 0.602 0.299 0.740 169 89 38 0 0
3.2645 -1.6119 -13.7737 0.624 0.273 0.733 168 92 44 0 0
3.6258 -1.6024 -13.8965 0.516 0.164 0.840 108 61 39 0 0
3.8499 -1.5980 -13.9805 0.740 -0.058 0.671 94 18 3 0 0
3.7506 -1.8527 -15.3525 0.778 -0.525 0.345 31 29 32 0 0
3.7878 -1.8565 -15.3920 0.900 -0.066 0.431 15 15 17 0 0
4.5338 -1.8907 -15.9447 0.610 0.127 0.782 38 38 40 0 0
4.5426 -1.8962 -15.9796 0.422 -0.304 0.854 40 40 42 0 0
4.6507 -1.9268 -16.2027 0.912 -0.299 0.281 78 77 74 0 0
4.9130 -1.9817 -16.6362 0.278 -0.324 0.904 191 192 195 0 0
5.0382 -1.9889 -16.7369 0.069 -0.590 0.805 203 203 205 0 0
7.5692 -1.7612 -16.6969 0.397 0.087 0.914 215 215 215 0 0
7.5902 -1.7612 -16.7068 0.112 0.182 0.977 213 213 213 0 0
0.9696 -1.8737 -13.9615 0.206 0.449 0.869 170 160 161 0 0
1.0747 -1.8598 -13.9357 0.255 0.796 0.549 117 81 76 0 0
1.1048 -1.8588 -13.9450 0.212 0.657 0.724 105 58 48 0 0
1.6596 -1.7720 -13.7346 0.059 -0.569 0.820 114 42 27 0 0
2.1910 -1.7369 -13.7998 0.529 0.267 0.805 134 60 25 0 0
2.4124 -1.7165 -13.7945 0.711 -0.156 0.685 139 61 38 0 0
3.1954 -1.6437 -13.7737 0.376 -0.078 0.923 125 61 30 0 0
3.5381 -1.6186 -13.8017 0.726 -0.223 0.651 176 100 60 0 0
3.6865 -1.6378 -13.9803 0.723 -0.006 0.691 181 128 114 0 0
3.7062 -1.6389 -13.9963 0.715 -0.203 0.669 125 62 47 0 0
3.8197 -1.6252 -13.9758 0.639 -0.116 0.761 93 19 5 0 0
3.8479 -1.6237 -13.9809 0.759 -0.077 0.647 90 15 2 0 0
3.8653 -1.6255 -13.9995 0.891 0.170 0.421 90 17 4 0 0
3.7312 -1.8533 -15.1967 0.771 -0.611 0.178 8 4 5 0 0
4.4802 -1.9280 -15.9762 0.623 0.658 0.423 36 36 38 0 0
4.5305 -1.9184 -15.9473 0.731 -0.100 0.675 38 38 40 0 0
4.5403 -1.9235 -15.9807 0.372 -0.054 0.927 41 41 43 0 0
4.9254 -2.0130 -16.6645 0.509 0.091 0.856 194 195 197 0 0
1.0099 -1.8978 -13.9586 0.206 0.449 0.869 178 170 171 0 0
1.1004 -1.8806 -13.9079 0.296 0.881 0.370 149 133 132 0 0
1.1236 -1.8814 -13.9240 0.274 0.794 0.542 126 99 95 0 0
1.7738 -1.7956 -13.7701 0.259 -0.346 0.902 117 44 27 0 0
2.1719 -1.7617 -13.7790 0.529 0.267 0.805 115 41 23 0 0
2.1946 -1.7624 -13.7937 0.529 0.267 0.805 155 77 29 0 0
2.3323 -1.7444 -13.7623 0.670 0.264 0.694 165 94 64 0 0
3.5332 -1.6453 -13.8055 0.726 -0.223 0.651 166 103 58 0 0
3.6218 -1.6540 -13.8971 0.703 0.191 0.685 165 104 62 0 0
3.7083 -1.6635 -13.9916 0.747 0.179 0.640 119 57 43 0 0
3.8530 -1.6471 -13.9723 0.733 0.050 0.678 88 13 2 0 0
3.9413 -1.6632 -14.1044 0.769 0.221 0.599 91 47 29 0 0
3.9538 -1.6666 -14.1293 0.842 0.341 0.418 91 53 37 0 0
3.6963 -1.8996 -15.2865 0.597 -0.649 0.471 9 5 6 0 0
3.7301 -1.9046 -15.3306 0.683 -0.240 0.690 35 32 35 0 0
3.7490 -1.9064 -15.3499 0.683 -0.240 0.690 17 15 18 0 0
3.8104 -1.9103 -15.4014 0.610 0.254 0.750 22 22 24 0 0
4.1074 -1.9078 -15.5333 0.824 0.519 0.226 17 17 19 0 0
4.4625 -1.9699 -16.0495 0.714 0.169 0.680 40 40 42 0 0
4.5464 -1.9478 -15.9688 0.731 -0.100 0.675 44 44 46 0 0
1.2128 -1.9063 -13.9503 0.390 0.886 0.253 104 56 42 0 0
1.7392 -1.8250 -13.7649 0.075 -0.351 0.933 115 42 25 0 0
2.0982 -1.7737 -13.6609 0.449 0.253 0.857 114 43 29 0 0
2.1156 -1.7758 -13.6812 0.514 -0.172 0.840 105 40 25 0 0
2.1440 -1.7748 -13.6899 0.304 0.077 0.950 112 53 31 0 0
2.1676 -1.7752 -13.7036 0.421 -0.013 0.907 114 54 31 0 0
3.6239 -1.6785 -13.8924 0.703 0.191 0.685 170 100 60 0 0
3.7114 -1.6877 -13.9855 0.796 0.107 0.595 113 51 38 0 0
3.6782 -1.9323 -15.3087 0.597 -0.649 0.471 32 29 30 0 0
3.8932 -1.9251 -15.3750 0.118 -0.393 0.912 38 38 40 0 0
4.1227 -1.8953 -15.3253 0.533 -0.404 0.743 29 27 30 0 0
4.1291 -1.9350 -15.5459 0.908 -0.063 0.413 16 17 19 0 0
4.4449 -1.9942 -16.0254 0.902 0.282 0.327 36 36 38 0 0
4.4657 -1.9954 -16.0421 0.650 0.324 0.688 41 41 43 0 0
4.4749 -2.0008 -16.0766 0.756 0.226 0.614 45 45 47 0 0
4.5564 -1.9794 -15.9994 0.536 -0.370 0.759 50 50 52 0 0
4.8902 -2.0806 -16.7183 0.264 0.335 0.904 195 196 198 0 0
1.2451 -1.9249 -13.9154 0.272 0.908 0.319 123 94 89 0 0
1.7571 -1.8540 -13.7830 -0.142 -0.133 0.981 115 42 26 0 0
1.7737 -1.8565 -13.8048 0.186 -0.049 0.981 116 43 28 0 0
1.8557 -1.8405 -13.7583 0.459 -0.398 0.794 118 45 30 0 0
2.1016 -1.7991 -13.6552 0.449 0.253 0.857 117 44 28 0 0
2.0507 -1.8208 -13.7479 0.688 -0.056 0.724 114 43 29 0 0
2.1440 -1.8013 -13.6877 0.304 0.077 0.950 106 41 26 0 0
2.1726 -1.8002 -13.6961 0.523 0.252 0.814 98 38 27 0 0
2.4265 -1.7911 -13.7726 0.501 0.109 0.859 173 111 90 0 0
2.5233 -1.7843 -13.7836 0.219 -0.175 0.960 147 67 43 0 0
3.4361 -1.7113 -13.8386 0.378 -0.345 0.859 160 88 38 0 0
3.4604 -1.7111 -13.8492 0.378 -0.345 0.859 151 97 47 0 0
3.6307 -1.7016 -13.8819 0.683 -0.033 0.730 178 102 67 0 0
3.6353 -1.7075 -13.9163 0.773 -0.071 0.631 148 76 56 0 0
3.6538 -1.7090 -13.9337 0.775 0.048 0.631 149 86 65 0 0
3.6701 -1.7112 -13.9538 0.727 -0.097 0.680 145 98 85 0 0
3.6880 -1.7129 -13.9720 0.738 -0.084 0.669 120 72 61 0 0
3.7504 -1.7004 -13.9348 0.551 -0.360 0.753 101 37 22 0 0
3.8553 -1.6890 -13.9247 0.773 0.065 0.631 93 18 5 0 0
3.8361 -1.7175 -14.0704 0.512 -0.337 0.790 75 10 1 0 0
3.6434 -1.9625 -15.3086 0.529 -0.549 0.647 9 9 10 0 0
3.6590 -1.9655 -15.3324 0.536 -0.477 0.696 50 48 49 0 0
3.7039 -1.9668 -15.3617 0.529 -0.549 0.647 18 16 19 0 0
4.0880 -2.0455 -15.9807 0.333 -0.490 0.806 9 9 12 0 0
4.1128 -2.0454 -15.9921 0.355 -0.465 0.811 30 30 32 0 0
4.1289 -2.0483 -16.0163 0.207 -0.084 0.975 41 41 45 0 0
4.4666 -2.0216 -16.0381 0.766 0.197 0.612 40 40 42 0 0
4.5278 -2.0077 -15.9925 0.538 0.041 0.842 48 47 49 0 0
1.8172 -1.8710 -13.7573 0.525 -0.585 0.618 115 44 27 0 0
1.8370 -1.8726 -13.7756 0.525 -0.585 0.618 116 44 28 0 0
1.9031 -1.8681 -13.7844 0.425 -0.457 0.781 117 45 29 0 0
2.0423 -1.8498 -13.7545 0.787 -0.178 0.591 116 44 28 0 0
2.4576 -1.8154 -13.7754 0.304 0.341 0.889 167 92 66 0 0
2.5211 -1.8111 -13.7838 0.229 -0.080 0.970 150 72 51 0 0
3.5993 -1.7293 -13.8781 0.639 -0.170 0.750 175 103 60 0 0
3.6184 -1.7306 -13.8947 0.710 -0.204 0.674 173 98 66 0 0
3.6270 -1.7353 -13.9243 0.823 -0.056 0.565 151 79 58 0 0
3.6496 -1.7355 -13.9366 0.957 -0.166 0.239 156 96 78 0 0
3.6566 -1.7407 -13.9683 0.957 -0.166 0.239 136 90 79 0 0
3.6710 -1.7435 -13.9908 0.840 -0.408 0.358 116 66 56 0 0
3.7187 -1.7357 -13.9721 0.556 -0.284 0.781 105 40 24 0 0
3.8288 -1.7450 -14.0775 0.383 -0.033 0.923 76 11 1 0 0
3.6318 -1.9931 -15.3219 0.742 -0.497 0.449 9 8 10 0 0
4.0295 -1.9638 -15.3613 0.146 0.067 0.987 55 55 56 0 0
4.0873 -2.0727 -15.9793 0.671 -0.399 0.625 8 9 12 0 0
4.1000 -2.0770 -16.0085 0.374 -0.085 0.924 34 35 38 0 0
4.1548 -2.0747 -16.0235 0.062 0.125 0.990 29 30 35 0 0
4.4688 -2.0474 -16.0323 0.774 0.180 0.606 49 49 50 0 0
4.5272 -2.0344 -15.9911 0.576 -0.108 0.810 53 51 55 0 0
1.8658 -1.8983 -13.7823 0.497 -0.661 0.563 116 45 26 0 0
1.8943 -1.8974 -13.7915 0.643 -0.438 0.628 116 45 27 0 0
1.9709 -1.8825 -13.7498 0.086 0.147 0.985 117 46 28 0 0
2.0047 -1.8800 -13.7532 0.086 0.147 0.985 117 46 28 0 0
2.0426 -1.8762 -13.7520 0.428 0.087 0.900 117 46 28 0 0
2.6875 -1.8166 -13.7537 0.597 -0.480 0.643 130 54 29 0 0
2.7511 -1.8047 -13.7217 -0.031 -0.218 0.975 125 49 28 0 0
3.6806 -1.7582 -13.9366 0.395 0.494 0.774 124 82 73 0 0
3.7052 -1.7577 -13.9463 0.556 0.429 0.712 108 58 47 0 0
3.8038 -1.7708 -14.0661 0.652 0.034 0.757 89 16 3 0 0
3.8419 -1.9972 -15.3030 0.204 -0.258 0.944 32 30 33 0 0
4.0303 -1.9984 -15.4035 0.732 0.342 0.589 44 44 46 0 0
4.0668 -2.1072 -16.0070 0.225 -0.193 0.955 19 20 22 0 0
4.0952 -2.1057 -16.0131 0.029 0.088 0.996 36 37 41 0 0
4.1537 -2.1020 -16.0226 0.038 0.196 0.980 12 13 18 0 0
4.5220 -2.0629 -15.9966 0.430 -0.255 0.866 54 51 55 0 0
4.5465 -2.0626 -16.0073 0.726 -0.467 0.506 36 33 38 0 0
4.5980 -2.1725 -16.6241 -0.317 0.150 0.937 149 148 147 0 0
3.0369 -1.8311 -13.8661 0.915 0.289 0.281 174 122 109 0 0
3.5705 -1.7815 -13.8689 0.559 -0.292 0.776 175 104 63 0 0
3.6263 -2.0233 -15.1901 0.837 -0.503 0.216 5 5 7 0 0
4.0086 -2.0240 -15.3861 0.841 -0.099 0.531 55 55 57 0 0
4.0093 -2.1375 -15.9932 0.412 -0.312 0.856 9 9 11 0 0
4.0337 -2.1374 -16.0053 0.225 -0.193 0.955 11 11 13 0 0
4.1607 -2.1263 -16.0097 0.006 0.132 0.991 9 10 14 0 0
4.8334 -2.2017 -16.7509 0.107 0.357 0.928 198 198 200 0 0
4.8951 -2.1863 -16.6998 0.699 0.284 0.656 199 199 201 0 0
2.2655 -1.9074 -13.7433 0.415 0.394 0.820 97 39 27 0 0
2.6284 -1.8791 -13.7760 0.099 0.458 0.883 164 88 65 0 0
3.0518 -1.8373 -13.7677 0.902 0.310 0.301 164 103 68 0 0
3.4466 -1.8091 -13.8173 0.329 -0.121 0.937 86 49 26 0 0
3.4701 -1.8090 -13.8288 0.366 -0.124 0.922 88 40 25 0 0
3.4942 -1.8088 -13.8396 0.507 -0.102 0.856 110 65 35 0 0
3.6388 -2.0623 -15.2603 0.459 -0.089 0.884 43 40 43 0 0
3.5985 -2.0849 -15.3600 0.755 -0.286 0.590 25 23 26 0 0
3.8419 -2.0586 -15.3435 0.298 -0.384 0.874 39 39 41 0 0
4.1607 -2.1532 -16.0072 0.071 0.186 0.980 10 9 14 0 0
4.1916 -2.1507 -16.0093 0.305 0.342 0.889 19 19 23 0 0
4.5778 -2.2541 -16.7544 -0.105 0.380 0.919 165 165 167 0 0
4.8636 -2.2261 -16.7499 0.098 0.201 0.975 200 200 202 0 0
4.8806 -2.2290 -16.7736 0.704 -0.095 0.704 201 201 203 0 0
2.0669 -1.9561 -13.7587 0.371 -0.624 0.687 116 47 31 0 0
2.1050 -1.9522 -13.7571 0.162 -0.309 0.937 119 50 33 0 0
2.1368 -1.9501 -13.7622 0.092 -0.284 0.954 116 47 31 0 0
2.1701 -1.9475 -13.7656 0.011 -0.177 0.984 114 45 27 0 0
2.2533 -1.9374 -13.7544 0.300 -0.055 0.952 105 42 28 0 0
3.4913 -1.8350 -13.8410 0.507 -0.102 0.856 146 99 60 0 0
3.5158 -1.8346 -13.8512 0.582 -0.195 0.790 169 103 56 0 0
3.5172 -2.0640 -15.0646 0.878 -0.436 0.195 25 24 30 0 0
3.5417 -2.0639 -15.0763 0.691 -0.576 0.436 16 16 18 0 0
3.6007 -2.0769 -15.1751 0.976 -0.157 0.151 7 5 8 0 0
3.5718 -2.1125 -15.3485 0.652 -0.342 0.677 43 41 43 0 0
3.5909 -2.1143 -15.3678 0.652 -0.342 0.677 22 20 23 0 0
3.6307 -2.1174 -15.4044 0.601 -0.194 0.775 18 17 19 0 0
3.7656 -2.0867 -15.3105 0.909 0.003 0.417 33 32 36 0 0
3.7798 -2.0902 -15.3363 0.484 0.483 0.729 36 36 40 0 0
3.8191 -2.0847 -15.3274 0.726 0.402 0.558 40 40 41 0 0
3.8733 -2.0739 -15.2977 0.873 0.182 0.453 41 41 43 0 0
3.9415 -2.0752 -15.3389 0.265 -0.123 0.956 58 57 60 0 0
4.5591 -2.1650 -16.1269 0.801 -0.427 0.419 82 78 75 0 0
1.7490 -2.0475 -13.9351 0.230 0.308 0.923 109 43 26 0 0
2.0815 -1.9857 -13.7800 -0.017 -0.233 0.972 116 47 31 0 0
2.6109 -1.9291 -13.7519 0.129 0.392 0.911 154 96 62 0 0
2.6636 -1.9277 -13.7716 0.322 0.151 0.935 179 113 92 0 0
3.3129 -1.8727 -13.8136 0.052 -0.136 0.989 157 85 40 0 0
3.4639 -1.8616 -13.8320 0.370 -0.076 0.926 120 80 45 0 0
3.5049 -2.0948 -15.0784 0.878 -0.436 0.195 19 18 24 0 0
3.5301 -2.0944 -15.0893 0.693 -0.505 0.514 14 14 16 0 0
3.5382 -2.1084 -15.1672 0.978 -0.181 0.107 8 8 10 0 0
3.5483 -2.1390 -15.3327 0.640 -0.317 0.700 38 36 38 0 0
3.5718 -2.1392 -15.3461 0.531 -0.196 0.825 40 37 40 0 0
3.5835 -2.1437 -15.3755 0.652 -0.342 0.677 23 20 23 0 0
3.6026 -2.1455 -15.3949 0.652 -0.342 0.677 17 15 18 0 0
3.6531 -2.1448 -15.4168 0.820 0.022 0.573 32 31 35 0 0
3.7690 -2.1120 -15.3035 0.751 0.244 0.614 37 36 41 0 0
3.7912 -2.1126 -15.3182 0.529 0.595 0.605 41 40 45 0 0
3.8707 -2.1013 -15.2990 0.833 0.271 0.482 45 45 47 0 0
4.5218 -2.1969 -16.1334 0.796 -0.507 0.331 80 77 74 0 0
2.6416 -1.9530 -13.7548 0.334 0.168 0.927 176 124 78 0 0
2.7045 -1.9484 -13.7630 0.215 0.193 0.957 167 103 86 0 0
2.7322 -1.9473 -13.7712 0.216 0.243 0.946 156 91 74 0 0
2.7750 -1.9414 -13.7623 0.161 -0.363 0.918 147 77 58 0 0
3.0226 -1.9083 -13.7163 0.225 0.090 0.970 105 43 25 0 0
3.4854 -1.8874 -13.8437 0.507 -0.102 0.856 160 91 46 0 0
3.5105 -1.8868 -13.8532 0.685 -0.101 0.721 163 87 51 0 0
3.5289 -1.8883 -13.8709 0.685 -0.101 0.721 147 73 45 0 0
3.5191 -2.1164 -15.0574 0.774 -0.382 0.505 11 10 15 0 0
3.5224 -2.1663 -15.3201 0.552 -0.239 0.799 36 34 38 0 0
3.5447 -2.1670 -15.3352 0.531 -0.196 0.825 48 46 51 0 0
3.5672 -2.1676 -15.3499 0.531 -0.196 0.825 26 24 28 0 0
3.5841 -2.1703 -15.3723 0.691 -0.082 0.718 21 19 22 0 0
3.7512 -2.1363 -15.2804 0.583 -0.152 0.798 38 38 43 0 0
3.7736 -2.1369 -15.2948 0.399 0.274 0.875 38 37 43 0 0
3.7626 -2.1495 -15.3551 0.606 0.522 0.600 41 40 44 0 0
3.8686 -2.1285 -15.2996 0.773 0.160 0.614 50 50 52 0 0
3.9460 -2.2058 -15.7433 0.705 -0.680 0.201 13 13 15 0 0
3.9359 -2.2549 -15.9948 0.659 -0.526 0.537 10 10 12 0 0
4.3531 -2.2059 -15.9520 0.595 -0.483 0.643 36 36 37 0 0
1.7357 -2.1056 -13.9446 0.503 0.772 0.388 109 44 32 0 0
1.7571 -2.1068 -13.9617 0.519 0.742 0.424 108 42 28 0 0
1.9230 -2.0718 -13.8654 0.055 -0.492 0.869 112 40 26 0 0
2.1702 -2.0344 -13.7981 0.135 -0.581 0.803 115 46 30 0 0
2.9003 -1.9502 -13.7361 -0.129 -0.055 0.990 131 56 33 0 0
3.0482 -1.9333 -13.7240 0.349 -0.097 0.932 105 43 26 0 0
3.0730 -1.9329 -13.7346 0.424 -0.127 0.897 126 52 28 0 0
3.1328 -1.9288 -13.7440 0.158 0.316 0.936 156 79 57 0 0
3.4615 -1.9129 -13.8306 0.431 0.002 0.902 161 99 53 0 0
3.5053 -1.9137 -13.8574 0.727 0.055 0.684 141 63 31 0 0
3.5112 -1.9194 -13.8901 0.909 -0.091 0.406 132 57 28 0 0
3.6875 -1.9854 -14.3235 0.843 -0.471 -0.260 54 52 53 0 0
3.4854 -2.1463 -15.0553 0.870 -0.470 0.152 16 15 20 0 0
3.5175 -2.1949 -15.3243 0.645 -0.234 0.728 36 34 38 0 0
3.5401 -2.1955 -15.3390 0.531 -0.196 0.825 34 32 37 0 0
3.5855 -2.1965 -15.3679 0.650 0.048 0.758 19 19 22 0 0
3.6492 -2.1823 -15.3268 0.764 -0.176 0.621 22 22 25 0 0
3.7872 -2.1672 -15.3190 0.536 0.562 0.630 44 45 48 0 0
3.8683 -2.1463 -15.2524 0.969 0.155 0.192 47 47 49 0 0
3.9028 -2.2762 -15.9449 0.847 -0.474 0.242 10 10 12 0 0
3.8914 -2.2897 -16.0092 0.712 -0.211 0.670 9 9 11 0 0
3.9117 -2.2912 -16.0276 0.471 0.061 0.880 21 20 24 0 0
4.1163 -2.2686 -16.0151 0.088 -0.020 0.996 27 27 32 0 0
4.6244 -2.3540 -16.7199 0.193 0.200 0.961 183 183 185 0 0
1.7325 -2.1260 -13.9063 0.440 0.859 0.261 109 64 57 0 0
1.7552 -2.1268 -13.9219 0.534 0.740 0.408 107 48 40 0 0
1.7755 -2.1283 -13.9401 0.616 0.547 0.566 110 46 35 0 0
1.9041 -2.1044 -13.8832 0.051 -0.494 0.868 110 42 26 0 0
2.1514 -2.0667 -13.8160 0.180 -0.579 0.795 115 46 30 0 0
2.1883 -2.0629 -13.8156 0.233 -0.542 0.807 113 44 28 0 0
2.2177 -2.0614 -13.8231 0.233 -0.542 0.807 119 50 34 0 0
2.6775 -2.0013 -13.7496 0.046 -0.015 0.999 141 69 46 0 0
3.1496 -1.9564 -13.7618 0.768 0.145 0.624 150 72 50 0 0
3.2662 -1.9566 -13.8227 0.232 0.012 0.973 104 42 13 0 0
3.5112 -1.9370 -13.8481 0.721 0.359 0.593 129 55 26 0 0
3.5129 -1.9442 -13.8860 0.946 0.075 0.317 118 51 25 0 0
3.5182 -1.9501 -13.9195 0.998 -0.024 0.050 107 46 28 0 0
3.6964 -1.9999 -14.2686 0.843 -0.471 -0.260 59 56 56 0 0
3.6129 -2.0449 -14.4580 0.859 -0.420 -0.295 56 54 57 0 0
3.4767 -2.2189 -15.2867 0.769 -0.482 0.419 6 6 8 0 0
3.4898 -2.2229 -15.3141 0.664 -0.334 0.669 11 10 11 0 0
3.5311 -2.2255 -15.3487 0.534 -0.058 0.844 27 26 31 0 0
3.5554 -2.2255 -15.3611 0.507 -0.008 0.862 21 21 23 0 0
3.7996 -2.1891 -15.2995 0.480 0.506 0.717 45 46 48 0 0
3.8368 -2.1842 -15.2934 0.464 0.191 0.865 50 50 52 0 0
3.8623 -2.1836 -15.3034 0.416 -0.001 0.909 53 53 55 0 0
3.8873 -2.1832 -15.3141 0.447 -0.214 0.869 54 54 56 0 0
3.9189 -2.2606 -15.7303 0.850 -0.449 0.277 11 11 13 0 0
4.0817 -2.2996 -16.0158 0.240 -0.156 0.958 27 28 32 0 0
4.1144 -2.2963 -16.0155 0.088 -0.020 0.996 30 31 36 0 0
4.4381 -2.2914 -16.1575 0.871 -0.461 0.170 80 78 76 0 0
1.7557 -2.1460 -13.8798 0.440 0.859 0.261 147 123 120 0 0
1.7713 -2.1489 -13.9029 0.534 0.740 0.408 114 73 70 0 0
2.4969 -2.0387 -13.7127 0.524 0.143 0.840 97 38 26 0 0
2.6758 -2.0278 -13.7494 0.136 0.015 0.991 121 46 17 0 0
3.1310 -1.9880 -13.7812 0.509 -0.184 0.841 133 54 35 0 0
3.1678 -1.9836 -13.7778 0.768 0.145 0.624 148 64 35 0 0
3.2623 -1.9833 -13.8251 0.276 -0.128 0.953 94 43 16 0 0
3.5118 -1.9620 -13.8451 0.601 0.440 0.667 120 54 30 0 0
3.6671 -1.9876 -14.0571 0.857 0.295 0.422 110 28 4 0 0
3.7254 -1.9755 -14.0251 0.305 0.088 0.948 104 30 7 0 0
3.4377 -2.2510 -15.2914 0.409 -0.476 0.778 6 6 8 0 0
3.4618 -2.2511 -15.3041 0.409 -0.476 0.778 34 34 36 0 0
3.4799 -2.2533 -15.3249 0.541 -0.428 0.724 42 42 45 0 0
3.5041 -2.2533 -15.3375 0.436 -0.211 0.875 40 39 45 0 0
3.5519 -2.2535 -15.3635 0.569 -0.068 0.819 19 19 23 0 0
3.5765 -2.2534 -15.3754 0.725 0.282 0.629 25 26 30 0 0
3.7538 -2.2237 -15.3148 0.913 0.323 0.249 43 45 47 0 0
3.8729 -2.3233 -15.8881 0.932 -0.342 0.123 9 9 11 0 0
4.4281 -2.3222 -16.1705 0.918 -0.386 0.088 84 80 79 0 0
4.3816 -2.4289 -16.6944 0.477 -0.602 0.641 147 146 144 0 0
4.6351 -2.4139 -16.7490 -0.009 0.438 0.899 192 192 194 0 0
2.4870 -2.0603 -13.6825 0.525 0.258 0.811 107 43 26 0 0
2.5084 -2.0611 -13.6980 0.747 0.325 0.580 101 41 24 0 0
2.6738 -2.0543 -13.7495 0.095 0.151 0.984 137 64 30 0 0
3.2873 -2.0082 -13.8331 0.225 -0.111 0.968 74 23 10 0 0
3.5210 -1.9841 -13.8319 0.771 0.507 0.384 114 53 32 0 0
3.7195 -2.0347 -14.1937 0.915 -0.298 -0.271 60 53 55 0 0
3.4262 -2.2820 -15.3043 0.409 -0.476 0.778 6 6 8 0 0
4.4226 -2.3416 -16.1274 0.887 -0.424 0.180 80 79 75 0 0
4.6692 -2.4470 -16.7940 -0.007 0.417 0.909 197 197 199 0 0
4.7590 -2.4292 -16.7499 -0.406 -0.010 0.914 200 200 202 0 0
2.5255 -2.0894 -13.7160 0.322 -0.070 0.944 103 44 26 0 0
2.7023 -2.0788 -13.7546 0.156 -0.165 0.974 171 92 35 0 0
