ply
format ascii 1.0
element vertex 706
property float x
property float y
property float z
property uchar diffuse_red
property uchar diffuse_green
property uchar diffuse_blue
end_header
1.3318931957174274 -1.9784138608523127 -13.95718353114092 93 19 6
1.315134081871965 -2.016657239013486 -13.956992791214919 94 18 4
1.3060272599654157 -2.040160893743831 -13.973832020184922 115 44 19
1.2905005777494312 -2.076006874531222 -13.976237726196466 80 21 5
1.2865369721830138 -2.0896120759320658 -14.004574876585625 90 18 3
1.2818454794221759 -2.104621693638509 -14.031306893000913 105 25 3
1.266741987045576 -2.1396303081741257 -14.034516080367126 98 21 1
1.3150745695765733 -2.0528652408573267 -14.181488783073059 92 20 2
1.3237208277620784 -2.072891936532354 -14.429016250377916 87 40 27
1.2718957432335447 -2.178182296876779 -14.347696938246902 67 24 16
1.287334416510397 -2.1547799254081808 -14.421483614259623 71 29 17
1.2845021098852116 -2.16633753763705 -14.453156840717572 77 39 25
1.282397493158252 -2.1765135712852413 -14.486574528380963 78 42 30
1.284828501587372 -2.1780398825305944 -14.530625875189276 78 41 29
1.2855172321881576 -2.1829093185806645 -14.570720024549775 65 31 17
1.2933013301295875 -2.1742605447890853 -14.627530624293591 80 43 29
1.2957559948839898 -2.1758004037297107 -14.672002516631174 78 36 19
1.287260423983574 -2.198224144538713 -14.690808664407626 105 60 34
1.2922772006743366 -2.194911301005803 -14.741495267945439 108 61 33
1.3037681314879712 -2.1792979968419104 -14.80764763169463 103 55 34
1.3055307819820905 -2.182229856421162 -14.850946988151254 89 41 23
1.3075734743296619 -2.1846466966585387 -14.895021379915168 70 29 18
1.308947230681593 -2.1883531144214246 -14.93761381661489 66 31 17
1.3091999268797054 -2.1942061777636592 -14.977632183929448 92 56 32
1.2950926038008475 -2.227340840341216 -14.983337466899368 101 60 33
1.293369716888283 -2.236959113210995 -15.018709493373686 87 43 24
1.2950528677762838 -2.240127633529669 -15.062351776792383 78 36 22
1.2936267637504377 -2.249208708232316 -15.098598750675725 61 28 18
1.328027910682461 -2.190410949223665 -15.221617429894842 36 12 6
1.3448044909598815 -2.165074887490726 -15.302385587788233 28 11 8
1.3551782519161266 -2.1519066396794564 -15.36787634609694 26 11 10
1.347334497545337 -2.1732413734173575 -15.389169385067444 11 5 5
1.3420415720762233 -2.189751870320963 -15.416693924720105 1 1 3
1.3441667496570804 -2.1922461208125563 -15.462422457230257 2 2 3
1.4198644780561587 -2.0690240616893325 -15.771448685274816 10 10 12
1.3847881680955707 -2.14183045067798 -15.726017042287102 16 15 17
1.3665322179028334 -2.1828738631647138 -15.72197765810546 21 20 21
1.341292618984669 -2.2370545664220707 -15.70043903314222 28 26 29
1.3118480149291085 -2.299119028198211 -15.668198896770184 36 35 38
1.294084186713707 -2.339154944231935 -15.664883925236133 45 42 48
1.2459408084603916 -2.4363194919527125 -15.585321965594199 43 40 47
1.2312614326539322 -2.4704851537991557 -15.589313038678622 34 32 37
1.224076767377277 -2.4905528031103668 -15.61208806384623 23 21 25
1.2437542409269509 -2.46017003472796 -15.702678691280152 14 12 15
1.2497963136528734 -2.4554378051935144 -15.75910438133721 11 9 12
1.2430027729636661 -2.4748144577478 -15.783138075572758 12 10 12
1.200033487303795 -2.5620266320005625 -15.71517731223404 14 12 13
1.177450820906052 -2.610960346774971 -15.698747244151132 17 15 16
1.1615615512235644 -2.647326191139432 -15.699234829803325 18 16 17
1.1480650961816203 -2.679195519102028 -15.705747615781657 19 17 18
1.1299517342873004 -2.7196911119240177 -15.700325484629374 23 17 17
1.1162245414616287 -2.7519628026177836 -15.70606287891269 26 19 18
1.0971327443557564 -2.7942481540271524 -15.697872728835344 30 22 20
1.1175762439093688 -2.762659204416752 -15.79184428632786 34 25 22
1.102624418618583 -2.7972085612690707 -15.79435093369976 40 32 29
1.0292320305130414 -2.9605580164014906 -15.76782520207732 75 66 63
1.002371775037895 -3.0171862542271386 -15.738484262040508 78 65 61
0.9740429524862808 -3.076506455625637 -15.705023890828015 76 58 53
0.9364228615726182 -3.159632348900021 -15.687660922544694 71 40 31
0.9153744478497889 -3.2053171413776074 -15.67281763164102 80 45 33
0.8839196748788307 -3.270292241594907 -15.63012112612474 93 57 46
0.8699646175325642 -3.3027470988193537 -15.633759791113771 96 59 48
0.8609144782429359 -3.3260924889810637 -15.650419693281316 95 58 48
0.8293141416591643 -3.391226315011739 -15.606642106052771 93 56 48
0.8361266662597235 -3.3851591989781156 -15.665710629687837 90 56 46
0.8278633071007939 -3.407030085464436 -15.68437652871527 90 56 46
0.830698363858519 -3.4083660025087816 -15.732985750353656 89 55 46
0.8304696110770089 -3.415388779162506 -15.77344096462301 89 55 47
0.8454498018959498 -3.3943218177320276 -15.855245671280514 88 54 46
0.8473164017659884 -3.397521929386045 -15.901691952785217 87 54 45
0.8482677981513203 -3.40243131193584 -15.94576801934944 87 54 45
0.8472182589999466 -3.41104989128194 -15.984488809872513 88 54 47
0.8469035684838531 -3.4183275236394 -16.025308682045235 87 58 51
0.8390313014938882 -3.439545506417855 -16.045469862882552 85 60 55
0.839567362670645 -3.445279289483528 -16.088773394411646 94 74 70
0.8716241054190332 -3.39302241780773 -16.21917815717238 114 97 95
0.8557806550424856 -3.428951251351455 -16.217597226443523 131 119 118
0.8416108622357497 -3.461785281710106 -16.220543621866362 135 126 125
0.8238779046192186 -3.5011501084750023 -16.21349086976105 136 128 129
0.7919224072965636 -3.5666035082267014 -16.166654207995343 138 130 131
0.7719046488480255 -3.610099178180934 -16.152835691354454 139 132 132
0.8346060100496531 -3.5018856195779557 -16.37054854175068 139 133 133
0.8470088173404267 -3.4860041752428597 -16.447992763959988 141 138 136
0.8759253765397514 -3.4537946506447303 -16.65853103300859 154 152 153
0.7987307983192529 -3.6295422044215853 -16.655124225093097 175 175 173
2.339225581277151 0.40218017014397844 -13.961767869008847 207 209 211
2.3069500529079696 0.3321357669562621 -13.937352021755167 168 158 156
2.2503503568523597 0.21392509958034545 -13.86537202189682 112 78 71
2.1933884952631213 0.09507442109016306 -13.792197098436926 115 64 55
2.1456066897029027 -0.005519858577946124 -13.736479559554812 115 59 47
2.095155406093744 -0.11133421295416035 -13.675125768638257 118 58 46
2.055926790438076 -0.19487530622561966 -13.635399452172823 124 62 47
2.0211944527213497 -0.2694732232920982 -13.604214601194139 124 61 45
2.024607789061149 -0.2686145920812777 -13.648118089610865 121 57 40
2.0281557919203017 -0.2675076360122235 -13.692400621654395 123 58 40
2.0086982224163767 -0.31186314553773986 -13.69111226509957 125 60 42
1.9935406877967043 -0.3477089358339569 -13.698264683108455 119 55 39
1.9761264606859092 -0.3879967124627983 -13.700835999586019 116 56 38
1.9709622203874413 -0.4041002091125012 -13.727821348583007 157 94 59
1.9272944057640338 -0.4961414569396254 -13.677583053885929 153 83 39
1.9066407080701862 -0.5427560981616724 -13.67326536755051 146 72 30
1.8901037987584408 -0.5812373299392863 -13.67711498457184 146 72 36
1.8746589133678604 -0.6175529850142771 -13.683079966210887 155 87 62
1.85428209532916 -0.6635659778243781 -13.678966915386665 143 75 52
1.8256105219627288 -0.7258822398975928 -13.657865242999389 118 48 25
1.8171850690546678 -0.748335438537759 -13.677791521448398 136 63 39
1.8050658511520161 -0.7780505128103101 -13.690163978160708 134 61 37
1.7785713744625773 -0.8360133346803451 -13.673051973842698 139 67 39
1.7946803050940008 -0.8102407728833345 -13.743204527956106 143 65 35
1.7802248050365734 -0.8445327333832164 -13.750697010932324 172 104 79
1.7394753316818248 -0.930429844977831 -13.703860491128388 137 83 61
1.7000594951910155 -1.0136546295006559 -13.659433150233426 156 106 91
1.6800849198848915 -1.0586941253301374 -13.654989966590168 127 69 52
1.6607275731268503 -1.1025025387950596 -13.65169783935527 129 59 34
1.6481951840400282 -1.1329159862171059 -13.662506604547247 131 58 34
1.622287610741923 -1.1895211271648893 -13.645308689952792 112 50 33
1.60900174274278 -1.2213814362104003 -13.654359120527193 108 51 31
1.603924650735641 -1.237165722394229 -13.6805896396103 114 52 25
1.592809478785469 -1.264766463671731 -13.69412954705041 123 54 19
1.5998640435931413 -1.2568301854887034 -13.745990133295477 146 78 37
1.5862465402347625 -1.289324908086181 -13.754251468518696 173 113 82
1.5714404971157039 -1.3241312093403872 -13.759924040980742 160 103 83
1.5607290405001737 -1.3509284224198357 -13.774227524148305 186 137 126
1.5430860700814648 -1.3912508093915905 -13.77371198527591 159 107 96
1.5394602764097636 -1.4042050412751044 -13.803056644260444 139 68 52
1.5188299226772715 -1.4503307317168828 -13.795991197241236 139 58 33
1.4958223569032683 -1.5010679769379118 -13.78367310283005 147 58 28
1.475824811202011 -1.5459128010976162 -13.777669713149184 141 55 25
1.4666174288252136 -1.569719006794033 -13.794834377919004 148 61 31
1.4579316788447079 -1.5925064133921936 -13.813108196666626 152 70 40
1.4442135187615281 -1.625084720522195 -13.82044247275723 146 66 40
1.429428403592283 -1.659727320126187 -13.825384556889134 161 83 60
1.4317211892508857 -1.6611525293588505 -13.867506676104618 157 86 66
1.4401046934228356 -1.6507577696502764 -13.923057838343809 170 105 91
1.3839274879021692 -1.7716838665287211 -13.874315821342076 180 120 116
1.3310157059702603 -1.9097007796515433 -13.980593342108815 110 31 11
1.3109644092608403 -1.9544345022026128 -13.973112272460163 98 20 8
1.2962237927718807 -1.9888715774810146 -13.977400570931671 95 18 3
1.284435175372299 -2.017587107736504 -13.988243353121781 122 54 24
1.2719936547234951 -2.047556443751521 -13.99756297135562 97 41 17
1.2667160454572237 -2.0636767345142006 -14.02301615645474 92 19 2
1.2596049950358337 -2.083340923844509 -14.04433747133081 109 29 6
1.248274658677719 -2.11114888302769 -14.056075811773827 100 23 1
1.2700989607427786 -2.074988968930728 -14.14327301931862 93 21 2
1.2819329514789912 -2.0882777730889712 -14.398115202154187 88 39 25
1.2642014906805727 -2.1284379109763183 -14.395297297308613 68 23 10
1.2621451231121188 -2.1384539383657852 -14.428780604781265 87 41 25
1.260388215945222 -2.147904504571734 -14.463023154685379 72 25 8
1.2607694531873976 -2.1532602260460063 -14.502324157512206 60 14 3
1.267360226603028 -2.146713855081016 -14.556252897855966 56 17 5
1.2677160189351115 -2.1521529468672753 -14.595712264785417 62 25 14
1.2667253647837737 -2.160187870654247 -14.632094708806418 68 29 19
1.269140923331572 -2.161707566802292 -14.676587009681988 75 35 22
1.2543169851593907 -2.196264864937463 -14.680429904227768 78 37 22
1.260486972407035 -2.1906177866334353 -14.733952636143119 85 43 29
1.2648345204590474 -2.188483382672132 -14.783305459433626 75 38 24
1.2682238698132122 -2.1882037227423643 -14.83051540790592 55 19 7
1.27774900274461 -2.176215624782997 -14.8925092803327 53 21 14
1.2789940089473517 -2.1800797511292265 -14.934880007172062 73 41 31
1.2800133528645066 -2.184391347798244 -14.976813367436192 84 48 31
1.2684613062297965 -2.21271420113189 -14.988596861396786 90 50 33
1.2618875775080913 -2.231531885463699 -15.012341135109905 67 28 15
1.2665494707645761 -2.2289272458437575 -15.063269111376215 61 27 16
1.2699342102458775 -2.2287799173996756 -15.111247404323947 50 20 12
1.308032909527134 -2.1625276161074742 -15.243731833011854 33 10 5
1.3306401835672033 -2.1258574720931582 -15.339023280383309 26 10 7
1.2993657653526065 -2.191779730830551 -15.303064033488777 25 11 9
1.3210527962915735 -2.156924371469814 -15.396508919781128 9 3 4
1.3185855366079848 -2.168043364496458 -15.431014272334028 1 1 3
1.3160270829031226 -2.1793455935712718 -15.465358055651016 2 2 3
1.3020513841924437 -2.212339781113176 -15.471595048424271 3 3 5
1.3399912312507567 -2.1532875485419973 -15.64721348499941 8 8 10
1.3690388257870674 -2.1112961268714647 -15.801989513291483 18 16 17
1.3255778059243402 -2.200198891737312 -15.734936822376879 24 22 25
1.2844326049175478 -2.284646808082739 -15.6732384258936 31 29 32
1.265411458874535 -2.3271655576806207 -15.666667012657731 41 39 44
1.2462676210672616 -2.3698937491406653 -15.659644250263526 43 40 47
1.1978074592747485 -2.4680128604923555 -15.578507536227931 43 41 47
1.182931928889995 -2.502602210075387 -15.581807178786788 34 32 36
1.1999127185302194 -2.4770255576148603 -15.665793783953475 23 21 24
1.1977049793348908 -2.487710759993165 -15.701312050853712 15 13 16
1.2049431891354745 -2.4805897506054793 -15.760970216291625 12 10 13
1.1804776581654035 -2.533266402074238 -15.739822041649724 12 10 12
1.172651419294138 -2.554557457545031 -15.761074052170901 14 12 13
1.1458757925876601 -2.6115331245115456 -15.73367103988322 16 14 15
1.1337953148503457 -2.6408111853153997 -15.743845905890407 18 16 17
1.120502321385158 -2.67236099166617 -15.750834237992365 22 18 17
1.104761042227604 -2.7085022227744684 -15.751415930515828 25 20 19
1.076792941168031 -2.767602330491778 -15.72018654252572 30 23 20
1.0761088127249097 -2.7754188595506513 -15.759620159830336 33 26 23
1.0729635435134273 -2.7878691121931674 -15.792728275293642 38 31 28
1.0451350049462182 -2.8466351454109766 -15.761407631933269 47 40 37
1.0164936648455767 -2.906883380446973 -15.727694451832209 57 52 49
0.8993887658494699 -3.178168470373536 -15.74727708734337 86 64 57
0.8699566984356153 -3.2396113928447985 -15.709676239970499 89 64 56
0.8570342758412828 -3.2702243585919106 -15.716108081970232 94 66 57
0.8977666581807757 -3.2008387802894784 -15.866878340953516 95 65 55
0.8381632620269708 -3.3184266289416424 -15.747566587172496 93 62 53
0.8391806613596047 -3.3230641739696907 -15.79152844352112 92 60 52
0.8404033177873935 -3.3273377338189443 -15.836159576635415 91 59 52
0.8416563847775962 -3.331573116517685 -15.880989246429948 88 59 51
0.8324771125160126 -3.3552123422434814 -15.897506516940243 88 60 53
0.8277853170507785 -3.3705139506241766 -15.926258897410609 89 61 55
0.8266194372645816 -3.3792771044640286 -15.964704233949 90 62 57
0.8151601139101385 -3.407147758703788 -15.974974352701217 90 65 62
0.8088064478533838 -3.425544326628162 -15.999241363047638 95 76 73
0.8047927682672673 -3.439607623137152 -16.02997897774899 111 97 94
0.8332755402004586 -3.39350380508703 -16.150646130554925 127 118 115
0.819601678338556 -3.4254947053175266 -16.154914209128343 135 127 125
0.8026992885919062 -3.46344335163871 -16.150122422162365 136 131 129
0.7850134400542905 -3.5028195106157245 -16.143017021931048 139 134 134
0.7692233138214708 -3.5386711272785805 -16.141065554512014 140 135 135
0.7329672535012284 -3.6122897585309586 -16.081684764505848 141 136 136
0.8111724355488685 -3.481405525580291 -16.3858889739895 145 141 140
0.8979094294642729 -3.3352191205863146 -16.716823653317384 150 148 146
0.8698936579607102 -3.400586084867494 -16.724446628306453 160 158 159
0.8177442599243745 -3.524023731229142 -16.749751310196245 175 175 173
2.305077161458425 0.4060691943572454 -13.954681118171848 204 203 204
2.272149185263904 0.33449867206830586 -13.928787365731758 140 119 116
2.2143667420814457 0.21347763786449292 -13.854095888164785 113 69 60
2.1568521298926346 0.09306835175988137 -13.779425602134033 115 61 51
2.0982320058224815 -0.02946198831176705 -13.702082701815872 114 57 47
2.0527336385968145 -0.1258150887938978 -13.65005334470125 120 62 51
2.0345519985847025 -0.1678019942393565 -13.65154870000993 122 61 48
2.012124742703316 -0.21820923162221018 -13.644537275914297 118 55 39
2.005148682791238 -0.23790023364771695 -13.668024962709644 120 56 40
1.993985318047582 -0.26590678904954324 -13.683192255253196 123 58 40
1.973901617917692 -0.3116131311583974 -13.680537918520987 124 59 41
1.9585196823043514 -0.3479711100048011 -13.68715491551346 116 54 38
1.9522984845605234 -0.366148828553726 -13.71205166013059 113 56 39
1.9360212695244816 -0.40426412193106653 -13.716757769239432 152 88 55
1.896734896387933 -0.48796082928400164 -13.675024358779886 162 89 40
1.875496975980999 -0.535855830454139 -13.669414268476324 174 99 41
1.8598484655907 -0.5726617129352629 -13.67498018173094 177 105 57
1.8435268001756218 -0.6107868059579253 -13.67909585232491 181 116 89
1.8229739642796414 -0.6572685089239236 -13.674509277866811 139 70 46
1.8007226528072162 -0.7070878768282993 -13.6663216764833 126 53 27
1.7916903863973848 -0.7307525983160179 -13.685021704640867 137 66 39
1.7804227250051285 -0.7588318429636853 -13.699121590823806 127 58 34
1.763672551918592 -0.797733489118567 -13.701909629919253 138 61 35
1.779602776782356 -0.7720997169877037 -13.77196734246336 150 74 44
1.7495780977353212 -0.8371945882307106 -13.747299669284414 170 109 82
1.711063692086441 -0.9189994394137031 -13.704804378660198 143 90 69
1.6728860720788605 -1.0000889323927575 -13.662680535172147 145 87 72
1.661486393183492 -1.028348909545782 -13.67599700218942 123 56 36
1.6353822682823997 -1.0855721998530061 -13.658570901221808 132 58 31
1.623537995359028 -1.114682356048366 -13.670794460191022 127 57 35
1.6030146149870972 -1.1608697653306974 -13.664757673161851 112 53 26
1.584896392013781 -1.2023027914440103 -13.663640890700577 129 68 36
1.5750412800332023 -1.227465980376408 -13.67983813286543 117 49 25
1.5643415697883412 -1.2542855003053512 -13.694223043342058 120 50 27
1.573668289326116 -1.2417451377616215 -13.751028284094103 131 65 37
1.56187767536188 -1.2707132657326383 -13.76313153178937 167 103 85
1.5468056043399203 -1.30611691157522 -13.768195337352463 140 81 67
1.5338043453933825 -1.3374434359497922 -13.77759979909195 172 119 109
1.5132512404608665 -1.3835751714264948 -13.770770021848787 149 88 74
1.5002299770787062 -1.4149154544930527 -13.779968578485029 143 71 48
1.4957191158597087 -1.4295654709772858 -13.807424688248506 136 54 27
1.4713610319204427 -1.483104594768597 -13.7920814530967 147 60 29
1.4553349518710033 -1.5202979088620934 -13.79457842856236 142 59 23
1.4426843771346314 -1.5508689278278842 -13.80430167910273 147 62 29
1.4329275912583905 -1.5757688406128825 -13.820259137325156 143 58 29
1.4232342935246922 -1.6005404316767828 -13.836328411843937 147 67 40
1.4074871751324578 -1.6371424289363077 -13.839140858046736 153 77 54
1.4207885708177606 -1.6169687931307015 -13.905507723948169 160 90 72
1.327606420100321 -1.8454898063958378 -13.998496434815694 132 51 27
1.3051850714008215 -1.8949876159432426 -13.985752880204455 110 30 11
1.2564528231086303 -1.9956398734405596 -13.913713749776871 95 16 5
1.2558468025843603 -2.002643945998697 -13.949624270054198 96 19 4
1.268663170152257 -1.983573823325159 -14.015925046670862 118 52 21
1.2553695127915854 -2.015260278105403 -14.023336087242575 97 41 15
1.24243921222221 -2.046230475890373 -14.031503252899418 101 26 5
1.225326882816101 -2.085307003650887 -14.03008884268925 107 29 6
1.2422135885615486 -2.0643023063950325 -14.14381971589329 95 22 2
1.2340739371708995 -2.1216403668013353 -14.391092762501827 93 40 18
1.2321336367395654 -2.1313783192723523 -14.424890353497455 122 70 38
1.2306611243847312 -2.1402229698522124 -14.459845739794233 104 51 21
1.230317760111493 -2.1468992858466915 -14.497518521199718 92 41 19
1.2377052314206232 -2.1386759351286697 -14.553451193593425 99 56 36
1.2384876944408574 -2.1432146220857504 -14.593989043331252 77 36 24
1.2426810096296266 -2.1411952753553747 -14.64268371829314 69 27 16
1.244343767402994 -2.1440717718347813 -14.685520922039721 75 31 14
1.2493210405504767 -2.140583789960285 -14.736337860126657 83 37 17
1.2354573891195477 -2.173375189117605 -14.742443503938018 69 24 8
1.2486465187376632 -2.1541211568902465 -14.813044802530932 57 17 5
1.2543917391647814 -2.149216375916513 -14.866080417803232 48 15 4
1.257896493721395 -2.148641459703505 -14.91389969836008 54 23 16
1.2584155181184042 -2.153821519470762 -14.954670449032191 65 32 22
1.2573970479585215 -2.161968083989329 -14.991830731422557 67 28 14
1.239613152088253 -2.202294712005471 -14.988547221663644 66 25 14
1.231671423604981 -2.2237269741444052 -15.008987019317114 51 15 6
1.2365386748960159 -2.2206060143891166 -15.060535700795544 40 12 5
1.2385599805468728 -2.222960950538371 -15.105304125798389 37 12 8
1.2378675675751019 -2.230530523157354 -15.143563544467977 32 10 5
1.2396018221749265 -2.2334685901791085 -15.187845258043122 27 9 5
1.2651734799144414 -2.190823658489294 -15.29072634525522 24 11 9
1.287665835687842 -2.154129962004416 -15.386439740347765 9 3 4
1.2852548396056491 -2.1650860669234406 -15.421115353174521 1 1 3
1.282802624029366 -2.1761308941751762 -15.455752984083457 2 2 3
1.2579979686109108 -2.2298595325207904 -15.435060555794292 3 3 4
1.2591035937945958 -2.2341136707346996 -15.47852618619932 5 5 7
1.304415468816904 -2.1669666323153827 -15.714688821599864 14 12 13
1.2848341948034632 -2.2107231296223153 -15.706941004081944 20 18 20
1.2542245397730816 -2.2754465035505618 -15.671300855220146 28 26 29
1.2230901631290678 -2.34112297145846 -15.634048922785187 34 31 37
1.2066820382434438 -2.3787537807643826 -15.633731532964426 39 36 43
1.1903170095211482 -2.4162853162516607 -15.633412187138518 49 47 53
1.1506606886552766 -2.4980377747012685 -15.57380269108291 40 38 42
1.1629180583896908 -2.4811759278599945 -15.646019258120617 33 31 34
1.1498083962676262 -2.5124839095853773 -15.653712230616337 22 20 23
1.1405322829440208 -2.5365110382723035 -15.671148087001612 14 12 15
1.1359110058959767 -2.5517121153383826 -15.70050771222104 11 9 11
1.128844863897495 -2.571550548956443 -15.723615092538381 11 9 10
1.1194521421150578 -2.5957950453359944 -15.740728354244595 13 11 12
1.1126783788630672 -2.6150798555556056 -15.764589531722041 16 14 15
1.1088214492465347 -2.628849498877841 -15.796021299947505 20 18 16
1.1007156774461044 -2.6506583916294773 -15.816460544686176 24 21 19
1.0768934588379764 -2.7021597230335566 -15.795952446665915 28 23 20
1.0735984151782456 -2.7148663183260657 -15.828838545071783 32 27 24
1.066618522569181 -2.734535967958565 -15.852133293093456 38 33 29
0.8008449327376295 -3.311923109671387 -15.641315771713412 106 93 90
0.8075455091962627 -3.305782166303284 -15.700479589369733 104 89 84
0.8129572088170793 -3.302084572939804 -15.756338676137142 102 85 81
0.8162438040245326 -3.3023915594533397 -15.806595196984738 98 80 76
0.8060552894727382 -3.3279287441832777 -15.820286511427113 97 79 76
0.8017307073059265 -3.3424966507797773 -15.849954375853557 94 80 76
0.8032912363582136 -3.3460743699942084 -15.895776199157915 95 82 80
0.8034242602998469 -3.352337007677316 -15.937801991529803 99 86 84
0.773532573636663 -3.4146547103259346 -15.89731889446821 109 97 96
0.7712420845483281 -3.4254381630032213 -15.932660495521155 117 107 107
0.7997421026822797 -3.37883021620695 -16.053212910682642 128 120 120
0.7967409450289349 -3.3909927809911897 -16.08693633312365 131 127 128
0.7893924018994771 -3.4112603065413047 -16.108639716070606 134 132 131
0.761385380434062 -3.4699745430160185 -16.072792746538944 136 134 133
0.7474617624642723 -3.5024495161289284 -16.075992622942792 138 137 137
0.7275888202621132 -3.545969453053524 -16.062445497227337 141 139 142
0.7815009685435894 -3.459032493331268 -16.2983532385957 144 142 142
0.7738220470445749 -3.479945780743803 -16.319334012268257 146 144 144
0.7867215819701099 -3.5167837696457775 -16.74458210779828 178 178 176
2.278242530765814 0.42453630554540656 -13.961809037057119 189 184 180
2.2316625980762277 0.3254017236093958 -13.909035164723 120 90 85
2.176994870445616 0.2101463704492481 -13.840009144586158 116 69 60
2.1188783252672208 0.08806687235650745 -13.763727585868283 112 59 49
2.060417079306784 -0.034622956593347354 -13.68625533238776 115 59 49
2.0066818342578343 -0.14778912878316675 -13.617606851323718 123 67 55
1.9770088315413554 -0.21281758618991287 -13.596166233873571 115 54 42
1.9750021951323156 -0.2225684411727915 -13.629460975105314 118 54 39
1.9880294420822442 -0.20232111814960696 -13.692756088338125 120 56 39
1.9574707711131185 -0.26906797894989065 -13.66923115949892 123 58 40
1.9417930961628265 -0.3061001916221322 -13.675261730597 121 56 38
1.918297891264214 -0.35870456411142904 -13.665518901929829 114 52 36
1.9060381246928124 -0.38889383883708906 -13.67822106708385 108 52 40
1.9061385575605152 -0.39445432393133206 -13.715811466112633 116 54 36
1.8645559270202818 -0.48302609609894276 -13.669171830933443 129 59 30
1.844367529514422 -0.5289605973392764 -13.665563326559475 155 83 37
1.8299645566276896 -0.5633642730060711 -13.673585694891031 179 110 65
1.811826386076193 -0.605185462419719 -13.673923407980144 175 110 86
1.7866486665136971 -0.6609840579348809 -13.6597650518476 139 69 44
1.7707049763522662 -0.6984046304730009 -13.664340309105611 131 57 29
1.7636274822074447 -0.71820017755753 -13.687038694614447 133 62 35
1.7558645616556792 -0.7393574172525899 -13.70833043914753 124 58 33
1.755452839300915 -0.7459241432776764 -13.744796933087194 138 61 35
1.7287142446214898 -0.8104847880655353 -13.764178052326159 160 107 81
1.6868149654385267 -0.8993052109605637 -13.714419573617569 146 94 75
1.6548082405192477 -0.9684675463290509 -13.684929067895066 138 75 60
1.6351568881444392 -1.0131180670648803 -13.681013857718089 120 47 25
1.6043248774052448 -1.0798841239913255 -13.653528151187114 133 58 30
1.5912784607245027 -1.1114141146139813 -13.663174629082453 120 53 31
1.573485210890102 -1.1523248057643531 -13.66275814209698 142 83 42
1.5564734940275937 -1.1916729520520546 -13.663881120466995 177 108 54
1.5469167637629735 -1.216270372892068 -13.680690255814339 154 76 33
1.5358714240256925 -1.2438052038320278 -13.694315194656223 141 66 30
1.5462801224263096 -1.2289658501511722 -13.75357263191538 150 86 54
1.5369418904043448 -1.2531366242919297 -13.770878393461633 157 97 80
1.5241169904316585 -1.2841839187778055 -13.780702833185693 165 110 103
1.5116125044233188 -1.314590166059034 -13.791155615316246 164 110 105
1.4984824777246313 -1.3462210708547593 -13.8002074136718 142 76 60
1.4682152976193246 -1.4116133019502053 -13.772247161791984 133 60 32
1.4765294536232316 -1.400969939785334 -13.827432655549782 139 55 27
1.42814605207246 -1.5019870773345314 -13.759922321820039 147 60 28
1.428351872095668 -1.5073067408443022 -13.79752484027978 153 70 33
1.4094629287747682 -1.5502031696627574 -13.793620065893572 143 58 26
1.4073812985913237 -1.5600303016000225 -13.826289003530126 151 66 37
1.391538819805418 -1.5969137614224413 -13.828890944793311 149 69 44
1.362282620249741 -1.6601362133724153 -13.801958363550753 153 78 55
1.3028713439469808 -1.8284333762205032 -14.006292964800895 133 53 27
1.3024374649097896 -1.8350759300018673 -14.042920448770834 112 32 14
1.2315558493997925 -1.9794643752579262 -13.920642894667854 98 21 9
1.2503719404361637 -1.9484501004383858 -14.000577772305206 99 22 8
1.2590013601497831 -1.9373800321391892 -14.057705773962294 123 58 31
1.2417115052178045 -1.9769448298395922 -14.056077806383861 89 29 9
1.2232431048871515 -2.018791975760781 -14.051648334393343 97 22 2
1.204908590855084 -2.0603581096525128 -14.047396084421012 104 26 4
1.1909889310117547 -2.0932964406005725 -14.053131549700705 101 24 3
1.210981793182164 -2.0601301131763154 -14.136687073415345 98 25 5
1.2101927036812543 -2.067496290284634 -14.172702087940173 106 49 27
1.2180948273628283 -2.0579511868849245 -14.228857349665205 92 43 28
1.2003609757317755 -2.1218412662789348 -14.378472179022985 94 38 17
1.201011101769447 -2.12649063952814 -14.418364947533984 116 62 32
1.2002180789688353 -2.1339554177395588 -14.454961127067627 112 59 29
1.2013074844184488 -2.1377804397793803 -14.496069112872178 108 57 33
1.2099485898097018 -2.1269783115532253 -14.555110786330237 103 57 32
1.210699793345615 -2.131496628488347 -14.595663673198295 81 38 22
1.2135186318802975 -2.132024571851346 -14.64122086850495 78 34 20
1.2149251741154237 -2.135305827538189 -14.683539599328363 95 48 21
1.2212067602037429 -2.1291686512148082 -14.737592657102315 118 68 31
1.2135553068368758 -2.1500085487767313 -14.758490751145336 103 50 18
1.2207374719909394 -2.142167959836021 -14.814948273891599 95 41 21
1.2178046419449837 -2.153901957962564 -14.847271252071945 80 37 21
1.2270573870124275 -2.142106801869592 -14.909009493341024 62 25 15
1.229783527650652 -2.1429434528037525 -14.955184825958487 60 24 12
1.2306138982926618 -2.1474574800693356 -14.996893111894863 75 34 15
1.236615444330419 -2.1420129917088717 -15.051256425235197 72 29 12
1.2424147874169411 -2.136983664828633 -15.105292120890594 58 20 8
1.2044460801067056 -2.2163162864234867 -15.052701556900637 43 14 7
1.2023028332774286 -2.2265929728005585 -15.087367316693047 37 14 10
1.2114180236194554 -2.2152070925877636 -15.149705980446074 33 12 7
1.2200250939004837 -2.204830356282992 -15.210999890328853 29 11 7
1.2387688458392576 -2.1749902165661172 -15.297474090303512 21 9 8
1.2501756955570453 -2.159302860705619 -15.366146204299795 7 1 2
1.2513982862341766 -2.163217823924313 -15.409828538234901 1 1 3
1.2534525380593817 -2.1655526338075948 -15.455685274239334 2 2 2
1.2897043754815363 -2.102270689102218 -15.586789311615721 3 3 4
1.2595368279726045 -2.1664876037979166 -15.552690002078474 5 5 6
1.286489881207102 -2.1211397921261597 -15.66121160678285 7 7 9
1.2609863953833975 -2.1763867218679787 -15.638603825343711 9 9 10
1.2899101255443508 -2.1273472412139025 -15.752619280201447 11 10 11
1.2472545210324342 -2.215414952924254 -15.686671343670461 16 14 17
1.241661632702512 -2.232495375727251 -15.713936792286127 24 23 25
1.1721263457139464 -2.371870864925925 -15.579245933815198 31 29 34
1.1595919777273176 -2.4021657728397487 -15.588529468634166 36 33 40
1.1510897953952879 -2.424747230806269 -15.608015754144827 42 39 45
1.1208649069065535 -2.4888081328576552 -15.57204684821281 45 42 48
1.1311113360313225 -2.4755810160509224 -15.639342921291668 41 40 43
1.113773967324984 -2.5150081461466316 -15.636111300972463 34 32 35
1.1001698669671625 -2.547298024485398 -15.642354489643674 21 20 23
1.0948273649192735 -2.5638323531141554 -15.6698179145145 14 12 14
1.09136736159195 -2.5767855833357842 -15.702174906476284 10 8 9
1.0836837000292872 -2.5977872933731847 -15.723641827707823 9 7 8
1.0806404944067964 -2.609959608326422 -15.7571599359466 12 10 11
1.0719424331965213 -2.632894473160693 -15.776012316980108 16 15 14
1.0742810946186774 -2.6348502022226956 -15.823659515317608 24 21 20
1.0604293123173572 -2.667581784727159 -15.82906762269534 28 24 22
1.0777490939939685 -2.6411174739298087 -15.916169208697582 32 27 24
1.0776816974128773 -2.6476976627357534 -15.957869411750714 37 33 28
1.033183683661781 -2.7385605041515113 -15.882525902931881 45 41 38
0.7477990583176988 -3.367254723661887 -15.697561094809393 122 120 118
0.7471164874674587 -3.3748974674996965 -15.736963155063385 124 122 121
0.7559293423796469 -3.3647020914639336 -15.802509830847317 125 124 125
0.7567460799309755 -3.3695656798076836 -15.846283117755945 125 124 127
0.7541418896596168 -3.3808709540879702 -15.88073542839912 128 127 129
0.7537066238810011 -3.388115479358431 -15.92124917255257 131 130 132
0.7500633412774322 -3.4078471621560453 -15.994861166869393 130 130 131
0.7472202982005216 -3.4196446534405496 -16.028938201899184 133 133 134
0.743889648698119 -3.4323650209789944 -16.061717177606294 137 137 137
0.7274705496155867 -3.4695900667491264 -16.057917889194698 142 141 141
0.8486152585457627 -3.323437475676071 -16.91998337031635 175 175 175
0.8009566569310662 -3.418781213086759 -16.826483804417258 177 178 177
0.7856857491236702 -3.4539158435439106 -16.826278049970103 181 181 179
0.7520064272574281 -3.5231839174678123 -16.77247500078819 182 182 181
2.258774540689061 0.45789669235068065 -13.983427230812435 167 154 149
2.1965098457355343 0.3268413849782288 -13.899601290250834 114 79 73
2.141978581826253 0.21141619009480195 -13.83044932486397 113 69 60
2.0859359561796964 0.09302624110347235 -13.757837743477955 114 62 54
2.0463572746280434 0.007782220256666861 -13.717318907361381 118 63 53
1.9979461623423311 -0.095147120213805 -13.658947663575137 113 54 44
1.9623732940264813 -0.17224490980919782 -13.625700197829392 115 52 42
1.9436904827669643 -0.2154116477727026 -13.625855142464932 118 52 38
1.9509701249291234 -0.20649149062990624 -13.677815542960369 121 55 39
1.9387088380339996 -0.23677023795416297 -13.690751881960075 122 57 40
1.9222428200447697 -0.2754680691621143 -13.695188702308936 121 56 38
1.904088753109751 -0.31753356414718326 -13.696132291327565 114 53 38
1.8847288917776652 -0.361997001105383 -13.694530426804805 122 64 44
1.8744719981420026 -0.3882210765727816 -13.711246516831883 119 55 30
1.8623536172362594 -0.41816553726305283 -13.724154660524395 118 50 26
1.8464524407122729 -0.4556686428111538 -13.729313445518532 127 57 24
1.8349999699139554 -0.4842644863263166 -13.74346709306556 156 88 51
1.8222834832096664 -0.5153802885392826 -13.754993424407612 155 88 62
1.8093273835975983 -0.5469665940789987 -13.76597434670041 124 54 29
1.710439582334221 -0.750137340893458 -13.600119409761728 133 60 34
1.7299752168646827 -0.7167823317985702 -13.677546925430878 129 60 34
1.7253183556270135 -0.7317408165283927 -13.705235899421778 125 59 32
1.7462550078272492 -0.6956592387859324 -13.786013542448352 136 62 33
1.6923478329382908 -0.8145076508272373 -13.748895196689098 139 86 65
1.653456190362742 -0.8976653644548929 -13.705085243137939 146 93 78
1.645006273007555 -0.9201566162709254 -13.724698411927811 135 70 56
1.6319111153518868 -0.9518921022708247 -13.734547060890925 128 53 26
1.6100841577119993 -1.0009909022601677 -13.725953095658996 130 55 25
1.562529290459363 -1.101232463341816 -13.662902983597338 116 51 27
1.5473470678681576 -1.1370538782829804 -13.667920519654544 143 84 43
1.531348239733917 -1.1744852166229878 -13.671121691986967 172 101 43
1.5204825052703375 -1.2017066620516053 -13.685147060707909 172 95 38
1.5065749416502834 -1.2349618033194325 -13.692648764276013 176 103 52
1.5201030795067607 -1.2137566187525382 -13.758729997974413 188 133 92
1.513210373561221 -1.2330969148548592 -13.781273826628555 166 113 93
1.502693314860778 -1.259625048470891 -13.796035871886936 163 113 105
1.4917690123552074 -1.286955234360632 -13.809886679613644 158 104 100
1.4613011667520484 -1.3530011032854903 -13.781491502051846 140 71 53
1.4374997303348356 -1.405805843324587 -13.767276186221228 139 64 34
1.4441952918943808 -1.3982105771272577 -13.81907923087147 140 55 26
1.4079848044424255 -1.4755405882136987 -13.777664654185948 147 58 27
1.3985337973978724 -1.499893457424462 -13.7943134699352 143 59 24
1.3884169040392647 -1.5255593076010259 -13.809482467526205 145 58 29
1.3799758244896654 -1.5479086573436183 -13.828295562372137 142 59 31
1.3681503218725648 -1.576941745774608 -13.839655862801775 158 78 54
1.331630013864902 -1.654728364958208 -13.796536714647221 154 79 56
1.3034989775789807 -1.7499670862795176 -13.99592224475182 175 105 82
1.3000583765131974 -1.7681883122700066 -14.063593283569887 128 49 25
1.2664526107486354 -1.8399987911014373 -14.025441151987867 104 23 7
1.2124117042654992 -1.9519202266658295 -13.940672717383809 90 15 3
1.2265530708760901 -1.9298360430697743 -14.010290911644528 95 16 1
1.240254116583754 -1.908653799715104 -14.079152655249697 119 57 29
1.2215936905598965 -1.9510163169121268 -14.074351957708547 82 18 3
1.2077615006716749 -1.9838879435013732 -14.08047431041308 96 22 3
1.1876833024713664 -2.028994604345839 -14.072184434469845 103 25 3
1.164231444935878 -2.080690455316745 -14.055982816423464 99 21 3
1.1598371460448538 -2.095025272174701 -14.083557556079235 97 24 5
1.168275462297918 -2.0842383456832074 -14.140844790906575 108 50 28
1.1675807856170144 -2.0913540110069286 -14.177139734259168 90 42 28
1.1804318261865212 -2.0894003918049426 -14.359702128054625 85 35 21
1.1760931664748386 -2.103704708140472 -14.387922124742332 72 23 10
1.17434670723013 -2.112955011843284 -14.422279754019716 96 47 29
1.1737182777686166 -2.1200342715152383 -14.459342385176368 98 51 31
1.1746090539639984 -2.1241632716524173 -14.500079367463691 100 54 37
1.181984414517183 -2.115668313026929 -14.556295443034564 95 53 37
1.181508843500837 -2.1224950263922953 -14.59401951418724 68 31 18
1.1837731157418423 -2.123999156631423 -14.638357818185519 79 39 24
1.185522212612663 -2.126523616666659 -14.681580982976632 94 48 21
1.1903864756540437 -2.123004501517033 -14.732378000680416 117 68 34
1.1854183305157069 -2.138627079966212 -14.759706510817768 110 57 27
1.1943867507569272 -2.127167242052203 -14.82062377048871 109 55 33
1.1922503220843612 -2.137310627187576 -14.854932313051311 86 40 23
1.199628753711369 -2.128988405171218 -14.912332618140006 67 31 21
1.2020475246715245 -2.1303194297616397 -14.95788044881805 76 42 26
1.1994918922387086 -2.1413185944191797 -14.991449688658443 105 65 39
1.2068791014734 -2.133048141082038 -15.049324389827728 99 55 30
1.2144553170749597 -2.124439107685908 -15.107843677130521 80 36 18
1.225999003814066 -2.1081728756782026 -15.176271701433961 61 25 14
1.2255157849893057 -2.1152283344865985 -15.215385835076209 45 20 13
1.2512883991585415 -2.0714862207604527 -15.3192575020672 35 13 10
1.2604424813974706 -2.0599516783816796 -15.382506196953479 29 11 8
1.2222589289304768 -2.1399683164370744 -15.328779257812673 20 8 8
1.2261478059188105 -2.1386267364407052 -15.379083223474218 4 1 1
1.2239535458598088 -2.1490561151629572 -15.414395677471095 1 2 1
1.2150284491563703 -2.172489587510409 -15.432987557155684 2 2 2
1.2870886792838 -2.0396557088924823 -15.654063130904238 3 3 3
1.2609903655508699 -2.096281451746063 -15.630081429720818 4 4 4
1.2601743493166935 -2.104136943935573 -15.669403147779644 6 6 8
1.2818195218148738 -2.0687300968646776 -15.765398683507492 8 8 10
1.228515177664482 -2.1777111070684816 -15.67246759200196 9 9 11
1.1930804924334317 -2.2522096293092657 -15.624204467723224 13 13 15
1.162493808223126 -2.3173280071891647 -15.587894261512297 19 19 21
1.1171407827513233 -2.4107950127273217 -15.513715201811568 29 28 31
1.1115149007419096 -2.4278390828848115 -15.540402402388178 33 31 36
1.1102397296502324 -2.436529690640927 -15.578241196729511 37 35 40
1.1060886884577104 -2.450753927125028 -15.608786983049704 43 41 47
1.1006444420349923 -2.467466388074409 -15.636052586589095 42 42 44
1.0805048785576121 -2.5123679141764983 -15.625478640477798 36 36 38
1.0645675526379832 -2.549189201683755 -15.62559770087747 26 26 28
1.053403498477929 -2.576848463017937 -15.637969640596815 15 14 15
1.04979506194256 -2.5900315518803323 -15.669910595012404 10 8 9
1.0503862623672322 -2.5951842320894265 -15.712833154794062 9 7 8
1.0379137455611795 -2.625344231195264 -15.721775294250858 9 7 8
1.0355222487598754 -2.6362192237343827 -15.757022854035004 10 8 9
1.0377422855055163 -2.63829165720629 -15.804430925796414 16 15 15
1.0554737982798992 -2.6107560401801306 -15.892745509637026 27 24 22
1.0366528971211812 -2.65305102415552 -15.885059715274068 33 28 25
0.7083361551830711 -3.4096055367929985 -15.874459667629855 131 133 133
0.7900696259914453 -3.3735956580588464 -16.88025541371416 181 181 181
0.7517854251640899 -3.4517986769633104 -16.813054623240113 183 183 183
0.7348152336088456 -3.490164324735689 -16.807636866914493 184 184 184
2.3845880144693425 0.8027234654575972 -14.173495025150274 214 215 217
2.3244789703919224 0.6752799467533466 -14.094958928468627 214 215 216
2.27149257898882 0.5623189960403252 -14.02986563889689 208 205 202
2.222608729807596 0.45771963616600253 -13.97238255885505 145 124 120
2.1567071409011973 0.3187957465477105 -13.880924461363726 113 74 68
2.109046342981596 0.21680516067298772 -13.824934745012543 107 64 55
2.069468546428131 0.13119628277949769 -13.784558225008805 110 56 51
2.0281335353864796 0.04208957373148259 -13.740363100554411 109 54 44
1.9864229180039008 -0.0477232327899193 -13.695073923853103 108 50 39
1.9527055792013963 -0.12136261180505592 -13.66540135330471 113 51 40
1.9228707541293575 -0.1871344290474708 -13.643235468878437 116 51 38
1.9250486571909753 -0.18835776169140583 -13.68511975734662 119 53 38
1.9041680321186918 -0.23604751306803884 -13.68068624884721 120 54 38
1.87579983828364 -0.2987944686378121 -13.661002696448854 120 56 39
1.856500170449689 -0.34325480610331827 -13.6594538186988 118 61 43
1.8604387395018562 -0.3409381931489195 -13.704928653460728 157 95 62
1.8459145704186826 -0.37577495010345086 -13.712970817616894 153 79 34
1.8336105130433307 -0.406137186655009 -13.72546812285759 145 70 29
1.8203419194424735 -0.43843057947596975 -13.735944212734399 144 75 42
1.8060418392525555 -0.4727873247725505 -13.744246431552517 168 103 79
1.7940742339510476 -0.502449412589268 -13.757271547580295 133 65 41
1.7662947121971488 -0.5638456862985493 -13.737671548363547 119 50 26
1.6813679035526532 -0.7398828839293898 -13.599807347677704 132 61 36
1.704950903056798 -0.6981452471490259 -13.685848018859492 124 56 33
1.6746362818974136 -0.7645234282973892 -13.660308926891345 128 62 37
1.65655944602115 -0.8175137313924568 -13.734697389249321 126 74 55
1.6219971741950538 -0.8923072134019874 -13.699661185519744 143 93 79
1.6208123885231795 -0.9002682772132875 -13.734532868105916 133 67 50
1.6054139805231749 -0.9366696992689327 -13.73950187517155 131 55 25
1.5835588975715504 -0.9859677741684845 -13.730735892148456 131 57 28
1.5355360792878265 -1.0875409611432065 -13.666353347394121 110 47 28
1.520550457691391 -1.123047429336383 -13.67172960326732 114 52 31
1.5045376822206942 -1.1605927596976278 -13.674835362130668 127 57 24
1.4934182140289265 -1.1883563294298147 -13.688298296334855 144 71 27
1.4804684287650656 -1.219765896922799 -13.697801491358241 166 96 52
1.5002482583454577 -1.1858871402851863 -13.77750547609576 174 120 79
1.4922551191264515 -1.207423440566175 -13.797734559482674 173 122 97
1.4820755957688636 -1.2333159582375792 -13.813239816866984 163 115 103
1.4485101517126182 -1.3057893537447116 -13.778125141848143 152 95 84
1.4267482710277613 -1.3547162195069005 -13.768320644659724 134 61 38
1.404293103112679 -1.4049991576468113 -13.756849466888955 137 57 27
1.4151451174871887 -1.3889910588798875 -13.817816464188677 144 57 27
1.3802345566071583 -1.4640216748626855 -13.7789746198243 145 56 26
1.371924601371507 -1.486127723927611 -13.798108257902582 145 59 26
1.3559037403836007 -1.523554019887757 -13.80029329156199 149 64 33
1.3490805112399755 -1.5426974724469753 -13.822636433144304 150 68 39
1.3386054036984494 -1.5690920827875656 -13.836922666394425 151 73 48
1.3009996212741597 -1.6493226333459576 -13.791120693324373 160 87 64
1.2787312036532554 -1.7383675575203306 -14.041611214729437 153 88 72
1.2232434181303817 -1.8537214867905494 -13.95379701875469 115 36 14
1.2495205665963631 -1.8074259777414348 -14.051072533911796 102 21 6
1.19288466951324 -1.9249520373067792 -13.960006464282728 88 12 2
1.2114929367127516 -1.8938412710322652 -14.04007813754129 97 17 3
1.224642127450599 -1.8735482929773797 -14.107960519222075 117 53 26
1.1999513599497458 -1.9279310834285388 -14.089290342322023 83 17 3
1.1880040398362972 -1.9571579790648324 -14.099720747828659 98 22 4
1.1728570814007557 -1.9926825627109803 -14.10272102898612 100 22 2
1.1524744202970054 -2.0385072633715433 -14.093529302435037 97 21 3
1.1457183315613453 -2.05747790719837 -14.115756601410414 97 26 6
1.1583281025835217 -2.038334564457454 -14.182973997948253 107 50 28
1.1568013032081874 -2.0470366963431204 -14.217505281267819 87 40 25
1.1348876569062547 -2.0958374410429466 -14.204508920115739 92 45 28
1.151820981438429 -2.0797347005081157 -14.358965374498016 82 33 21
1.1449376677011671 -2.099003140302602 -14.381213941485303 65 18 9
1.1503324688278054 -2.0941834416288554 -14.432497522485319 75 27 15
1.149215351785311 -2.102156712411854 -14.468498116990286 71 26 16
1.1475191315841073 -2.111276299266464 -14.503197350814192 65 25 19
1.154015262951078 -2.1043551934889004 -14.557481447525454 60 24 15
1.151206247097886 -2.1156818083642905 -14.589708645110052 64 32 22
1.1534245048543914 -2.117176060782848 -14.634028244954994 81 43 30
1.1550555106692422 -2.1198366865674574 -14.677054419115525 77 36 18
1.1583396533319865 -2.1192807645408367 -14.724168358928559 95 55 35
1.163698118364259 -2.114689558584457 -14.776416720792005 90 50 31
1.1668232893721218 -2.114485089872697 -14.823419204067873 86 46 28
1.15888663365142 -2.1359025673016703 -14.843728327510002 67 30 16
1.1724528135262071 -2.1153459335206994 -14.916302376810254 59 25 16
1.1740288493328412 -2.1182214499497904 -14.95991401852054 77 43 27
1.1713098307283545 -2.129489602348361 -14.993143384398051 102 64 38
1.1775498827545805 -2.123303287352674 -15.048375154994918 100 58 35
1.184752216365789 -2.1152675296474976 -15.106139389648623 75 32 15
1.1909398536209441 -2.1092350095704138 -15.161587833777304 63 24 13
1.196134828457065 -2.1051601079925755 -15.214756610300444 42 15 8
1.219338214172481 -2.066073241103524 -15.312638703129316 32 10 8
1.2010430513319363 -2.1077411494873903 -15.307973206802515 29 11 8
1.2023805957139397 -2.111229947023384 -15.351992607707636 19 7 7
1.2128729122798116 -2.0969503630943747 -15.418945246942233 4 1 1
1.210642524727643 -2.107409336120356 -15.454329015014729 1 2 2
1.2046036184022215 -2.125270123442278 -15.480238445697822 2 2 2
1.2122597381549234 -2.1165670705485073 -15.540566082235829 3 2 2
1.2769152573856637 -2.003620767970644 -15.786363381897484 5 5 7
1.250280784285897 -2.0614739372102235 -15.760804747586242 7 7 9
1.226517030188598 -2.113733112236808 -15.742288707153532 8 8 10
1.195016449372341 -2.18093343226258 -15.703889094676494 12 12 14
1.1476627313598742 -2.27875097318278 -15.624760986406526 15 15 17
1.137789816357516 -2.3040337263691164 -15.64093625178364 24 23 25
1.108411724135254 -2.367001166171807 -15.607095879174693 30 28 31
1.094124627844512 -2.400781485084914 -15.61174642439843 34 32 36
1.0853583356841696 -2.4238918839139014 -15.630529934263228 42 40 44
1.0699202756487989 -2.4598722144684286 -15.632070810831626 41 41 43
1.0474716183921484 -2.509356434739086 -15.615362054284336 39 39 41
1.0316499741639307 -2.5460386759059164 -15.615657419840748 34 34 36
1.0126772946403761 -2.58877505664175 -15.607647111571001 22 21 22
1.0088501589238994 -2.6023268872816905 -15.638989154971249 13 11 12
1.0171966816188653 -2.592457957805288 -15.702210032212085 10 8 9
1.011358279417055 -2.6099049292452223 -15.728456918984996 9 7 9
1.0117840816699768 -2.615312227015468 -15.77118762396692 9 7 8
1.004522884687729 -2.6355060583863947 -15.79377258219775 11 9 9
1.022762391149617 -2.606725355668279 -15.883710165599005 25 21 19
1.0373396868857816 -2.5850256106762037 -15.964293367976083 38 33 30
2.277837015485395 0.6545288322218425 -14.063985747592337 214 214 215
2.229690043629949 0.5509763630149012 -14.007986077126628 203 198 195
2.172967144493249 0.43006568207527174 -13.9346391749574 138 111 103
2.123362094825807 0.3236808021299513 -13.874883818902436 119 71 61
2.0845296158331648 0.2392234543924996 -13.836083213451314 114 65 53
2.0388289781580777 0.1408786732684426 -13.78329381829245 109 55 47
2.008395405851872 0.07355473778537913 -13.760576505560884 108 53 44
1.9692200305242922 -0.01145717415132097 -13.720135866450732 109 50 39
1.945190976197578 -0.06572592525529952 -13.709748962163918 111 49 38
1.9184816805620957 -0.12539931626159273 -13.693802527292268 114 49 37
1.900865063116267 -0.16663051932974238 -13.695990479471117 117 51 38
1.8809823290372139 -0.21243365367335176 -13.693493942589999 118 52 37
1.8582567770469305 -0.2639703735467904 -13.685108206848836 116 52 36
1.8285506283593878 -0.32960358488214503 -13.662380553813339 117 61 41
1.8319927337325275 -0.32817870258832826 -13.706949142376452 161 96 57
1.8174907275171295 -0.3630390652551805 -13.714984868480673 169 90 36
1.805082536136629 -0.39365842640162096 -13.727235639234078 165 88 34
1.7911092886703175 -0.42743113791984566 -13.736222791385277 175 109 64
1.7758507922527618 -0.46378862288578127 -13.742497183393633 182 123 93
1.764177060357655 -0.4928999324943284 -13.756087991874397 136 69 44
1.6960694378712995 -0.6358465608509709 -13.652876331871305 124 53 28
1.667114197282681 -0.699748345260625 -13.630232195732965 136 62 35
1.6686567587515466 -0.7021424864808541 -13.67078354774902 125 56 29
1.6501948765062904 -0.7448577430542738 -13.669722672391659 133 64 39
1.636167771419671 -0.7786236008574727 -13.677814687828363 156 81 55
1.6061102675396337 -0.8446532258965478 -13.652240594495218 169 105 79
