ply
format ascii 1.0
element vertex 697
property float x
property float y
property float z
property uchar diffuse_red
property uchar diffuse_green
property uchar diffuse_blue
end_header
-0.3449068458486755 0.16778145398342065 -12.62725953638515 123 41 19
-0.3018006739822505 0.16350405343950902 -12.626952255286099 123 41 19
-0.28863891486924853 0.15974921951078086 -12.650978910991293 123 41 19
-0.2633393175634877 0.1557865129206364 -12.665103028550085 124 42 20
-0.22978194393665508 0.15168906658339465 -12.67242429238646 126 44 22
-0.19818411682234238 0.14763010016002648 -12.681295764716651 129 47 25
-0.18938775168468336 0.14394445293281655 -12.708938798763686 129 47 25
-0.15948628639615503 0.13991794547761982 -12.719160672167046 131 49 26
-0.09574618082048492 0.13536655566713102 -12.70123743451988 136 54 30
-0.055293189111807806 0.13119506793534474 -12.702499056629705 135 53 30
-0.022482657640605197 0.12714935832696328 -12.710046006528266 134 52 31
0.036469293691585136 0.12271976419808694 -12.695637173320304 135 59 36
0.08400691388200254 0.1184766919468409 -12.690628867265758 135 63 43
0.1449764097677404 0.1140532279095074 -12.674173319889256 144 77 60
0.2153045515778098 0.10244571144403342 -12.719266225769744 143 70 47
0.24713472363793976 0.09846724412048252 -12.727116038047239 137 59 31
0.36693359885360266 0.08270650585286282 -12.764412410306232 129 53 27
0.3625373572830277 0.0791979873670528 -12.803299258883325 130 53 27
0.37300898923201853 0.07549963118176362 -12.829418124569138 137 62 35
0.3896405515240051 0.07172449102498668 -12.850228669382997 125 46 22
0.37760332557378895 0.0682757824578284 -12.896049174076872 107 26 5
0.39184323820875466 0.06451684814454506 -12.919054743671222 96 19 3
0.42142082456880736 0.06058730270565077 -12.928640417785896 81 17 6
0.43905572364400847 0.056790232277721286 -12.948679158724337 63 12 5
0.3976749880514818 0.05360719276365555 -13.020772412756925 56 14 7
0.3272852182955397 0.050687653107953756 -13.118830481351042 53 18 12
0.35085841846051125 0.04679038575934069 -13.13400971769197 28 11 8
0.36122388760749047 0.04302238125505409 -13.160919134023386 7 2 1
0.4127047459558435 0.03886310542908861 -13.151203203590692 16 12 13
0.4472178188303033 0.034875081797122065 -13.156505748196366 13 11 12
0.3109047003217009 -0.012944665311353187 -13.761730661288645 11 7 6
0.4911554897910406 -0.017772829022364323 -13.631825352226613 10 6 5
0.5524040683934519 -0.02190153937138034 -13.61219174010095 9 5 4
0.6134408343564974 -0.03362240250472076 -13.667548740159447 6 4 5
0.6772193927106205 -0.037705675577138664 -13.644976733487237 22 7 3
0.7449940537293029 -0.04178019754037349 -13.618384245890208 119 70 42
0.8031332159381472 -0.0457947300579174 -13.60068730550903 138 57 25
0.8566300634537605 -0.04977328968984224 -13.587206533579025 125 48 27
0.8726002436865681 -0.05362248180365714 -13.609397634561 125 60 43
0.8884650806556653 -0.057473701005126054 -13.631712415798996 129 69 56
0.9333430398539289 -0.06139686019508872 -13.626171508795327 152 92 78
0.9848849183343171 -0.06532028495670145 -13.614072388753272 157 97 75
0.9956474356449689 -0.06915114213313384 -13.641209992845756 156 110 84
1.009301004228262 -0.07299172521176628 -13.665597069366493 116 75 55
1.0395530945685714 -0.07685706437800843 -13.673886247563164 118 59 37
1.0549895804485692 -0.08070196809421792 -13.696560546320736 109 46 17
1.0919697785688625 -0.08456471329075144 -13.698200149727311 125 55 25
1.1262347917524878 -0.08841667857925506 -13.702406753139954 120 41 15
1.1900206786985823 -0.09226452585704692 -13.677508606665507 132 54 29
1.2032733784784657 -0.09609490842179025 -13.702189876358938 145 75 46
1.2240941075857341 -0.09992582691847535 -13.719425472517052 173 104 74
1.2320449790073544 -0.10376559919151473 -13.749419039488359 175 111 80
1.260040401636485 -0.10759196249582198 -13.759546065885122 149 85 64
1.3012197230216485 -0.11139646677044879 -13.75647783792424 143 73 48
1.3127878161960371 -0.11523590032047021 -13.78290680492735 133 57 27
1.382878013050231 -0.1189697262643219 -13.750678775098844 129 48 25
1.4124455598537455 -0.122762573029008 -13.75892786283691 130 49 26
1.4368277280401625 -0.1265625586627086 -13.772352429000835 156 80 52
1.4661993510885942 -0.1303460678103775 -13.780702434812177 178 115 78
1.496759489217225 -0.13412031375935118 -13.787791070051881 171 120 87
1.5373300700355887 -0.1378545736925566 -13.784630264535448 131 84 60
1.584042378728495 -0.14155404504349878 -13.77508007860865 133 73 53
1.6291523316648435 -0.14524380896355366 -13.767011842711737 141 76 45
1.6689195952072584 -0.1489411397366866 -13.764278178037927 155 83 43
1.69939627402497 -0.15266875060021834 -13.770989629748524 142 59 25
1.7299436869781157 -0.1563895242586068 -13.777564095671508 143 56 26
1.8218767603231463 -0.15978722388153982 -13.720520280759763 144 59 29
1.8630322157192172 -0.16341835589623604 -13.715767847178157 143 56 26
1.8982725178737674 -0.1670704485027979 -13.717045519907876 141 54 27
1.9312160149465347 -0.1707268924861507 -13.72062732699968 139 52 24
1.9720868554852906 -0.17432460012416395 -13.71582587795992 149 67 38
2.007993590702342 -0.17794234070921994 -13.7161090627346 142 61 29
2.043807298734574 -0.18155060227324904 -13.716390467997558 150 69 38
2.0650922469263007 -0.18525471401157678 -13.731919990439522 140 59 31
2.0833912363667357 -0.1889803457885359 -13.750601249649481 138 52 27
2.106920163347853 -0.19266525758005737 -13.76373238961741 141 55 29
2.142414759143848 -0.19624917583028356 -13.764088190846424 145 58 31
2.1419858350084624 -0.20012967793503872 -13.802733103968567 151 64 36
2.1448668664665957 -0.20399326698360032 -13.837952674085479 152 65 35
2.1756154384838453 -0.20761185495544382 -13.843322572310427 153 66 36
2.2073732345834705 -0.2112137257016664 -13.847534195793827 153 66 36
2.22265696958432 -0.21496912500465165 -13.869477271325657 157 70 43
2.2804940745349995 -0.21829684005592365 -13.8453126202249 159 73 45
2.335372733305637 -0.22163094312625586 -13.824123569798722 163 78 51
2.436755846695478 -0.22444251010474336 -13.752002548314515 156 75 49
2.5200059376412485 -0.22740221301533586 -13.699193159296781 164 85 62
2.7314359364642327 -0.2754019946420715 -13.963827842889508 141 67 47
2.7555194198404314 -0.2789847640580986 -13.975406911471724 141 72 53
2.8205401191157105 -0.285864994515794 -13.979161778363578 152 89 61
2.83619937226097 -0.28957234379975266 -14.000261856282812 139 81 51
2.8926880367971597 -0.2925876274482762 -13.974347361866851 127 74 42
2.883557876832783 -0.2967156676793602 -14.023997133329914 139 83 52
2.894152318856249 -0.300514007196406 -14.050979916343753 153 91 61
2.9085660548835914 -0.3042492515215794 -14.073581007160685 150 82 54
2.9297572499682936 -0.3078631434506068 -14.088314174704259 140 71 46
2.9470252835147184 -0.3115489831993907 -14.107618492806974 126 59 36
2.963066158504075 -0.3152594372299673 -14.128373434043588 117 58 39
2.970287426066574 -0.31914315870419707 -14.15951821394378 112 62 44
2.9568281530627525 -0.3234437137536279 -14.215129384033478 107 61 46
2.965623879761524 -0.3273194893369189 -14.244645795206983 106 58 47
2.973817805359559 -0.33121480462474967 -14.274947162130271 104 58 45
2.979955284756148 -0.3351605994743734 -14.307770381673802 111 62 48
2.989567340050436 -0.33904204285998424 -14.336538920184026 115 67 50
3.0057819483337838 -0.3427881939442824 -14.357474428792404 109 61 46
3.0176180240991073 -0.34663221398614036 -14.383684735442127 98 50 39
3.0349240870029366 -0.35035989558200964 -14.403363751228207 96 49 35
3.038012149079175 -0.3544100264895292 -14.44021691534131 119 73 51
3.0440406472654775 -0.3584042550120808 -14.473624497830984 134 86 60
3.0536371337593646 -0.3623248431186865 -14.502793936553807 131 81 50
3.0582731001699113 -0.3663697826953359 -14.538072008129769 128 76 46
3.0699652841864724 -0.3702557982892767 -14.564837633243194 118 67 41
3.0720961560834255 -0.374380522282952 -14.603367915589715 101 56 35
3.0810401487244565 -0.37834912864775416 -14.63365272999637 90 47 31
3.088173130754215 -0.3823708292235648 -14.666243512383506 101 57 40
3.0958312892675774 -0.3863881177867603 -14.698273784773134 91 49 30
3.0986861978161873 -0.3905382195983465 -14.736341200671571 77 34 20
3.1064846151097107 -0.394570911260137 -14.76838510332071 66 22 14
3.1123691420252104 -0.39866312239609164 -14.802899550484032 72 30 24
3.1182674836500617 -0.40276505047896277 -14.837496107773168 62 24 17
3.12478255551813 -0.4068602483033671 -14.871419183106024 56 18 10
3.1296642129764605 -0.41101043524898245 -14.907492042327767 62 22 13
3.1602675280197783 -0.4144491027144479 -14.91123274832113 82 45 36
3.1673735352854377 -0.41854832147945964 -14.94461363591946 101 64 53
3.165864956971787 -0.42290542711477525 -14.989016006353829 114 75 55
3.1733892778402835 -0.42701453058799127 -15.02208241519007 118 77 48
3.1715255133779214 -0.43141076527105887 -15.067219894947577 110 61 32
3.179036973511818 -0.4355422614360741 -15.100519531723748 108 56 32
3.0827000156215956 -0.4428371825562737 -15.267220532319904 97 54 36
3.0446867277842298 -0.4708390730936406 -15.580462060291355 55 36 34
3.084726356329482 -0.47404330605467027 -15.57260327146385 17 7 7
3.099773213032229 -0.47806884701903785 -15.597440433798436 5 2 2
3.111387550871201 -0.48221470060912486 -15.626842083560955 4 3 3
3.263602788417841 -0.4951132186203384 -15.60403093991809 3 3 3
3.261982499857318 -0.49972549512140996 -15.651056704348063 3 3 3
3.268284834986111 -0.5040677282371281 -15.687622502561254 3 3 4
3.472699918521977 -0.5102025236025323 -15.546796933046146 10 6 9
4.011420965836365 -0.5117947884991094 -15.03209354163905 84 33 22
4.076912602110058 -0.5135828281762654 -14.98522709935696 101 42 28
4.1778057744618105 -0.5226558472573841 -14.975263224299347 120 71 58
4.205325774494658 -0.5259099784950212 -14.980221880062526 120 75 64
4.2423349755435265 -0.5287571632902769 -14.97182974335281 123 81 73
4.283568682590845 -0.5314091408019475 -14.957355677889947 123 82 74
4.316722993247592 -0.5343890037353423 -14.954065665350686 120 77 70
4.3639566163174965 -0.5367455467717275 -14.930774497045567 116 72 63
4.406091521907743 -0.5393009328266359 -14.914461756669834 115 69 61
4.602344431568094 -0.5568293833459261 -14.893898652583367 116 73 62
4.626994985586172 -0.5600850007420147 -14.901697002761344 111 68 57
4.6101187858501405 -0.5653007440729718 -14.9696867687482 106 62 51
4.6618026241313375 -0.5672722279883106 -14.938221429304814 105 59 46
4.69018610269996 -0.5703377402161109 -14.940472082858676 104 57 43
4.6835256609531175 -0.5751001713123713 -14.993939039972105 97 48 34
4.718859722977799 -0.5778221436420768 -14.98596279558037 97 48 34
4.7493127756014974 -0.5807708704398638 -14.985025564435736 103 55 41
4.783135399968536 -0.5835400994337256 -14.979002850091256 108 61 49
4.8076579437841005 -0.5867648692716686 -14.986623384269027 97 50 39
4.830543296910027 -0.5900674558893182 -14.996622270742767 93 43 31
4.854189284695321 -0.593326814682496 -15.005446499032718 106 56 44
4.871626880068417 -0.5969033580265855 -15.0235073178827 102 52 38
4.880714154899986 -0.6009177807371684 -15.054102353876916 94 39 23
4.895427519242265 -0.6046437961298319 -15.076317547387838 90 33 16
4.908183519809205 -0.6084775135608695 -15.101520680547516 87 30 15
4.950339346433463 -0.6107367526688885 -15.082270319879775 85 29 12
4.964194517821594 -0.6145076851649369 -15.105772859906393 83 27 12
4.982418098708323 -0.6180440340115372 -15.122663939913956 84 28 13
5.004065655311198 -0.6213916989448693 -15.134325491958286 83 28 14
5.018957997434349 -0.6251120235989691 -15.156308423158979 81 26 14
5.031707049817083 -0.6289559220738598 -15.181618679453848 79 23 12
5.0445062729937264 -0.6328023833026195 -15.20690478400704 77 22 10
5.046430972208365 -0.6888658078630587 -15.75722994945776 82 49 42
5.188397736421089 -0.6990286481407488 -15.717562536800004 87 63 58
5.1853627079171485 -0.7088586909263497 -15.817375721096845 92 72 69
5.198651483039722 -0.7176856991220897 -15.891237822260166 95 78 75
5.126928729602904 -0.7273764038532643 -16.05730366868714 96 81 76
5.082801543597905 -0.7352957948987994 -16.178753556128854 85 70 65
5.056622793160078 -0.7420583886174066 -16.271138311215616 80 65 60
5.0351706318745135 -0.7485441804303574 -16.356143121317054 82 69 63
5.031027258881033 -0.7538752453871829 -16.412732945004095 85 74 68
5.2470932935797086 -0.7945295261942871 -16.600450737042166 161 157 156
5.257517068193045 -0.8041188304551776 -16.68464207047002 166 165 163
5.285991367056975 -0.8071496954243108 -16.68646203608349 169 167 167
5.3041999356571505 -0.8109650066711812 -16.706115652682264 173 171 172
5.359163400297748 -0.8329576162885568 -16.868627852834255 189 189 187
5.425303826090366 -0.8329273580747477 -16.803212574098257 193 193 193
5.512709894452842 -0.8311116341976698 -16.699273941917482 196 196 196
5.558007365079954 -0.8326695197362942 -16.670022263684885 198 198 198
5.594198918209337 -0.8349489284541144 -16.656842578586954 202 202 202
5.571255471723062 -0.8474322967023669 -16.802391235076996 205 205 205
5.678345146450597 -0.8437274261152625 -16.660465561936654 206 206 206
5.735167225355908 -0.8441881954551047 -16.609061056630615 207 207 207
5.748501238670744 -0.8589297752906786 -16.74113666034123 210 210 210
-3.485844545906968 0.4474724864499704 -12.660179283011656 212 212 212
-3.384428097748051 0.440803861365502 -12.627350107094202 210 209 211
-3.29211588196418 0.4344366549879731 -12.600364745589859 206 202 202
-3.1848210066817426 0.4276574467991323 -12.562943327785025 177 161 157
-3.0541525666683995 0.42023056234823475 -12.509289342962168 112 79 71
-2.9575208378526847 0.4138345231540205 -12.478418651912413 101 60 52
-2.844532559093498 0.4069982270990542 -12.436062103775242 98 53 45
-2.741714603717705 0.39336483923937793 -12.469757859533143 103 47 36
-2.753586432211489 0.38653323423195296 -12.547787683195043 104 46 34
-0.7807192281134441 0.19061376464250834 -12.554265245197476 121 43 21
-0.7551764705766439 0.18659151578859384 -12.568828105287459 121 43 21
-0.7148579376482767 0.18230435990615967 -12.571720909429143 123 43 23
-0.6595995942980633 0.1777596993106501 -12.562713298894167 126 45 26
-0.6112000791182348 0.1733521589835622 -12.558984938333683 124 43 22
-0.5758142346903217 0.1691840037583187 -12.56547575001078 125 43 22
-0.5818128520200228 0.16573275538084048 -12.604896587344557 126 44 23
-0.5530937313928277 0.1616817815551348 -12.616675676326405 125 43 22
-0.5062305357459254 0.15733208160309448 -12.613865454524028 128 46 25
-0.45946746236440816 0.1529965708139734 -12.611013520438647 126 44 23
-0.42967397209261193 0.14894863766911082 -12.621726707368076 124 42 21
-0.36678844496920604 0.1443767665364516 -12.605627588915276 122 40 19
-0.3587509549897341 0.14068803101367683 -12.63382457998895 122 40 18
-0.29922749675810056 0.13619586591064997 -12.620191504699445 122 40 18
-0.29282880844704184 0.13253279463091594 -12.649719062330679 122 40 18
-0.2531118687809757 0.1283629443614842 -12.65204889545167 122 40 18
-0.22701819442936522 0.12440372404986422 -12.665466116843259 124 42 20
-0.2102633662117741 0.12058304357269589 -12.686540820519873 126 44 22
-0.19619155224426343 0.11679903731595798 -12.709845971229267 130 48 25
-0.14161272164618754 0.11244324119759813 -12.699653152074593 143 61 36
-0.10145879213750142 0.10830326564616188 -12.701270341586111 127 44 21
-0.05011999513485943 0.10402147743894502 -12.693481390493371 129 47 25
-0.0280051791463638 0.10014394937285043 -12.7099402136672 138 57 35
0.017805516985387904 0.09595788471586186 -12.706550419405112 141 65 42
0.059243094739293234 0.09184056554816566 -12.706708680631742 141 71 49
0.12048077378289257 0.0874849545930812 -12.690091356755314 148 82 65
0.15299616375476344 0.07272653783453437 -12.802560713735723 128 49 22
0.28470687008039075 0.06762278449262693 -12.725260803953638 130 52 25
0.32356308267736633 0.056414202611716424 -12.797018456257687 134 55 28
0.34855950102195354 0.052546796086695546 -12.81059922787194 130 54 28
0.36153896109926276 0.04880287700322905 -12.834567314428673 138 62 36
0.3759901852777876 0.04504101561360346 -12.857290692248316 122 41 18
0.363912078029645 0.041529710027514266 -12.903160719169508 104 24 3
0.3777241640702931 0.03776142741382921 -12.926563148391605 89 16 1
0.41628928888119177 0.03376633713744487 -12.928300783925884 72 10 2
0.4083463847506881 0.030189094739026368 -12.970824860609085 63 11 5
0.36988938676801286 0.026857416297212056 -13.040387683098055 58 17 11
0.32238534230403726 0.023570187938864673 -13.118243510382635 45 14 8
0.337439552395284 0.01974735870651867 -13.140979462951417 19 4 2
0.3609859794466601 0.015856155632380353 -13.156190718487036 8 4 3
0.3989833496187334 0.011858666792112116 -13.158499349674845 28 24 25
0.44681450788040955 0.007799583121715137 -13.15192322349699 9 7 8
0.3251684068693468 -0.04083926855741632 -13.743276672969422 10 6 5
0.4876116880312402 -0.04528859693964332 -13.629956230606872 10 6 5
0.5565726823620176 -0.04936187558018412 -13.603137953720783 8 5 3
0.5642285457207885 -0.057084146630060395 -13.671012807994753 4 3 6
0.6211010461305895 -0.06108448496567237 -13.655143463802158 10 3 2
0.6796716302959487 -0.06506816916037628 -13.637473949556512 68 35 20
0.7417968758592188 -0.0690370593078552 -13.616231656952355 143 74 36
0.8000997980352604 -0.07297678174108357 -13.598391872675432 129 51 26
0.8488239535448576 -0.07688321973020223 -13.589466773912733 123 57 37
0.8519502564985775 -0.08072926133028735 -13.623933845933001 131 70 53
0.8723481716397838 -0.08459681994881163 -13.641951522473125 153 92 77
0.9465179982228173 -0.08848632972614401 -13.60831817574105 160 97 77
0.9645843689751565 -0.09233811236227346 -13.628430962621577 158 102 75
0.9682515879057041 -0.09619326878928458 -13.662465132310492 137 97 73
0.96479880092207 -0.10006088602982616 -13.703488245020193 110 55 35
1.0115498796697997 -0.10390554578401162 -13.695864175818954 133 66 40
1.0525129793363979 -0.10774083018148528 -13.693731452039675 118 52 23
1.0934852976122649 -0.11156412926176773 -13.691473030846671 117 43 17
1.1333989059469767 -0.11537707474524778 -13.690134870268086 113 38 17
1.181180894079156 -0.11916379951808587 -13.680951832672122 124 57 35
1.2141551624142766 -0.12296647952878315 -13.686206871929077 143 78 55
1.2228819973420775 -0.12682110256711276 -13.71535566072248 178 107 77
1.2300090625525204 -0.13068664818041403 -13.746153933797356 176 111 79
1.2413196009566798 -0.1345469834028724 -13.772866316573753 140 82 58
1.2799180915884518 -0.13832152786508067 -13.77242238838849 142 73 46
1.3199730139218255 -0.14207986001007472 -13.770415678193402 137 58 27
1.3831696867428098 -0.14573566864366577 -13.745088745611238 133 49 23
1.4111452076672153 -0.14951432575910073 -13.754931136761371 132 53 27
1.4357781732627348 -0.1533032518731287 -13.768097622367527 163 89 60
1.4573686837242823 -0.15710396433312618 -13.784313532603646 167 107 73
1.4894862328840546 -0.16084988349334428 -13.78984173225432 153 105 76
1.534147305106222 -0.1645206558476618 -13.78253888932825 129 72 50
1.5798880595151665 -0.1681703623852122 -13.773989352002978 134 70 44
1.6250072779320925 -0.1718081784601007 -13.765923427317823 152 92 53
1.664837009685865 -0.1754640432918611 -13.763135302245828 149 74 36
1.6890672244471618 -0.17921085573195877 -13.776279826870113 137 52 22
1.7277655867925805 -0.18285485456063166 -13.774467305584988 142 55 29
1.8052319794307365 -0.1862073597063823 -13.732420796538403 139 55 28
1.85861122025434 -0.18970578590590265 -13.715029324623735 136 51 25
1.9034790915842743 -0.19325013387796114 -13.706294917883735 137 51 25
1.929652481137448 -0.196931047059775 -13.716922943395367 137 50 27
1.9629248292654617 -0.20054784843814089 -13.720078949918367 149 63 34
2.0100159456765416 -0.20403507988427588 -13.708643500328725 146 61 29
2.0372974295786817 -0.20768477387302148 -13.717898474762855 145 61 31
2.0533075321995584 -0.21143527135468687 -13.739007508300174 155 72 45
2.082782795081333 -0.2150573736334278 -13.745877602053021 144 57 32
2.0974698113458494 -0.2188211072145373 -13.768391795760438 142 55 29
2.155453882730959 -0.2221409936579795 -13.744818796971819 150 63 36
2.1657369741370838 -0.22594380865846853 -13.77196161266825 151 64 35
2.1513685072828928 -0.23002228590522672 -13.82556827927775 150 63 34
2.175625337077636 -0.23368691799298708 -13.837886224759512 156 69 39
2.245811022453595 -0.23681631277153126 -13.800687846568945 165 77 48
2.284151286680359 -0.24029239655789125 -13.797584268276434 160 70 44
2.312549261701509 -0.243877832061337 -13.80513610044027 163 75 45
2.375997077693298 -0.24701763970963936 -13.774538122047414 159 73 43
2.4119755801239853 -0.25048246424791165 -13.773602818775526 156 73 45
2.4861849019419546 -0.25343208057440203 -13.730771424457068 160 79 52
2.541364975195454 -0.25660319911992296 -13.708453130694767 161 83 60
2.8460047438241585 -0.3030056098501535 -13.86684267854644 142 70 50
2.8713967713900495 -0.31049680554886155 -13.915358361682397 153 86 62
2.872442564985498 -0.31446835560612324 -13.953055332459767 143 74 44
2.905179168231448 -0.3178440016673296 -13.954377848354763 131 70 39
2.9009255964448766 -0.32193274725893944 -13.998328405399455 136 84 55
2.9124225938287323 -0.3257243852681134 -14.024191436873185 138 84 55
2.926420283346717 -0.3294706246723635 -14.047200017538785 156 97 65
2.941574559033125 -0.3331965381898385 -14.068894938295362 149 85 56
2.960453671840919 -0.3368472093750276 -14.086263827053259 135 67 41
2.9761742144872603 -0.34056514863194487 -14.107334847811195 113 44 23
2.9864031003196754 -0.3444041145120725 -14.134882263656376 113 56 34
2.978465352670442 -0.34864838150328264 -14.183902012004143 113 65 46
2.9834198080773344 -0.3526238763039704 -14.217867381518264 110 61 47
3.0058476659940245 -0.3562131223855425 -14.23121474444904 104 58 47
3.003262644075887 -0.3603760918537938 -14.27427929106808 107 59 47
3.012625759204732 -0.3642750600390992 -14.303246540668695 112 65 48
3.0011508067633255 -0.3686758097244316 -14.357203089928447 115 68 50
3.023777675841411 -0.37227653333094624 -14.37047035631872 108 59 47
3.0515836353550627 -0.37574808838183676 -14.377483360078827 102 52 39
3.059109399747425 -0.3797168653307789 -14.408903138668366 110 61 35
3.064424901266875 -0.3837497469324856 -14.443079542734237 130 80 44
3.0714093720110016 -0.3877500710415456 -14.475328868904954 125 74 39
3.0767991175823814 -0.3918006397249212 -14.509606035517752 96 47 21
3.0802471697025418 -0.39591236627524556 -14.546352064090536 81 34 16
3.082691791946984 -0.4000624376080521 -14.584439635180733 76 33 20
3.096870289739212 -0.4039079169394331 -14.608240985810596 75 35 25
3.1040715686992755 -0.40794826247893345 -14.64067123089215 89 50 41
3.1088669826928967 -0.4120643727033365 -14.676160402333526 95 56 47
3.1127451069967034 -0.41621710804277157 -14.71289127154323 89 51 43
3.119297812206441 -0.4203051790352878 -14.746412209108641 100 59 47
3.1253705511676655 -0.4244167285473282 -14.780624906922688 98 51 31
3.132579372844627 -0.42850507531528254 -14.813515684058887 97 45 21
3.141667312176631 -0.4325469705201225 -14.844141279601695 101 50 25
3.1443781383063225 -0.43678807098972966 -14.882859233309564 96 48 25
3.1796488701526737 -0.44005252426386626 -14.88065383501636 74 28 13
3.1900992043249454 -0.4440686244854324 -14.909713960374166 97 56 42
3.194978747066222 -0.44826515599254585 -14.945905751148329 100 63 43
3.1919736706390784 -0.4527215276790415 -14.992234875958886 116 76 47
3.186311534857909 -0.4572800480691684 -15.042122344870439 100 53 23
3.204034124242 -0.4611026211425715 -15.062282052641413 81 33 12
3.1390454525050346 -0.4676306469415145 -15.188586390113173 62 21 11
3.0991598729128453 -0.5050479486237127 -15.591716600910274 54 38 35
3.1923162003852275 -0.506257336040906 -15.51365032362248 32 17 17
3.203657248380625 -0.5104060226513134 -15.543143475162974 19 9 7
3.2113213950479382 -0.5146978722493778 -15.577578359640391 12 6 3
3.2182251593321647 -0.5190281571196911 -15.613121240427132 8 4 2
3.228429617412501 -0.523244122226906 -15.644366352487133 8 4 2
3.1880367600098944 -0.5294040543068507 -15.743359793390205 6 2 1
3.2262216556696517 -0.5325747017930644 -15.737429372295818 6 2 2
3.2323853764639017 -0.5369819759980393 -15.774436369489955 6 1 2
3.295011903783089 -0.5391709029438649 -15.735363521874504 8 1 2
3.3426903929983087 -0.5419212547284866 -15.716180095667738 15 8 9
4.100962661811831 -0.5423411137257309 -14.988890901214603 97 39 26
4.1486625255302165 -0.544723667175234 -14.966102393221849 108 53 39
4.217156246803961 -0.5506019514229101 -14.957325925387924 122 75 64
4.237411337896481 -0.5541445269165413 -14.972314161299987 124 80 72
4.332452610053843 -0.5543222250260722 -14.88237521553937 120 77 70
4.315545246625805 -0.5595174387761694 -14.949314158348404 118 74 67
4.372042773592329 -0.5613784080598967 -14.912956764611007 115 69 61
4.4001613405498246 -0.5645198052372125 -14.916450615863898 115 68 60
4.530524552945226 -0.5761427480642639 -14.903984709345302 113 69 58
4.5324741966043876 -0.5805030701740398 -14.944598753652421 113 69 58
4.5953748898762425 -0.5863549039036713 -14.94095918386677 108 64 53
4.607453965837771 -0.5902286257547558 -14.967060746914173 104 59 47
4.634572037617968 -0.5933520613750265 -14.971344563367683 105 57 44
4.670939421045816 -0.5959985333730544 -14.962058722876293 104 55 41
4.676131581479515 -0.6002243774227418 -14.998234654866863 100 52 36
4.713783520716828 -0.6027862074719179 -14.98688491578743 99 52 36
4.749829781449785 -0.6054141666479086 -14.977728388682351 97 47 33
4.782595437646687 -0.608198390365255 -14.973259036202082 105 54 42
4.805300357073425 -0.6115027651953092 -14.983562883406321 100 51 37
4.822270740529959 -0.6151098265109924 -15.002347800405337 106 56 42
4.83763162277556 -0.6188050311428173 -15.023544160984677 97 46 32
4.855981769177025 -0.6223404318818017 -15.040299861689842 88 32 19
4.862422220689544 -0.6265294277529491 -15.074912659182448 89 31 16
4.865275185377237 -0.630928209770284 -15.115030237773155 89 32 15
4.877430806545745 -0.6348224409121934 -15.141257848324273 85 30 14
4.935849000863357 -0.6361185586308518 -15.097543007488007 84 28 11
4.956750221857928 -0.6395063423232622 -15.110399467781866 82 26 11
4.974987778035572 -0.6430442058121579 -15.127287767139507 84 28 13
5.002654163966699 -0.6460379860208922 -15.129779127410856 87 34 19
5.016519755102279 -0.6498260593434515 -15.153322824048418 84 30 17
5.020201058370199 -0.7108859558656947 -15.744845677249721 81 47 42
5.119664522672887 -0.7482935032306028 -16.013473632101253 96 80 78
5.089431729644057 -0.7553719691749955 -16.111619111560323 93 79 74
5.008602174372302 -0.7711278628253897 -16.343134913789953 81 68 63
5.029025984519542 -0.7747583648341781 -16.358817322634657 84 73 67
5.001021118923686 -0.7818702815907383 -16.45513988827161 87 79 72
4.94693419847549 -0.8013115886700375 -16.69677851657856 102 97 93
5.2412327408800845 -0.8207932686402827 -16.60278022873631 160 156 155
5.254057121180035 -0.8250229548462271 -16.631632053255064 164 162 161
5.2640574501522455 -0.8294832989761441 -16.665455708548755 167 166 164
5.2730624057127 -0.8340335263360175 -16.701115415687987 170 168 168
5.294758238943113 -0.8375777747214694 -16.714730307259156 174 172 172
5.5276794024167355 -0.8715013830196485 -16.820679935464558 203 203 203
-3.2836080630840216 0.4003600778406178 -12.625335120403252 207 201 202
-3.1603221169108755 0.39330047879583185 -12.576915395104663 180 160 158
-3.05583993193547 0.3867956491602411 -12.540914482036541 114 81 76
-2.944963253448737 0.3801516446635308 -12.500213173023724 100 59 53
-2.8365026503356496 0.37360935901156556 -12.460814016192334 98 53 46
-2.759168772308324 0.3643261623287498 -12.47726113876424 100 48 37
-2.6525358914455515 0.35791088996207454 -12.438364228610943 100 47 35
-2.564096388163792 0.3484114937657772 -12.446401913811734 103 45 33
-2.595148087311234 0.34560459031198787 -12.502813710806288 103 45 33
-2.5269020069325965 0.3402521937245011 -12.489940821157294 104 45 32
-2.4470971990560884 0.3346281855155814 -12.46876470949206 107 47 32
-2.3759655336482224 0.3220377870392619 -12.522966521337972 110 45 33
-2.2545512128670984 0.31546382390644 -12.471632062953027 111 45 33
-0.7335723862782206 0.16216776246415415 -12.5127112430735 122 44 24
-0.7192711204975222 0.15835224447068802 -12.535992966194694 121 43 23
-0.7137176367623956 0.15467628365166014 -12.566195170250285 121 43 23
-0.6684712067187224 0.1503564311816198 -12.565098515776942 125 44 25
-0.6100087258629614 0.14583933839243746 -12.553415310959902 123 42 23
-0.5699596697838647 0.14162700556431013 -12.556193093068082 122 40 20
-0.5892308294821103 0.13833376379713214 -12.606162834176663 123 41 20
-0.5518627726775804 0.13416652732901097 -12.611039164936535 121 39 18
-0.51082772863038 0.12995289995778536 -12.612897708587901 125 43 22
-0.4643418823466394 0.1256694628482996 -12.610278670324858 124 42 21
-0.42482618517130977 0.12149880595873708 -12.613158544869222 123 41 19
-0.40716234689885855 0.11764639780166247 -12.633618518982274 121 39 17
-0.3683052638900257 0.11349814825795529 -12.63690466909609 121 38 17
-0.3199021254662133 0.10922849780826899 -12.632340904528643 123 38 17
-0.30397995970399094 0.10540826229786848 -12.654136430774042 124 39 18
-0.2612194221802415 0.10123239874982792 -12.654000261122043 123 39 17
-0.24220086385381911 0.09737449543967908 -12.673233068020473 125 43 21
-0.21322909449364502 0.09338976510462993 -12.684283541141976 124 42 20
-0.18151084515440097 0.08937517365892361 -12.693026663809587 125 43 21
-0.12205912692236787 0.08502805331292185 -12.678769494118361 130 47 25
-0.05299580155921202 0.08058544672059259 -12.65635055128675 128 44 22
-0.024995008708812883 0.07664751602152947 -12.667867237885236 126 44 22
0.00438972620051814 0.07269768008562771 -12.67819096077865 135 57 34
0.07066967220702924 0.06833906547258617 -12.65759221245261 139 66 40
0.08837316101767545 0.06453572093383747 -12.67754156102658 137 66 45
0.3174790682299182 0.029648734240595 -12.797486172699253 135 59 33
0.3342309834377488 0.025859861774552406 -12.818195158619403 136 60 36
0.3651434014088082 0.021953673094082193 -12.826654353499851 133 55 27
0.3435578576990439 0.018468625086972834 -12.880660834429365 114 31 7
0.3491927652943181 0.01475378054734755 -12.911161080749348 102 22 0
0.3639531277921355 0.010964036419534862 -12.933760417506189 89 16 1
0.3865303996289189 0.007115808455972372 -12.949537063183143 71 11 3
0.36711683204953083 0.0035577094510595986 -13.002195591299241 62 11 5
0.34020982685779355 2.8629362280541137e-05 -13.061655293791254 61 19 13
0.3223513662030273 -0.003582510883269996 -13.113355818940224 37 11 7
0.3061034471622879 -0.0072233806541330825 -13.16382114502661 12 2 1
0.34251264260868464 -0.011190291516092521 -13.16767167494964 14 10 9
0.3782532462683994 -0.015144909857455147 -13.17203545376666 27 24 24
0.42692808542812255 -0.019159813224071953 -13.16475822494966 7 5 7
0.3605803240110417 -0.0687008796347312 -13.70521605681083 8 7 5
0.44530913654932647 -0.07274471124536519 -13.664148113495074 10 9 7
0.49390264766026526 -0.07670845228472845 -13.65645434007353 7 6 4
0.505489904428476 -0.08062117212807557 -13.683238093079792 6 4 1
0.5645237010478681 -0.08457103896215507 -13.66554483088699 6 2 4
0.6237089253079793 -0.08849944224299094 -13.647501485968625 16 4 3
0.6815140038157503 -0.09240597581217946 -13.630551422488939 121 67 39
0.7371191571761821 -0.09629183698908467 -13.6154808487553 145 70 37
0.7911575572675966 -0.10015851083584854 -13.601705761978845 131 60 36
0.8301636749372916 -0.10401697696815032 -13.602056481254815 133 71 53
0.8380849790706701 -0.10789606878404845 -13.631980125673508 127 68 56
0.8795859381938413 -0.11173877638207574 -13.629821339324064 151 92 78
0.9197115912305547 -0.11557150343148026 -13.628865917210604 162 98 73
0.9392778570225149 -0.11943106421347943 -13.647597144752343 159 112 81
0.9358697428815876 -0.12334025423719724 -13.68851693622059 114 66 43
1.001268793304292 -0.1310026443868103 -13.700611384488397 112 47 22
1.0471145678798246 -0.13478337271567536 -13.693749193317345 126 58 27
1.1006703098672945 -0.13852373474278284 -13.679212081366282 113 38 12
1.1277514654010412 -0.1423397088498637 -13.690421672947917 119 45 25
1.1730181910822273 -0.14608095306503205 -13.683725886998552 126 62 42
1.2020832408674211 -0.1498750709513833 -13.692849994886197 149 86 64
1.2159962349485163 -0.1537315590641924 -13.716893726168538 165 99 71
1.2321251529244206 -0.15758104746418905 -13.738775986632728 166 115 92
1.2654569822272732 -0.161345793929915 -13.743584892723874 117 58 39
1.3190013885783527 -0.16499442629528688 -13.728173874693246 129 63 39
1.3413273735048925 -0.16879950802739818 -13.743771885914015 138 60 31
1.3861617207412635 -0.1724692678704361 -13.736795304491903 128 49 20
1.4080236688763437 -0.17626763093645792 -13.752767020443486 135 63 37
1.4331622150516559 -0.18004334500315866 -13.765424049362156 176 109 78
1.462108533435364 -0.1837898153812918 -13.774200853483691 168 115 77
1.4951836806664422 -0.18750129112698627 -13.778738585322087 130 80 52
1.533256429059307 -0.19116753184672947 -13.778117530907952 138 75 53
1.5779051122239016 -0.194771719685504 -13.770684035311856 138 73 43
1.623051684215235 -0.19835677642173577 -13.762595557361974 160 93 52
1.6698841574760408 -0.20191224327571433 -13.752628606737403 146 66 30
1.6811559860794612 -0.2057593489095078 -13.779077660892426 139 54 26
1.7179287310185627 -0.20938274399968754 -13.779271869875227 141 57 31
1.7950371444453674 -0.21262120310442184 -13.737638115692508 131 48 22
1.8560470877183404 -0.21597858987718066 -13.712363737853426 127 45 21
1.9112962700677452 -0.21936734446580647 -13.69283557254144 128 46 22
1.948592711686433 -0.22291721497322875 -13.691825854613873 133 50 26
1.97390576946089 -0.22658206420466387 -13.703248823774155 139 55 28
2.0174250218401655 -0.23004595391937022 -13.695529599211755 144 56 29
2.044636456043354 -0.23367654476954325 -13.7048282925802 147 58 31
2.0758707880857488 -0.23725608858080877 -13.70983320922819 147 61 37
2.0908877989223082 -0.24101916649266114 -13.73193286035962 157 75 47
2.1136218441120302 -0.24469164043591257 -13.745866433254584 146 61 34
2.142843827230908 -0.24828143112670287 -13.752871764651118 149 63 34
2.1758794834024524 -0.25181637798630585 -13.755744413815291 154 67 39
2.1497336096960495 -0.2561149338469335 -13.821905506068665 152 65 37
2.174464065800181 -0.25976233984458336 -13.833710794410326 146 58 30
2.2498758274427475 -0.26271234637429275 -13.790898550085453 155 65 38
2.282314777762636 -0.2662284798429414 -13.794153632916512 153 63 36
2.3004357942558924 -0.2699413997412465 -13.812836400497888 157 70 42
2.3467621926620144 -0.2732414868805122 -13.800884854277996 157 70 43
2.420376613740851 -0.27611495422510424 -13.759032906602524 162 77 51
2.4847934718756335 -0.27909376210082415 -13.726888198450887 160 79 55
2.470458805256567 -0.2832747713020148 -13.780754539853525 167 89 67
2.5366134047775706 -0.2861922352792228 -13.746376144239893 163 86 67
2.904834490179736 -0.3352520532793172 -13.871541210327893 147 80 60
2.9107361409299157 -0.33914774260100944 -13.903533415789777 146 75 53
2.9336742144902415 -0.3426882837885971 -13.916001862914342 131 58 28
2.9247366329553603 -0.34691836795300146 -13.965241422186157 134 70 37
2.9311446917634436 -0.35082917489730664 -13.996900881043649 133 79 49
2.9469093327694145 -0.3545389814457346 -14.01778031324153 139 84 54
2.955991340508489 -0.3584031755172378 -14.04646346493364 159 99 67
2.97617372192492 -0.3620176814070076 -14.062249237761504 148 83 54
2.9906925257835866 -0.36576427501107495 -14.08466070580662 126 57 34
3.001481355478604 -0.36960289416866876 -14.111484334884924 107 44 21
3.0127016373285294 -0.37343689935783 -14.137855761442754 112 58 35
2.999782697548693 -0.37786875464518804 -14.192803389282032 112 62 44
3.0085441471651846 -0.38178370609408 -14.222278948133118 107 59 46
3.010368630175397 -0.3858812248661624 -14.260070321139624 104 59 46
3.00647173658471 -0.390137699205175 -14.304801114182936 107 61 46
3.022305974258951 -0.3938982879488189 -14.326104510814524 113 66 49
3.0357210765961353 -0.39772498595357325 -14.350331443326525 113 65 50
3.0676064892343646 -0.4010627098954874 -14.352389062385615 105 56 42
3.078825486953461 -0.4049504684862267 -14.379280086718463 97 46 31
3.082008833666648 -0.4090644360212849 -14.415946010778658 94 42 21
3.0881899943427102 -0.41310679658794497 -14.449088550231322 89 40 22
3.094384286322799 -0.4171583603820094 -14.48230743469613 76 30 17
3.0988650503535666 -0.4212684298402722 -14.517709754587663 80 37 28
3.1046180332645283 -0.4253526564325148 -14.5516606518744 84 42 35
3.114866385934037 -0.42931531231103015 -14.580191191065614 66 24 15
3.1208365746643967 -0.43341155051486974 -14.614052673735404 73 31 19
3.127357591566099 -0.4375012233403631 -14.64733032899102 91 53 38
3.130716047949524 -0.44169664818377247 -14.684616334637132 98 61 47
3.1400683353340453 -0.44571964303203127 -14.714575516760014 114 74 51
3.143128208846745 -0.4499462505963455 -14.752444390676883 136 92 56
3.154088064574096 -0.45393611740938516 -14.780565000827224 128 78 44
3.1639181540202816 -0.45796847266898405 -14.810162946868875 119 64 38
3.1612702040725598 -0.4624111713307786 -14.855509434320009 96 50 29
3.1957765213351195 -0.4656565481129385 -14.85419982116215 94 53 37
3.2069791190129244 -0.46966092133976434 -14.882230945228468 83 47 36
3.202806161531708 -0.47418600834010516 -14.929813041701347 92 57 46
3.212869638530698 -0.4782476489850778 -14.959472865917892 73 32 16
3.217674419629092 -0.4824966243392218 -14.995908575094589 62 20 6
3.223912920158188 -0.4867074442053816 -15.030621509693486 49 13 6
3.2297249221884536 -0.4909436108359831 -15.06598190767123 51 18 14
3.194233709868729 -0.496652836254576 -15.15457814770145 59 27 22
3.1803405431750154 -0.5016323356963976 -15.215727727301193 53 21 17
3.134422326101589 -0.5077974679592137 -15.31857375813791 70 39 37
3.138000194495749 -0.512203683675386 -15.357685241717904 89 62 59
3.1385562226660113 -0.5167346377964579 -15.400855200089726 87 61 59
3.1318932057302424 -0.521550944823961 -15.453598764897803 85 59 58
3.1352280537798736 -0.5260107688185836 -15.493456878636135 82 58 56
3.211010144908119 -0.527717137612249 -15.438301356140595 79 57 54
3.214612834134817 -0.5321642057932536 -15.477783355859202 81 61 58
3.1961366182520523 -0.5374855671833788 -15.546560580817228 77 58 54
3.1971052015467354 -0.5420719043137472 -15.589874789473951 69 50 45
3.2007179774033343 -0.5465684922791298 -15.629824814070908 62 44 39
3.1998687312176655 -0.5512580110534172 -15.67585186324027 52 35 32
3.202900673916047 -0.5558069999365882 -15.71685609531308 47 31 30
3.216807142112156 -0.5599236804313057 -15.74341522336821 40 24 23
3.2266726738237033 -0.5642130546495001 -15.775458304111439 38 21 18
3.2774319414484356 -0.5667984097213032 -15.752425161256948 37 20 17
3.309552734957853 -0.570146554124739 -15.754360846285238 25 13 10
3.349960529343184 -0.5731306682229667 -15.744955000491654 20 12 10
4.185070563147512 -0.5727767338241216 -14.952393191013169 105 46 31
4.254574882225955 -0.5740281608754637 -14.898782590357005 113 60 47
4.287688502929002 -0.5769453096559671 -14.895623676209304 121 74 64
4.321354047706926 -0.5798237569359233 -14.89156998635892 121 77 66
4.318516653773093 -0.5844359396728158 -14.938729953371539 120 73 65
4.368797520932911 -0.5865017615590078 -14.911138633834064 115 68 61
4.395566963864853 -0.5896855688363736 -14.916546324171184 112 67 57
4.548480681936761 -0.6000334994990606 -14.871841278993632 111 67 56
4.5482121204566015 -0.6090461801851693 -14.959011091076107 109 65 54
4.572180247486814 -0.6123278101033558 -14.968009299879697 106 61 49
4.591268366238346 -0.6158598263749617 -14.984033601875677 104 57 45
4.634407927808046 -0.6181221979805096 -14.965086032108772 104 54 41
4.6405988655878785 -0.6223287017662222 -14.999802288575852 100 48 35
4.673204015254797 -0.6251284858192221 -14.99599202504588 97 43 31
4.705764111000192 -0.6279177521214183 -14.992122905280358 98 48 34
4.7551534735340075 -0.6297750563366921 -14.963363133031164 97 47 34
4.772567343412191 -0.6333645620383156 -14.981523952850736 97 42 29
4.7986946006631355 -0.6364711050894272 -14.986793368446023 94 38 25
4.813988299537793 -0.6401771449571516 -15.008081498875695 97 42 29
4.821028076882964 -0.6443522067923944 -15.04169241459918 92 36 23
4.8398338549469715 -0.647867998277416 -15.057827050486814 88 32 17
4.860091025336581 -0.6513001052960379 -15.071783141510203 88 32 17
4.879821164641779 -0.654760988195667 -15.086514765082725 87 31 16
4.901022480685776 -0.6581347657297945 -15.099016157948718 85 29 14
4.918302830320615 -0.6617366073411215 -15.117422113951589 84 28 13
4.962498269138811 -0.6637428850089515 -15.095007072973694 83 27 12
4.956362086075568 -0.6687343480155475 -15.14894195928328 82 26 12
4.977950168886182 -0.6720780943032678 -15.160788257841006 79 24 12
4.998057661600717 -0.6755087433591285 -15.174871728586798 78 24 12
4.936293675210686 -0.6886621219462195 -15.360084328302126 75 21 9
4.935963731168931 -0.6934098664420844 -15.406182170116269 77 23 11
4.979818070237391 -0.704907852772358 -15.475625112859053 75 23 12
5.094913161311692 -0.740746099314299 -15.712479503140107 84 55 50
5.1277776231018155 -0.7433772436314345 -15.706797879800458 86 58 55
5.091294891774453 -0.7557338462889449 -15.86043670744225 88 66 63
5.127175108653827 -0.7581620945033014 -15.849948626312601 91 71 69
5.1717847266403485 -0.7649038751195184 -15.872810203414758 96 78 76
5.084646294094234 -0.776142835928776 -16.06353856551167 98 82 80
4.977522680836793 -0.7991910820345387 -16.387037979693567 84 71 68
4.998790347856498 -0.8027708699056132 -16.401463385306826 87 77 72
4.975593561212579 -0.8096665389046747 -16.48988360523058 90 82 77
5.203517266805731 -0.8443528427422946 -16.60901001925151 156 154 152
5.242942497715161 -0.8464584210507864 -16.592060281410323 159 158 156
5.236292920115845 -0.8522859281209235 -16.654542906037694 165 164 162
5.241089787367009 -0.8572062441409208 -16.697460334454803 167 166 164
5.251697942755212 -0.8616643360316338 -16.730428733783636 171 170 168
-3.1605653743564313 0.3596013090873167 -12.607727671448291 187 173 168
-2.9931540365583826 0.3516518586611811 -12.528607083440694 128 99 90
-2.869214860622912 0.34485763718560025 -12.478707605702539 101 63 55
-2.8079025953581924 0.3396697453273082 -12.471457432241712 98 53 43
-2.760193566107434 0.3348351922937446 -12.473428895548409 100 49 39
-2.6514801345232177 0.3285141604200048 -12.433109328760757 98 46 35
-2.615269282646059 0.32035375005434785 -12.477467408073007 102 45 34
-2.5709526123914905 0.31564454041608303 -12.48138325073301 103 46 34
-2.5526158475049323 0.31156059452773677 -12.503383817883284 104 46 34
-2.5394398761944927 0.30759640719209735 -12.529019280611244 104 45 32
-2.36078291464709 0.29977795306148547 -12.438237290359734 105 45 31
-2.31282931381884 0.2950401791208874 -12.439058680581883 107 45 32
-2.3447326185750486 0.2921376762428297 -12.496295896708517 108 44 32
-2.218323993516207 0.28563052453216387 -12.441370443207827 110 45 33
-2.1482764500208775 0.2804316401221928 -12.426138068902276 112 46 32
-0.7053656301612534 0.13418853511992473 -12.486020556138794 122 44 24
-0.7569131648897498 0.13133833137318668 -12.560945245164294 122 44 24
-0.7199130739901882 0.12717233044481474 -12.566450446494482 122 44 24
-0.6879046531864539 0.12308525652598207 -12.575823660765286 123 42 23
-0.6405490434668435 0.11878884748091711 -12.57298633293059 121 40 21
-0.5984803662206772 0.11457805402637894 -12.574226536597688 123 41 20
-0.5690613975661902 0.11054868016794761 -12.585446380298045 122 40 19
-0.5331609854528416 0.10643758046653418 -12.591445692006793 121 39 18
-0.5188943410164768 0.10261607344875207 -12.614709685409917 123 41 20
-0.4704173764405253 0.0983538023651595 -12.610508399359091 124 42 21
-0.4222001399996822 0.09410841932191583 -12.606386391790071 124 42 21
-0.3977409431591221 0.09016913986577846 -12.621338136671564 124 42 20
-0.37832965115112227 0.08629283554411382 -12.640362199489847 122 40 18
-0.31513530915652765 0.08189833578161654 -12.623797554845103 122 37 16
-0.28215583842276093 0.0778747856979286 -12.631665507538766 122 37 16
-0.26411416340611815 0.07402684617496885 -12.651686850009206 120 35 14
-0.23715972633049986 0.07007901359956892 -12.664410133802146 122 40 18
-0.2066535929465232 0.06609601224985906 -12.674180907310557 124 42 20
-0.1651818238347289 0.06200193484007843 -12.67485980297576 128 46 24
-0.11178221063133176 0.05779500671063381 -12.665572946335379 128 46 24
-0.017484576553196796 0.05319160234209763 -12.622206664947502 127 45 23
0.0024550527237092723 0.049357618562532735 -12.640337691042758 128 48 25
-0.0869900073379748 0.04289859689777925 -12.784790032589328 134 60 36
0.29074919604016003 0.006695621364204318 -12.780596614425216 130 54 28
0.3060949296145221 0.0029104205496918722 -12.802515085715783 137 63 37
0.3312333425935696 -0.0009412049430001512 -12.816001453203867 143 68 45
0.3414186883189245 -0.0046961422012656295 -12.84240857478348 130 50 23
0.33707115263966614 -0.00836857565771798 -12.881482817436256 116 33 8
0.33619026031141974 -0.012073632314622773 -12.917658997079148 100 22 1
0.3618324755949134 -0.01593549885421741 -12.93077668427507 87 16 2
0.35895020504292674 -0.019644928180047927 -12.968847470302023 72 12 3
0.33573896173140483 -0.023265196624612905 -13.02488785901117 66 15 8
0.29747706435276644 -0.026837314034664272 -13.094402581253501 55 18 13
0.32231648334278695 -0.030720975587926302 -13.108471505714792 24 5 3
0.3150876393502946 -0.03446798700720011 -13.150925024766572 9 2 2
0.31752353737240835 -0.03826740570783693 -13.184931103851211 23 19 18
0.35098237852054126 -0.042189531634346855 -13.19138727493508 17 14 13
0.3844092870450675 -0.04610444868029184 -13.197804208454865 8 6 7
0.3009226919202854 -0.09642486859266008 -13.755348535145366 7 6 4
0.3792502073734516 -0.1003617110398819 -13.720405781727148 8 7 5
0.5060768378492986 -0.10816850651520066 -13.677496995329033 9 3 1
0.5664598787686463 -0.11203968736164721 -13.658540552861929 7 4 6
0.6270770696433043 -0.11588799907427766 -13.639149074101859 42 17 10
0.6848150111305769 -0.11971889518786044 -13.622256989224468 139 71 42
0.7416042111662131 -0.1235306105910483 -13.606060189733752 133 56 30
0.7860506432237564 -0.12735137188128692 -13.601376646412977 129 58 41
0.787247915449937 -0.13127507200984195 -13.637715572300474 128 66 52
0.8416632938948903 -0.1350507494369113 -13.62337251219975 130 70 59
0.8900241028976499 -0.13882662403372864 -13.614636648678335 154 94 75
0.9255807114654253 -0.14263185664750788 -13.618035091788414 160 101 72
0.9305520282034294 -0.146545871102934 -13.650787571751426 150 105 74
1.0478642984488307 -0.15000386979380054 -13.575182736482432 104 47 28
1.0803495407611106 -0.15378102074324396 -13.581156639349082 136 71 54
1.2078294425806453 -0.1610002822285016 -13.532035695620714 120 46 18
1.0817205783018 -0.1655781413402424 -13.692477746306768 118 41 17
1.1155624238800605 -0.16934658134875447 -13.697112570863892 114 40 21
1.1655522588586305 -0.17301177537489293 -13.685812233487628 124 59 39
1.1977686685311024 -0.176769210434366 -13.691846855094592 152 91 67
1.2157221680077193 -0.1806118439776368 -13.711899190716354 150 92 66
1.231946804258203 -0.18446738650980732 -13.733675308280684 145 92 74
1.2756922804343267 -0.18813039245064767 -13.728135109688688 114 53 37
1.312485777004591 -0.19183046038221463 -13.729384762946996 118 54 30
1.337087796223507 -0.1956139928811268 -13.74271785129397 136 61 32
1.3761078796243558 -0.19927970019398694 -13.741578198576374 124 47 21
1.4021928299090867 -0.2030409458645957 -13.753325687687767 140 71 47
1.4247841140598965 -0.2068284060368788 -13.768557797988414 162 102 71
1.4579133288807604 -0.2105205942678246 -13.773124636925438 157 110 74
1.4910601299914914 -0.21420454142754036 -13.777596542620518 123 65 39
1.5334146897423793 -0.21779295270129012 -13.772632129933806 134 70 44
1.5749401367271032 -0.22137568667599428 -13.768381125569125 149 85 48
1.6163272638147994 -0.2249464628434505 -13.764144053649861 155 75 38
1.6602106925400246 -0.22847791048212784 -13.757220560851403 147 59 28
