ply
format ascii 1.0
element vertex 711
property float x
property float y
property float z
property uchar diffuse_red
property uchar diffuse_green
property uchar diffuse_blue
end_header
-3.169607421806955 4.465781643282634 -13.075741698832426 73 39 30
-3.182473449631273 4.4758572512412975 -13.09585943116932 76 42 33
-3.1949527866848366 4.485787715981248 -13.116424050579788 79 42 36
-3.2167316409090363 4.499243845115191 -13.12647568901016 80 43 36
-3.2267902328562212 4.50825775411114 -13.149784966670257 81 44 36
-3.233061376269246 4.521070354363529 -13.212283956824205 83 44 37
-3.2053262487717773 4.515851225736457 -13.278955029512893 82 43 36
-3.1934381720121143 4.516639521657513 -13.327707467361522 80 41 34
-3.1735871581483344 4.514456796520982 -13.385781428696472 82 44 35
-3.177309128574785 4.521162645770474 -13.41688304349951 88 50 41
-3.183459938703971 4.528790120218598 -13.44524419067086 86 48 39
-3.168216458970933 4.528407260799449 -13.498463116199098 83 45 37
-3.2173098857014555 4.552135097259418 -13.477076582209463 75 39 33
-3.208298468236023 4.554108077245453 -13.523204355723621 72 38 32
-3.1539191013071504 4.539163342980154 -13.622502813743953 71 40 32
-3.163877274152188 4.548276270728668 -13.646839827527868 60 27 24
-3.179307608848531 4.55943194828606 -13.664778071649728 46 8 7
-3.157368082795567 4.556686241830922 -13.726739019681439 64 19 11
-3.1539964409744674 4.560873449041184 -13.766998299871226 100 50 33
-3.1610465346598327 4.568944829683804 -13.795029474679598 111 72 53
-3.2013157404166166 4.589333440244038 -13.783660235672262 94 68 58
-3.173969535288276 4.584674502829749 -13.852644092113863 93 69 64
-3.2163676851386147 4.605834018108958 -13.838626517468768 93 63 58
-3.0988280927440464 4.573483043163117 -14.052935334889137 93 60 52
-3.095927911949368 4.577983416826796 -14.093558073325331 93 59 50
-3.0866177563410573 4.580144327296777 -14.142032109820512 92 59 50
-3.1294189317650276 4.612673825558575 -14.202363110855124 90 57 48
-3.0720880566677446 4.597332084770361 -14.309812881608337 92 59 52
-3.0689847375157995 4.601868305092639 -14.35141790387646 93 60 55
-3.0611359506440063 4.6046915608650405 -14.39896214557253 93 60 55
-3.0596416758652216 4.609852394684038 -14.438845442020034 93 60 54
-2.984020360531481 4.588063453225103 -14.57022086222498 95 62 55
-2.926789333725079 4.573045407661088 -14.679463943235053 95 62 56
-2.949293953484326 4.61629083389138 -14.885516439817383 93 63 55
-2.932221627490252 4.61604798812343 -14.94636037017749 92 61 54
-2.7883775568269478 4.576302490767698 -15.207598794804792 89 60 51
-2.814520279423716 4.591698051640115 -15.214617635545885 89 59 51
-2.8479055394101067 4.609674482510797 -15.212348911167982 43 25 22
0.351557329485777 2.494191982568445 -12.588430677403181 187 175 170
0.3553998443644 2.4977946689317774 -12.626211033526303 152 130 121
0.3550258031760105 2.503189585215847 -12.660577773635232 121 79 71
0.35144462139165356 2.5099470874585883 -12.692344148019806 114 57 52
-0.740211356126327 3.0695246118207686 -12.44140500755552 107 45 34
-0.7668455496945228 3.0856475077409296 -12.451639867613824 108 44 34
-0.8078897274939001 3.1077199912483913 -12.449047914796989 108 44 33
-0.8555562409331969 3.132509372423285 -12.440446453029407 108 44 32
-0.8567940719687854 3.1381145338773946 -12.473074948348913 108 44 32
-0.8885698368519597 3.156321921233214 -12.47847913521828 108 44 32
-0.9985216609664445 3.2067223081890233 -12.41373801648989 108 43 31
-0.9874191221374211 3.207229072331594 -12.457329166531723 110 44 32
-1.0378017690382828 3.23303905359719 -12.445642301547817 111 45 33
-1.070122597695729 3.2514027193170305 -12.450105968196123 111 45 33
-1.1280088468516363 3.2802476081031124 -12.431321574037902 112 45 33
-1.140426111733852 3.290414532215082 -12.453641340296011 113 45 33
-1.2325745768969152 3.333250804896514 -12.403334095575904 112 44 30
-1.2801712725513874 3.3577927750869554 -12.39334742967822 112 45 29
-1.3192463395237262 3.37882553972427 -12.391007073864635 112 45 29
-1.5314355545254226 3.4955921447323224 -12.395199202858706 111 42 27
-1.553451722321118 3.5095762787019615 -12.408008055315893 113 44 29
-1.5942405224255203 3.531175304886302 -12.403206609300707 114 45 30
-1.6421358403888648 3.555636592085099 -12.391603495579115 113 45 29
-1.653712286692583 3.5653584099089612 -12.414023133283784 113 45 28
-1.6652959311296174 3.575085967699693 -12.436454691943734 115 45 29
-1.7106374585295647 3.5984669352436476 -12.426953219193972 116 44 29
-1.7544958898208884 3.6212253667562004 -12.418704387812951 116 40 26
-1.80630928167749 3.6471720087614674 -12.402737394401651 116 40 26
-1.8348174434281876 3.663693400870794 -12.408819619078677 115 39 25
-2.1024286937036285 3.8163212851695643 -12.449616477111375 116 39 23
-2.144167866160195 3.8380142224130043 -12.441992708491728 118 41 23
-2.2058463393312366 3.867638326686442 -12.414624835903195 119 42 22
-2.2220827124348705 3.879118893821341 -12.431802390200943 115 39 20
-2.2147255754079533 3.8812072481631588 -12.472292644213592 115 40 21
-2.248789321744225 3.899783902142499 -12.471850267975732 117 42 23
-2.2964609971743424 3.92375051514478 -12.457782165902142 119 44 25
-2.3157136079564 3.9364131522240227 -12.471855906070818 119 44 25
-2.338356286901787 3.9504160755354554 -12.482518693642714 123 48 29
-2.351352146557119 3.9605923895592756 -12.502803806053606 122 47 28
-2.3956216694201427 3.9831420986854837 -12.491683129197428 122 46 28
-2.4374727723929683 4.004711947325459 -12.482838696851829 123 46 28
-2.471394107392686 4.023129047484463 -12.481855939102688 124 47 27
-2.501230641951979 4.039919447257391 -12.484905363199589 122 45 25
-2.5225693541773166 4.05334959988039 -12.496501146437975 121 43 23
-2.555545845821136 4.071354250279677 -12.496211480341099 120 42 22
-2.595154264178266 4.091950958865626 -12.489050926576317 121 43 23
-2.6299410088515938 4.110633411706161 -12.486688946414397 125 47 26
-2.648620899950773 4.122980405596529 -12.500748202773556 124 48 26
-2.653873026123604 4.1300619344438685 -12.528604602513326 128 51 31
-2.6855586975155936 4.147499027784555 -12.529234811134327 128 53 34
-2.7259741326306846 4.168335517742342 -12.52073733141116 129 60 42
-2.7551397679320435 4.184755884674704 -12.523767935369026 131 63 44
-2.7778773505134775 4.198655723644098 -12.53340422224941 131 63 44
-2.791800300741463 4.209112903588767 -12.552189300940862 130 62 44
-2.8418939162512724 4.233653808045041 -12.533146734757297 122 57 40
-2.872455330929655 4.250567877509419 -12.534388066480627 128 69 56
-2.9119066311674993 4.270922029940336 -12.526190831306117 140 89 77
-3.0140522221043415 4.330596176914808 -12.551145426859359 131 62 47
-3.036987369623181 4.344485819015677 -12.559998219691412 139 83 69
-3.0482873966022037 4.35387777771204 -12.581235449991246 134 77 65
-3.046740230769666 4.358319897545718 -12.616255737627629 111 44 28
-3.0602341882026227 4.368567594055188 -12.635208399348684 103 31 12
-3.068996412452005 4.3769961511510544 -12.659263499843828 91 23 8
-3.0909703719805575 4.390505434836457 -12.669081109135874 83 20 6
-3.1071303979979827 4.401777010541067 -12.685151515361149 89 26 8
-3.1277532224810525 4.4147576992353095 -12.696365566416436 95 34 9
-3.1190147137698117 4.416491277425471 -12.739512775751532 105 53 20
-3.1202114040701177 4.422044790795637 -12.771948379052489 86 32 13
-3.1320940036052574 4.4316919103682455 -12.792763904619614 72 21 12
-3.1372748060335582 4.43878425252654 -12.820950381775045 62 18 11
-3.1480898881730432 4.448032069302602 -12.842990622207266 58 19 14
-3.1384581748835694 4.449499902511219 -12.887615185154315 59 18 14
-3.1534394279677294 4.460347379825935 -12.905149313349291 62 23 18
-3.1591283835123174 4.467665544279355 -12.932989517520877 67 31 25
-3.175549968937088 4.479062664326371 -12.948943319687851 70 35 29
-3.1713224597349243 4.482634827368573 -12.987916786967144 74 39 31
-3.1604966089177586 4.483726969936306 -13.034381283578695 73 39 30
-3.1433393790786983 4.4824490046767025 -13.088097119533797 74 40 31
-3.148426615742515 4.489597291753261 -13.116993116738453 76 42 33
-3.157064477765189 4.498093006972676 -13.141943591617476 79 42 36
-3.1817845427375944 4.512650728414016 -13.148751505370647 80 43 36
-3.174581603111128 4.515191590339521 -13.191679212180203 81 44 36
-3.1961641757143524 4.53383713804538 -13.236924817184212 84 47 39
-3.1714662351886296 4.529865026554483 -13.30012900337767 83 45 37
-3.176213145846394 4.536950589018308 -13.329843013822176 80 43 35
-3.1668076262498386 4.538754561333321 -13.37587358466458 84 46 38
-3.1571340971637647 4.540480824466279 -13.422360873668689 87 48 41
-3.158885078282002 4.546490153913963 -13.455805897345838 86 47 40
-3.174989269004282 4.557857456959261 -13.472712506351193 83 45 38
-3.2552501900029007 4.5930886656821635 -13.415129061594492 77 41 35
-3.2485956620215863 4.595968285776265 -13.45831239970246 72 38 32
-3.150398706836342 4.564901716799262 -13.608472104867648 73 42 34
-3.13519492906379 4.564696511816343 -13.662211873825905 59 25 22
-3.147320874598415 4.574634459996672 -13.684071225264905 47 9 7
-3.1524090223016485 4.581973683050631 -13.714228197351023 65 19 11
-3.15585518163602 4.588716089474492 -13.746383936935374 101 51 36
-3.1380467751636147 4.587633344007533 -13.803752280212521 112 72 57
-3.159198848991757 4.600927111316755 -13.815121370441734 96 69 62
-3.1831516280024297 4.615244865448226 -13.823120994469456 93 68 63
-3.0896345230042455 4.5975726234513115 -14.045011020612783 93 59 51
-3.0795523422698223 4.599485787445104 -14.094216822268091 93 59 50
-3.07246338627572 4.6025168625990105 -14.139977383391882 92 59 52
-3.0394338944902457 4.613160156665263 -14.330150573590743 91 58 49
-3.0643902325363817 4.627930873655348 -14.337512576395744 92 59 52
-3.0454744372214964 4.626793792650766 -14.398534318470322 93 60 53
-2.941862019410284 4.595040047555168 -14.563769558443095 93 60 53
-2.9438851293490274 4.60157971388924 -14.599739995415192 95 62 55
-2.9477186110809255 4.608786130328705 -14.633564505232798 95 62 55
-2.98715063887909 4.628833802032434 -14.623407761056441 95 63 56
-2.979370071117696 4.631865934272602 -14.67168172435128 94 64 56
-3.005856906284448 4.647237016533197 -14.67747250141926 94 64 56
-3.0016611467138157 4.657457082373485 -14.760349784511071 94 64 56
-2.993807301957541 4.660533792684995 -14.80918447609059 93 63 55
-3.011246356106189 4.672673489861552 -14.826367919957447 91 61 53
-2.7913636816577094 4.612216490424104 -15.22290916557913 84 58 52
-2.8566529484359435 4.641491367258068 -15.180143369910908 21 9 8
-2.6826414996686943 4.791630001144135 -16.804899459123956 131 130 128
0.2891159807819399 2.561997126620102 -12.59109055047989 187 172 168
0.2853799670489847 2.568817736951187 -12.622524219820582 147 117 110
0.28762390374769886 2.5731425032077984 -12.659014585829487 114 70 62
0.29238271880246813 2.5764280206191525 -12.697699819556723 113 60 49
-0.7954181455656428 3.131955929411804 -12.445294748874923 108 46 34
-0.8340088415895464 3.1529469397994054 -12.444777215054412 105 43 31
-0.8470125571151748 3.163415792067372 -12.466928820287293 106 44 32
-0.9193712165150103 3.198234111247078 -12.436105364318523 107 44 32
-0.9617906302676893 3.220740387439547 -12.431806347489811 107 43 31
-0.9731047871093903 3.2304905504237835 -12.455297761974306 107 41 29
-1.012573746258667 3.2517615832661866 -12.4534685846514 110 44 33
-1.053158807189221 3.273470959851835 -12.450514928219384 111 46 34
-1.09417661147429 3.295338324968132 -12.44704658217159 113 47 35
-1.1276062853342639 3.314090976057141 -12.450338916884778 113 47 35
-1.205141471463167 3.3508065706907653 -12.413407325740167 113 47 34
-1.2518617533382819 3.374927525270781 -12.404285539635865 113 46 31
-1.2853671285536072 3.3936487446781043 -12.407099461013672 112 45 29
-1.321052290180961 3.4132422238544584 -12.407823478510048 112 45 29
-1.3506966106789693 3.4303673662323795 -12.41400363615614 113 45 30
-1.4749237667320525 3.5010446667328816 -12.432754321609428 112 43 28
-1.4967097139583192 3.514937150977152 -12.445889797607203 112 43 28
-1.5666337877117273 3.5482606910415635 -12.41397788783977 114 45 30
-1.6351680095975714 3.580981358763521 -12.38309139438945 114 46 30
-1.6445834925332683 3.5898370213730466 -12.407517348210028 115 48 31
-1.652680000891933 3.59816619095355 -12.433216474068544 118 48 32
-1.6980740159596248 3.6215020365478616 -12.423693651058274 116 44 29
-1.7392355791176937 3.6431136709953544 -12.418027825559601 115 40 26
-1.789671624586624 3.668427927786418 -12.40341314369536 115 40 26
-1.822667521992873 3.68672053200639 -12.40523785873486 116 40 26
-2.1099419839854674 3.8468644873704863 -12.426922231505669 116 39 23
-2.1468919349362108 3.866588076134229 -12.423961389873245 117 40 23
-2.1883980884130754 3.8881011252986784 -12.416410365779893 119 42 22
-2.209652470986973 3.9015680572630163 -12.428656060935811 118 43 24
-2.2302452239265795 3.914767921827111 -12.441520910548086 121 45 26
-2.2412796342169523 3.924183453977079 -12.463816374901203 120 45 26
-2.2591332147674272 3.9362958442353997 -12.479364179895462 119 44 25
-2.2819875379075345 3.950379178111712 -12.48991924149805 121 46 27
-2.3005956886472645 3.962782092612374 -12.504668482858975 122 46 28
-2.3233628974092357 3.976819762210728 -12.515236026173035 121 46 27
-2.355645990404703 3.9945943701156565 -12.516213757572636 122 46 28
-2.387138637333775 4.01204398378941 -12.517892200937226 122 45 27
-2.4494786044331094 4.041589410330335 -12.488364710205012 121 44 24
-2.4799527500399647 4.058599275732746 -12.49080803322514 120 43 23
-2.5130377722398642 4.076618865242928 -12.490517751790632 118 40 20
-2.5400422393324025 4.092243735129278 -12.496310204286559 121 43 23
-2.570763009239349 4.109311065911612 -12.498246030755222 120 42 22
-2.602430104981725 4.126734524394783 -12.499126271204792 126 48 27
-2.622865767126945 4.139762716729399 -12.511426307142763 124 48 25
-2.641420477752543 4.152053133165582 -12.525627718139283 127 51 30
-2.6828337698487763 4.1732374439890885 -12.516248608996847 134 59 40
-2.7307609818495635 4.196931813265444 -12.499989425887794 132 62 43
-2.7526486871074862 4.210484688909403 -12.510526703418417 130 61 42
-2.7767638999879285 4.224895531089967 -12.51870879087661 129 61 42
-2.801869970843076 4.239682233460178 -12.525805171558508 126 58 40
-2.8297313955452563 4.255526552241907 -12.52996419478384 124 59 42
-2.864136517583783 4.273889809565855 -12.527194635563635 128 70 57
-2.8890691870442544 4.288577260370735 -12.534260916241857 141 89 78
-3.034040904003953 4.369679724868938 -12.54708798101997 152 97 82
-3.0425587209592946 4.378006251636231 -12.571257322848258 140 84 71
-3.0485112464159703 4.385354786980807 -12.598205269157878 110 43 27
-3.040573137127782 4.3873934557816145 -12.640105523688707 103 30 10
-3.0486341876717478 4.395569021147875 -12.664921995776611 89 20 5
-3.0703150296019834 4.408951783277983 -12.675083380846782 81 16 2
-3.0840675802343034 4.419303713454274 -12.693778071670124 97 30 13
-3.1074360885540275 4.433320253647905 -12.702048153555664 99 37 11
-3.105474689322948 4.437688487567048 -12.737810068164524 107 56 24
-3.100441984641774 4.440903669838573 -12.777016057124584 88 33 14
-3.114734522812368 4.451474058721291 -12.79520866293733 74 22 14
-3.1232813190037567 4.459865456144555 -12.819700496707362 63 18 12
-3.123542246747877 4.465123319417154 -12.85333400003576 59 20 15
-3.143541007688729 4.477862042735038 -12.865299174009804 60 19 15
-3.1417966381228855 4.482378680838071 -12.901257748386152 61 22 17
-3.14418384576365 4.488469448705872 -12.932734666544023 67 31 25
-3.144055151581285 4.493622593563172 -12.967078311035865 71 36 30
-3.1440608956941984 4.49883959636676 -13.001359213509344 73 38 30
-3.126824660590654 4.497584830094832 -13.054983584589468 73 39 30
-3.1245596669350917 4.501983016260143 -13.092032272654027 73 39 30
-3.1220356925782315 4.5062993816644195 -13.129472678738713 76 42 33
-3.1172114533143533 4.509769375218211 -13.16960569243101 79 42 36
-3.1495402443390343 4.527163141205255 -13.16791536184866 80 43 36
-3.1438749165833424 4.530337348247674 -13.20912292221341 81 44 36
-3.1962980797534066 4.5552187187061435 -13.184528708028749 81 44 36
-3.167899344784171 4.549926075323534 -13.251675231629555 82 45 37
-3.1521692475274707 4.549391593251874 -13.304628721490904 84 47 39
-3.154693310512091 4.5556755210978475 -13.336884375090769 85 48 40
-3.1348120433219044 4.553646794490467 -13.394915096099764 86 48 40
-3.130127354702806 4.557289029993277 -13.435679634724956 86 47 40
-3.1497491547587986 4.569957043955855 -13.448533107237392 86 47 40
-3.142665421268129 4.572736381482298 -13.492236193976886 82 44 38
-3.138402865885084 4.576579092799388 -13.532803482724473 76 40 34
-3.1456201928948957 4.584677855802479 -13.560143770129287 72 38 32
-3.1424227124843913 4.588943831016644 -13.599670605881858 70 39 31
-3.1329144929759973 4.590903075041265 -13.6466850062021 56 23 20
-3.127830459206964 4.594512469599692 -13.688667180921396 45 8 6
-3.127591470756307 4.599920364396293 -13.725081725851545 68 23 15
-3.104776931550941 4.597061932987965 -13.788186999461178 103 54 39
-3.1127883761094477 4.605531946490009 -13.815117527624917 113 73 60
-3.1165799852673444 4.612464844046184 -13.847089903967571 96 69 64
-3.0945814952737485 4.609985711816548 -13.909759608012159 91 66 61
-3.099000382058818 4.617181514509035 -13.94120877958084 92 62 56
-3.1362432507403537 4.636348669575078 -13.933537903324284 91 59 53
-3.0593662140904287 4.613964314706825 -14.062334036228206 92 59 51
-3.061028137297569 4.620212676193498 -14.097450740100879 92 58 50
-3.054749388723812 4.623592179675665 -14.142210163318651 92 59 52
-3.026519241403211 4.636196104665251 -14.32642050135388 92 58 51
-3.017020525148226 4.638522010778362 -14.375811571226496 93 59 52
-3.003581527247242 4.639454003611519 -14.430182501238797 94 59 53
-3.0008405188011142 4.6442604808436245 -14.47162447306781 93 60 51
-2.9964074682251582 4.648477558638698 -14.515265243217922 93 60 51
-2.983394580110088 4.649638546776775 -14.569612162560379 94 62 53
-2.9986131010758217 4.660934918493587 -14.589253987815049 94 62 54
-2.967591892142978 4.655700792480543 -14.666199380207168 93 63 55
-3.011158638025545 4.67714123530302 -14.650773887568594 94 64 56
-3.0046024296908147 4.680684865058149 -14.697608453655782 94 64 56
-2.983584633269656 4.6791026240412155 -14.762654690881147 95 63 56
-2.9788549187538855 4.6833475671362095 -14.807543633967416 93 63 55
-2.965308527054579 4.68448345784138 -14.863640702649182 91 61 54
-2.7994865204351393 4.643824896160389 -15.191578275735285 77 54 50
-2.520348416681294 4.746860246153272 -16.87107638926507 109 106 105
-2.5085945348909977 4.749705670087518 -16.931978823340508 115 113 112
-2.550185956469896 4.770493389815426 -16.91935270162255 121 121 120
0.21489879384233213 2.6344562998184666 -12.583588148158427 178 163 159
0.2219506102198734 2.6367995534036757 -12.623964462077977 148 118 112
0.2192834264232264 2.6432036786525535 -12.656293119369003 120 76 69
-0.7984867900714798 3.162536554088722 -12.427805504442782 105 44 33
-0.8186850348500805 3.175953029295055 -12.44357671652535 105 44 33
-0.8521831648798104 3.194798632955556 -12.447499856826376 107 45 34
-0.8909776015631925 3.215792341201916 -12.44661412063747 105 43 32
-0.9368333798154076 3.239647782690914 -12.439302263386338 105 43 32
-0.9368132763732309 3.244793874452967 -12.472973284452747 106 42 32
-0.9987855660046181 3.2751800357861236 -12.450989619242891 109 45 35
-1.0457094486892924 3.2994129623067483 -12.442344137557317 110 47 35
-1.0719920927344386 3.315237756728124 -12.452202921559994 110 47 35
-1.094882460761954 3.329677822937708 -12.465083865792206 111 46 34
-1.1882073484715554 3.372669700466823 -12.413911973493061 111 46 33
-1.2335084364373277 3.3961497333917685 -12.406121551334298 111 46 31
-1.26352716454122 3.4134225489812113 -12.412148811090614 111 45 31
-1.2856069084433046 3.4274745204200356 -12.425378484200722 112 44 31
-1.330900605215931 3.450897987802101 -12.417245021684387 113 45 32
-1.448132142247104 3.513519330608772 -12.40922237662444 112 44 31
-1.4683108818649697 3.5267522353981438 -12.423864394650806 114 45 30
-1.4768997242314867 3.535322361137913 -12.449277212584894 113 44 29
-1.5389766407583467 3.5653787068062703 -12.424768073494299 114 45 30
-1.624714199846934 3.6048916690170634 -12.377863094001974 114 45 30
-1.635804406440251 3.6144292379732543 -12.400697403806333 117 48 33
-1.633933228195592 3.6187798656319226 -12.435757320287241 115 45 30
-1.6866066750475328 3.6449639818270403 -12.41940545344965 115 43 28
-1.7259177709660567 3.66577845035871 -12.415512150131999 112 40 25
-1.769876516956845 3.688429527035141 -12.407082848936483 113 40 25
-1.8054229093620169 3.707702528908088 -12.406512724931195 116 42 27
-1.9995254096496007 3.8204842574229017 -12.452633985461732 116 40 24
-2.0151817899264017 3.831778598215503 -12.470700772664184 117 41 25
-2.1108453276008494 3.874696556816514 -12.410729804035485 117 40 24
-2.163482374968687 3.900559794610628 -12.392412318415179 118 41 24
-2.182960546163313 3.913312709203596 -12.406411699639998 119 42 24
-2.2123101006636268 3.9299517101937655 -12.410680339392655 118 41 23
-2.207790126058721 3.9332463638844097 -12.44826501663967 118 41 23
-2.2296805344294905 3.946942341676306 -12.45984365310066 118 41 23
-2.2357682397130954 3.9544248341217125 -12.487049434092196 118 41 23
-2.269837217857479 3.9728948655452276 -12.486490425055504 118 41 23
-2.2887245307924897 3.985397799345371 -12.500958792876677 118 41 23
-2.2892889462053225 3.9907222435033676 -12.533715699316762 119 42 24
-2.3179552082571613 4.007051420868244 -12.538391307981456 120 43 25
-2.3443715894800228 4.022489985930979 -12.545252766659306 119 42 24
-2.4223036649640965 4.05802829459469 -12.500153736551175 119 42 24
-2.433552027612611 4.067511609304681 -12.52207139586288 119 42 24
-2.488465696802727 4.09400640615285 -12.499781573042892 116 38 18
-2.5347063711210502 4.117092952979038 -12.486080773173104 123 45 25
-2.5117668250037375 4.113263798055687 -12.542654790296123 125 47 27
-2.5732475176312732 4.142243625061205 -12.513237140588178 134 57 36
-2.599093013855169 4.1573631930484165 -12.520045942476118 128 53 30
-2.6300925205611527 4.174470097438226 -12.52150220857449 131 55 34
-2.657872905266361 4.190317369705792 -12.526181652988358 129 54 35
-2.687714158444028 4.206950166975133 -12.528661263084967 132 60 40
-2.7370122080696944 4.231083263949921 -12.510921229569066 132 61 41
-2.7618376223407273 4.245747098365106 -12.518381988296499 134 64 44
-2.7817582869766664 4.258512366673159 -12.530888482127471 123 54 36
-2.8273957599405612 4.281170630140538 -12.51653640036111 124 60 45
-2.8476040637670756 4.29402620106935 -12.52860962142423 130 73 62
-2.8733578491561302 4.309006370991716 -12.534834406408386 149 97 84
-2.936299363533044 4.3382412392579255 -12.501887142169771 152 101 88
-3.007660845912033 4.380790152466748 -12.525926920499712 125 59 44
-3.0305216354417825 4.39460305756638 -12.534818228540264 145 93 79
-3.0342118352221648 4.401096763460178 -12.564093833167604 140 84 70
-3.0327994387341697 4.405655880718839 -12.598883537347662 116 50 32
-3.0210788882961244 4.406306288048131 -12.644809466583748 101 29 9
-3.0340049880057536 4.416347622960214 -12.664404331627878 90 22 7
-3.0554496624371965 4.429624354975102 -12.674830725499234 78 14 3
-3.071218412864097 4.4407425332766834 -12.69134772553277 84 18 3
-3.0863915257827865 4.451633911305196 -12.7085020563595 96 32 7
-3.090793186245124 4.458449562216747 -12.737349665519243 106 50 19
-3.0936586163319255 4.464693631762377 -12.767928315766449 85 28 12
-3.1399737502964085 4.487347182058288 -12.751135637595848 72 19 13
-3.1125349541307603 4.482168383195628 -12.8148973841407 63 18 12
-3.071098108966195 4.4717564153838785 -12.894269381747892 60 19 13
-3.1261440808702825 4.497680224781023 -12.867781024029084 62 20 14
-3.130669105018736 4.5045902320569144 -12.89680600633199 62 25 19
-3.1343288287936693 4.511184594174021 -12.926847184516392 71 34 28
-3.132234387716035 4.515632535232726 -12.963336416105893 71 36 30
-3.1187537353770747 4.5158340177072285 -13.012590334714245 72 38 30
-3.0453723354860984 4.493669120513847 -13.128823571323784 73 39 30
-3.131838676812227 4.531265275015719 -13.066811879012306 74 40 31
-3.0879024287958154 4.520168290786986 -13.150599412821155 76 42 33
-3.0727644225381963 4.519850726227132 -13.202358102509876 80 43 35
-3.108480256919757 4.538477346563684 -13.196965114834192 80 43 35
-3.0771907181328997 4.532190610043129 -13.26718657317196 81 44 36
-3.1126887806220553 4.550728544882003 -13.26198896228388 81 44 36
-3.123551823540767 4.560117581440159 -13.284661298364647 81 44 36
-3.124077204481422 4.5656838922638965 -13.319136195179567 82 45 37
-3.133652090265146 4.57460870047248 -13.343358324003336 84 47 39
-3.115477244953437 4.573293173428026 -13.39940045402594 85 48 40
-3.1248436698634015 4.5821637452892325 -13.424009771994488 85 48 40
-3.104771409641125 4.580198300791375 -13.48255588085166 85 48 40
-3.141021739902175 4.598980507152103 -13.47627802001918 81 45 37
-3.1378137850458105 4.6032487760586225 -13.515553902894936 75 40 36
-3.1282039003670765 4.605185570057632 -13.562373107977706 72 38 34
-3.143485880694194 4.6162651628119775 -13.58036917599325 69 36 29
-3.1213868049436324 4.613666836647788 -13.641990652885607 54 24 19
-3.127000327831966 4.621230404865445 -13.671412023842239 48 11 8
-3.104606711195067 4.618581946785055 -13.733753596534374 73 27 18
-3.079432905034549 4.61495597836064 -13.799599475547613 101 56 41
-3.0705976357605174 4.617315465469156 -13.846423899250599 111 74 62
-3.0835729383290444 4.627626012420724 -13.867601516439859 95 69 65
-3.0780008156438057 4.631205569861216 -13.910787902135677 92 66 61
-3.088186836625087 4.640517892478838 -13.93536691339105 92 62 55
-3.1201333495620687 4.657713219660483 -13.934032864563015 90 60 52
-3.0995744860582786 4.655908399323954 -13.995358115400599 91 59 52
-3.0804219413868075 4.654646120825658 -14.055224699266056 91 58 51
-2.9983217795803574 4.6479620788308 -14.303539241707886 91 57 51
-2.991831019866253 4.651412091172237 -14.349146565771797 93 58 52
-2.989295191147685 4.656300057392201 -14.390078395499135 93 58 52
-2.9833605709900684 4.659990350652665 -14.435276864005417 94 59 53
-2.9596548626022328 4.657355514979521 -14.50237329552126 94 59 53
-2.9816991072188443 4.671075053429577 -14.51355870718993 94 61 54
-2.9814878700304135 4.676862431263933 -14.552096460834878 93 63 55
-2.9920394952056233 4.686492982781499 -14.577453110363592 95 61 55
-2.9753370069572362 4.698291143032703 -14.713880450069176 96 65 59
-2.9948986840651335 4.7111520824504 -14.7282881854949 96 65 60
-2.9845830437450527 4.713459787676804 -14.780038850850037 95 63 58
-2.8431662753092297 4.66957130268829 -14.996375724715437 92 61 56
-2.7549484085132754 4.650693751269058 -15.186832298696874 92 64 59
-2.792606547330503 4.670050363183908 -15.179298515825087 66 46 45
-2.5503623307785492 4.800844536166969 -16.894713641410476 118 118 118
0.14045473911886575 2.7066887976662644 -12.575475204458218 183 170 168
0.14676150437764157 2.7093852055563517 -12.615176873641882 150 120 114
0.1422467389317159 2.7165706765192192 -12.64586249544504 115 69 62
-0.4686108728047227 3.02066689009751 -12.465634975957432 103 46 35
-0.6110597017682915 3.110243648393227 -12.544618654996029 103 45 33
-0.7168208866283967 3.1585425733311925 -12.48520324535057 103 44 32
-0.7165123357584955 3.16363384037327 -12.519302091570772 103 43 32
-0.7202100106422824 3.1703651275880325 -12.549921309689156 103 43 32
-0.8415338797215863 3.224858174535437 -12.475842857909251 103 42 31
-0.8780728670996378 3.2448837516956854 -12.476965703186508 104 43 32
-0.9130917090604855 3.264277687783275 -12.479348302660709 105 43 32
-0.957003245906825 3.2872571678876925 -12.473651524554679 106 44 33
-1.0364130791524158 3.3245729260161228 -12.435854344183817 107 46 33
-1.073019995822265 3.3445445186859186 -12.436387844935446 106 45 32
-1.0791152171496528 3.352182593494952 -12.464440364595793 107 44 32
-1.0949501553009888 3.363756123623032 -12.483698360938831 107 43 31
-1.2194543410909753 3.4191162211396575 -12.404037931774974 108 44 30
-1.2503795395928679 3.436722407599001 -12.409250243421905 110 45 31
-1.2776626621285936 3.4528520099235083 -12.41771904062308 111 45 31
-1.304180856658916 3.4686651839657747 -12.426830879027207 112 45 32
-1.330842708414425 3.4845274878557313 -12.435755185675657 113 45 32
-1.3856230510333578 3.5116569550578074 -12.418677241039646 114 46 33
-1.4239584390786986 3.532167680415576 -12.416617249772269 113 45 32
-1.4505738093828735 3.5479698092345524 -12.425315129990686 111 42 27
-1.4602521883158808 3.556990982165042 -12.449712563039405 113 44 29
-1.4962186936871658 3.5765175257591597 -12.44961646560975 114 45 30
-1.5370492881689297 3.5979690290109296 -12.444866122846197 115 46 31
-1.5946981987189033 3.626105537628865 -12.424212164173989 117 48 33
-1.615617714204817 3.6395801890972876 -12.437884588624819 116 46 31
-1.6812988783982288 3.6708603960997084 -12.4093175694404 115 43 28
-1.685940025218759 3.677837921359051 -12.438209638914568 115 42 27
-1.7301677032902947 3.7005434118607097 -12.429622573366704 114 41 26
-1.7833212397715679 3.7267667446416763 -12.412400319293418 114 38 24
-1.7980575325964296 3.7377350787051853 -12.431604635866737 114 38 24
-1.8559187003866628 3.7657769554481857 -12.409589321106223 114 38 24
-1.9961476251234873 3.8467509455524462 -12.440613029233663 118 42 26
-1.998445386070539 3.8527826466975186 -12.471627881370217 116 40 24
-2.046664594571087 3.8768757153236537 -12.457976119908295 116 39 23
-2.0946694733056943 3.900857642890921 -12.44435878106501 117 40 23
-2.132721939702532 3.92090861000321 -12.44031441589782 117 40 22
-2.1889635850985005 3.9480684020618106 -12.418285070632987 116 39 21
-2.195949365324759 3.955912884432985 -12.444538587688394 117 40 22
-2.202941958606774 3.963766481158203 -12.470827200619233 118 41 23
-2.208253317146942 3.97096979691912 -12.498822208422737 118 41 23
-2.247097756438637 3.9912663579266323 -12.493580234316077 118 41 23
-2.2690627870933464 4.004963369505112 -12.505011196864217 117 40 22
-2.320056102288728 4.029957984266895 -12.48743216613469 120 43 25
-2.3244757667353064 4.036806342038682 -12.516266972536481 122 45 27
-2.341377354043652 4.048513372938835 -12.532632888718778 119 42 24
-2.3824808611534443 4.069612588022789 -12.52463685958848 121 44 26
-2.4121571708165765 4.086259158250579 -12.528026719080042 121 44 25
-2.430483961712771 4.098497452399982 -12.542816500583225 121 43 23
-2.471858646023059 4.1196497763193705 -12.534209499052007 126 48 28
-2.505836417215875 4.13792100379054 -12.532980030075864 122 44 24
-2.525497005075306 4.150648860751781 -12.546245307282646 125 48 27
-2.569265296418896 4.172669057702896 -12.53483316284773 124 48 28
-2.5933469746258133 4.187081294893362 -12.543444915637593 128 54 35
-2.628087887273431 4.205586940188344 -12.54104694226513 129 57 38
-2.670400833579409 4.226985773337893 -12.53073290457628 127 57 38
-2.709271238433956 4.24703928320291 -12.523823509081138 127 59 40
-2.7429215810715086 4.265070135957874 -12.52218894578598 139 72 53
-2.7689802748559615 4.28017650472601 -12.528336624640097 125 57 41
-2.8188964851487253 4.304401681645873 -12.50956308318695 127 64 52
-2.8438452758432473 4.319053687291952 -12.516674745328178 125 69 61
-2.876680406846051 4.336707419671024 -12.515466839126281 142 90 82
-2.9294546820503626 4.36194878155538 -12.493213571658238 146 93 82
-3.066886541191806 4.439713381288659 -12.513281334536345 136 79 65
-3.0289382447440523 4.430450684313426 -12.586910023800595 118 48 31
-3.020968830496557 4.432574309124803 -12.628755109505216 106 33 12
-3.0348146854857223 4.442960197323504 -12.64731976421917 90 21 6
-3.0441045060352345 4.451627190553774 -12.670789544167835 83 19 6
-3.066768668531812 4.4653401166438975 -12.679860723216404 86 21 4
-3.078836883792675 4.475056334020374 -12.700345674058624 96 32 7
-3.0856868062551333 4.48281228793102 -12.726503784932326 101 42 13
-3.0911532765419287 4.490055378016926 -12.75421024646711 86 28 13
-3.095289607841581 4.496807492602363 -12.783419165710358 70 18 12
-3.070680289455514 4.492797688600561 -12.844115770068 64 19 12
-3.0428633247444377 4.487622626239174 -12.90855704761443 61 19 13
-3.1138571898329506 4.519421643703584 -12.864637875058216 63 21 15
-3.129510049092066 4.530507919204723 -12.881377951338271 66 29 23
-3.114740703728069 4.530248809008594 -12.931728843138696 74 37 31
-3.1203992418415654 4.53762450671686 -12.959618498218271 72 37 31
-3.105810009121775 4.5374764453192835 -13.010054912772246 72 38 30
-3.0531822553655763 4.523222735499715 -13.103036099525577 73 39 30
-3.0974930444911672 4.545001394774299 -13.088146654305339 75 41 32
-3.1071327810814204 4.55390341896907 -13.111907658384581 76 42 33
-3.1014709210557254 4.5571462023849625 -13.152880096271558 80 43 35
-3.0925441371119975 4.559200746861382 -13.197649984309376 80 43 35
-3.10085795261049 4.567642708535047 -13.223099027082071 80 43 35
-3.103292040041062 4.573922396159579 -13.255241562322581 81 44 36
-3.1067031978689945 4.580573334833064 -13.286349170999738 82 45 37
-3.094646687607483 4.581545463831786 -13.335126382108424 82 45 37
-3.091964288050714 4.585986271335382 -13.373370476838183 83 46 38
-3.0889651335830965 4.590327225187384 -13.412083015720107 85 48 40
-3.095649330049013 4.598233007635998 -13.439796453626965 85 48 40
-3.067944292873908 4.593561988885593 -13.507111647659702 84 47 39
-3.1175893246182835 4.617200183101573 -13.485487437219682 81 45 36
-3.111995656255703 4.62064357386695 -13.52752038356483 76 41 34
-3.1059860811845503 4.623954758898558 -13.570161304810863 73 39 32
-3.082456478046743 4.620907795716228 -13.633297251693355 70 38 29
-3.0813408049498947 4.626046419470198 -13.670546572587142 58 26 20
-3.0928798237682313 4.635795120210464 -13.69310645360437 53 14 11
-3.0819667857909776 4.637405872361318 -13.741996165208597 77 32 22
-3.081614735005574 4.6428658908871725 -13.778639247525177 101 57 42
-3.063870917896226 4.642051158537376 -13.835866251429614 109 73 62
-3.068304300531677 4.6492775272595885 -13.867103758635288 96 69 64
-3.073727171081171 4.656871058930788 -13.897236086273711 93 65 60
-3.061907245451804 4.6582633933761075 -13.947904451142096 89 59 52
-3.0372680016178717 4.655070912448581 -14.014006014959945 89 59 51
-3.049680837894287 4.665226617941279 -14.036126547016375 90 59 51
-3.058875077804503 4.674230438948474 -14.062117044590192 91 58 51
-3.0464926319220083 4.675510841550857 -14.114041345817638 92 59 52
-2.9814916508757463 4.681223482732886 -14.380074326084646 94 59 53
-2.9726618514644594 4.6839320168385195 -14.428743025577408 94 59 53
-2.9852439431934217 4.694260539961862 -14.451387839246621 95 60 54
-2.9860111571753234 4.700406571905942 -14.488535981977899 96 63 56
-2.9742221254180996 4.702125722708994 -14.541214592886146 97 64 57
-2.9816102493371432 4.710646367931174 -14.570434942297167 97 65 57
-2.973610425057238 4.71374744039611 -14.618724944769689 99 67 60
-2.9344638571556336 4.7178743448412135 -14.78339340331478 97 68 62
-2.9058624321070816 4.713854304753594 -14.858087439949802 95 66 60
-2.7837734250965944 4.677142555330198 -15.050155596893125 93 64 58
-2.7343706596281487 4.672149721963819 -15.191823125035633 90 63 60
-2.780543793045613 4.69442510349982 -15.17359357670299 38 22 22
-2.614483273341204 4.758350402161857 -16.173101215788208 48 25 19
-2.401483881333557 4.78180972304739 -17.075587929074427 119 117 118
0.058134173591816385 2.7818375456331554 -12.560307124924503 180 164 160
0.06537762919766621 2.7841888415136977 -12.600729660471472 148 117 107
0.06455718955630196 2.78986768787688 -12.634435481790522 123 77 65
-0.202634943541252 2.910081233365298 -12.476001686127276 110 50 43
-0.6272418214476909 3.1306285986372964 -12.414263635758275 101 43 33
-0.6606603987142252 3.1494304627378815 -12.418701618890367 102 43 33
-0.7216977507589721 3.184643853440613 -12.4324273830116 102 44 32
-0.7404975811748402 3.1974880507470473 -12.449523087702463 103 44 32
-0.7198570007914951 3.1943718435404294 -12.501496067601568 103 43 32
-0.7345477707358912 3.2055653691907784 -12.522303651102735 103 43 32
-0.813817414110118 3.242840670209479 -12.485672657389447 102 43 32
-0.8741016436457363 3.2724077316480886 -12.465667045227892 102 42 32
-0.8984486983307702 3.2874546524166774 -12.477586349993782 103 42 33
-0.9918370820973745 3.3302996433540093 -12.427544359248007 104 43 33
-1.063327894863157 3.3642751610174284 -12.396813951916451 104 44 33
-1.077803210493089 3.3752900039128675 -12.417222876641127 104 44 31
-1.079009753129613 3.380977225159264 -12.449635047043785 105 43 31
-1.081010436639609 3.386994072035292 -12.481398144310281 104 42 29
-1.2017435127982807 3.440610711347855 -12.40528214827199 107 43 31
-1.2357007331139718 3.45939901557676 -12.407752832863453 107 43 31
-1.2031853883268564 3.45158133142514 -12.470895774814672 109 44 32
-1.277087690257404 3.4863309973909975 -12.436733939834014 112 45 32
-1.320856098980412 3.5090039480505317 -12.429976943972111 112 44 31
-1.361143770131704 3.5302665041475674 -12.426286127601497 111 43 30
-1.4044759975062346 3.552722907419715 -12.41965702529242 110 42 29
-1.4230295395296264 3.56529316501837 -12.43584827485578 111 42 27
-1.4459745703607072 3.5796074472931316 -12.447943063983072 113 44 29
-1.4605545081291438 3.590592212643542 -12.467793148730017 114 45 30
-1.5595968661263981 3.635102450995977 -12.40874106322341 115 46 31
-1.5784346007551031 3.6477434728953924 -12.424396111841885 112 43 28
-1.5864281263381805 3.6560859329401945 -12.450218865178606 112 42 27
-1.5971707381327858 3.6655220508322683 -12.473489409539162 113 41 26
-1.6754206893667791 3.701650006027346 -12.433028944208868 112 40 25
-1.713760042325501 3.7219655287741804 -12.430039684880365 113 40 25
-1.7589022991814693 3.7449466224552315 -12.420471975496596 113 38 24
-1.788322545536126 3.761707043543667 -12.425718968124421 114 39 24
-1.830731356347719 3.7835701534864583 -12.418492231923114 113 40 25
-1.8592611737229525 3.7999521759695765 -12.42441028665069 113 40 25
-1.8887180955540157 3.816687665713116 -12.429368726918991 113 40 25
-1.9170978638408664 3.8329887225351333 -12.435289100812536 115 39 25
-1.9481497146959006 3.850326799395967 -12.438561301674573 116 40 26
-1.973300896971888 3.8653404524003694 -12.447459800030153 117 41 25
-1.9935357123265596 3.8784220030868304 -12.461075555874807 115 38 22
-2.0140913973476775 3.8916247218514113 -12.47435167869681 116 39 23
-2.0673115018655372 3.91757844236279 -12.455733002394762 117 40 23
-2.095749103303632 3.9338333814857402 -12.461154548127787 117 40 22
-2.1563098937861254 3.9625951192967976 -12.434997741364317 118 41 23
-2.1632091818561374 3.9704304055049824 -12.461373634777292 118 41 23
-2.1699750437988836 3.978220379614682 -12.487923423308224 119 42 24
-2.179404582834195 3.9870517564861565 -12.511882598557559 118 41 23
-2.231007278057672 4.0122522239747305 -12.494058398902101 118 41 23
-2.254306566471633 4.026451319118433 -12.504174998102073 117 40 22
-2.2963043020913547 4.0478834556121805 -12.495607717938185 120 43 25
-2.305817019850078 4.056728239441112 -12.51936291679779 123 46 28
-2.332925631541203 4.072375917330238 -12.525512418001497 116 39 21
-2.340106289878768 4.080322152462332 -12.55162073273273 117 40 22
-2.368975295349156 4.0966362417684925 -12.55591748840743 121 44 25
-2.393235531698012 4.111163627247351 -12.564794223629555 127 49 29
-2.4550108219728917 4.140114466591333 -12.535616286911663 120 42 22
-2.4817617488713806 4.155567044052099 -12.541757821194043 121 43 23
-2.5140544146056536 4.173136545418565 -12.542189588608489 128 51 30
-2.5575474551592716 4.194985451822524 -12.531087195339191 125 50 27
-2.5835562864781236 4.210113610623745 -12.537729684263553 129 57 35
-2.613356005566719 4.226682304705464 -12.540417596817422 139 69 48
-2.6668138392186163 4.25227848943942 -12.518666818520908 128 59 41
-2.703132494355127 4.271299296561766 -12.51439281210157 122 54 37
-2.7330432516725023 4.2878582502839695 -12.51663045389315 131 64 47
-2.762877791755294 4.304374925219824 -12.518861852827277 120 54 38
-2.80437249864473 4.325313966732758 -12.508874930137088 119 58 46
-2.844059852081056 4.345542869927371 -12.500623069771429 130 76 66
-2.871011545958292 4.360916195170856 -12.50555353437964 141 91 82
-2.932645307912885 4.389426690757077 -12.474033937031745 144 90 79
-3.0229188323083838 4.449231218787954 -12.544075598610295 136 79 64
-3.013645508522838 4.450894290833432 -12.587150940054206 112 39 23
-3.0081627887654756 4.454003661055614 -12.626309806021032 105 31 10
-3.0300637349665345 4.4674154064560785 -12.636236722937571 86 18 2
-3.0328385057784013 4.473645612035526 -12.666672029257336 82 18 4
-3.0576438445396206 4.488140761617865 -12.673438655813406 87 23 4
-3.081964439003919 4.502445198091868 -12.680669032595251 93 29 4
-3.0729617109850254 4.504284790731022 -12.723936654031466 99 38 9
-3.0704118540642953 4.508554546739726 -12.760331590770004 85 28 12
-3.0556803246699933 4.508297185232784 -12.810090463789875 68 17 11
-3.032739793730405 4.505008856771843 -12.868982373348098 63 18 12
-3.0379172277156448 4.512213887331183 -12.897309328169655 58 17 11
-3.091799287104664 4.5375226428884865 -12.872226991453191 61 20 14
-3.1003316199696185 4.545967420913604 -12.896828076611598 66 29 23
-3.1089040246426825 4.554432485533292 -12.921419939588768 72 35 29
-3.0826488345926966 4.550011178178293 -12.98458481717656 73 37 31
-3.0948042436364123 4.559827725563117 -13.005374201126926 74 39 31
-3.0866955707840114 4.562164141000229 -13.0487207052083 75 41 32
-3.0311154822255624 4.547014949971837 -13.145152754435692 76 42 33
-3.0237686045680134 4.549695785792903 -13.188058350538121 77 43 34
-3.034569418962053 4.559072736474433 -13.2107447440394 81 44 36
-3.0876354387018963 4.583981096335457 -13.185932183027042 80 43 35
-3.0914934824170257 4.5907981475473925 -13.216365670217812 80 43 35
-3.0752330823227183 4.590252751832965 -13.269605810607839 82 45 37
-3.0742972518784675 4.595344931859854 -13.305663508938386 83 46 38
-3.069325313638816 4.598976526425093 -13.34640253912941 83 46 38
-3.0646179307143266 4.602723238883284 -13.386959524767605 84 47 39
-3.066446440618073 4.608871145684288 -13.420167514131002 85 48 40
-3.0611594850532646 4.612440539746128 -13.46160547726943 83 46 38
-3.0292636518443388 4.606353225133177 -13.533729028281279 83 46 38
-3.065294480051006 4.624978128749433 -13.527910150615462 81 45 36
-3.0587922612319454 4.62815712230271 -13.57107562945577 77 43 35
-3.0584182003166154 4.63357613726251 -13.607277309173195 73 39 31
-3.045000694654607 4.634291698952325 -13.65871516719799 71 39 29
-3.0628143743530623 4.646316394101292 -13.673975505895374 62 28 20
-3.0587428616676386 4.650443066071895 -13.714759945145335 59 18 14
-3.056256544949537 4.655159194696628 -13.753807560886575 79 35 24
-3.0466668586217174 4.657336484019638 -13.80129841317093 101 60 44
-3.0323103485037044 4.657824875645106 -13.854550718854082 104 70 60
-3.0323357817677796 4.663502356812575 -13.891022490229371 99 69 63
-3.0381567531260774 4.671271215340522 -13.920734172576703 90 60 55
-3.0533120824115985 4.682389341330616 -13.939434803770187 88 58 52
-3.041164965555896 4.68375082692705 -13.99059820706771 89 59 51
-3.0336971095376515 4.686808924300063 -14.036355445647349 90 59 51
-3.019341114216058 4.687434581880673 -14.090489888343912 91 58 51
-3.0279879307630626 4.696275466030184 -14.117242154323153 91 58 51
-3.064915719088591 4.732532291997085 -14.221834697876638 93 58 52
-3.0415379264474818 4.730087727866962 -14.287686223456081 94 59 53
-3.0179408965723673 4.727604557470205 -14.354054325840702 95 60 54
-2.994033577278466 4.725051180210331 -14.421053302258095 96 63 56
-2.9753336756639874 4.724369745280905 -14.481931787676846 99 68 61
-2.97332172983673 4.729586370349815 -14.522546730142038 101 71 63
-2.932875987573007 4.72133586961377 -14.61058129303149 99 68 61
-2.8997215129607365 4.715696723628171 -14.689983783579049 100 69 62
-2.9050858197915215 4.723582618183528 -14.722042983967217 99 70 62
-2.882671653586516 4.721775162550215 -14.78863395327939 96 67 61
-2.873681351857061 4.724689135509362 -14.83877675187895 93 66 59
-2.845864876100741 4.721071262065322 -14.912564617737562 91 65 58
-2.7491998263473345 4.693553685952503 -15.072744834283933 92 66 59
-2.734142357143157 4.694492068178176 -15.131341382336284 95 67 62
-2.7202981318448485 4.695883215760766 -15.188619065464767 70 46 43
-2.754253993725068 4.713855168556853 -15.185837538876719 20 7 7
-2.6133999767708698 4.7351903739816255 -15.814837567668842 14 5 5
-2.451899819915324 4.8288513219420555 -16.981643716150984 119 116 117
-0.016250688011287373 2.8533769216609497 -12.551367163779819 188 175 171
-0.011975136763047622 2.8569843401798534 -12.589224336825758 165 139 133
-0.01827080492450861 2.864916978550791 -12.618189322691988 136 91 86
-0.17358224555938406 2.933559593378995 -12.520144501379765 113 58 48
-0.2650896706013217 2.976132557547894 -12.475998608766519 107 49 38
-0.6761434356230662 3.1850117270157474 -12.390517641101052 101 43 35
-0.6727979966650084 3.194176492594688 -12.460702083405339 101 44 33
-0.6566606441361049 3.1929509472864632 -12.508666865059496 102 44 34
-0.8720342116418296 3.3006459994560924 -12.4526977323106 101 43 32
-0.8817691199997402 3.309810132176786 -12.477646170177309 103 43 36
-0.9944430439663101 3.3602177392366954 -12.410415040832273 103 43 33
-1.047826314752359 3.386821122483927 -12.395964779651713 103 43 32
-1.0768318075729058 3.403648116906923 -12.40328539395681 104 43 32
-1.076140399107647 3.4086019390002904 -12.43735987945449 104 42 31
-1.0758369885392467 3.413723129066311 -12.47116311462487 104 40 30
-1.0702430932851401 3.4167473113852282 -12.50984887864811 104 41 30
-1.093118897449341 3.4311275412146864 -12.522717026418025 105 41 30
-1.1746780600194358 3.468853284038465 -12.481970520230309 107 43 30
-1.273514614280772 3.5133959982236815 -12.425078534632 109 44 32
-1.2950829229686693 3.527187550125394 -12.438702954938517 110 43 31
-1.3600064207177556 3.5581754124447698 -12.412388679205959 110 42 31
-1.3815032297956713 3.5719120608967234 -12.425909195049137 110 41 30
-1.4290030085717826 3.595940152635053 -12.415333086429198 112 43 28
-1.409576119458145 3.593468731334685 -12.466704757752826 113 44 29
-1.4335755787107738 3.608185796295197 -12.477841621893457 112 42 28
-1.4527320441771137 3.6209841214085046 -12.493453750838633 111 43 28
-1.5497963092166698 3.664505121448947 -12.436155691434347 112 43 28
-1.5598754970952426 3.673690156023304 -12.460047291466218 112 42 27
-1.6035099095952954 3.6960863232346655 -12.452400212644484 111 39 25
-1.648685627096512 3.7190658897963202 -12.443154585224509 111 39 25
-1.7021310682607713 3.7452697920236333 -12.425934342976376 115 43 29
-1.7381895537565297 3.764620564572587 -12.425007192463696 114 41 27
-1.7717122946054773 3.7829605625956573 -12.426383971231004 114 40 26
-1.805438223673713 3.8013653183938287 -12.427472300246762 113 40 25
-1.8329259746651134 3.8173147837422174 -12.434428790546765 113 40 25
-1.869174888735504 3.836677889156451 -12.432922014711602 113 40 25
-1.9036416681122525 3.8553281277573697 -12.433018532419617 112 39 23
-1.926703007588865 3.8695148500036973 -12.444007464231898 113 38 23
-1.9526897125303528 3.8848346289561815 -12.4521272452548 114 38 22
-2.0108311268023216 3.9126584627325975 -12.429029022904764 114 38 22
-2.0412735949215914 3.9296792704826706 -12.432620152584064 115 38 22
-2.1082041850513953 3.9608568220119578 -12.400578545336005 118 41 25
-2.1091170873991496 3.96638207341151 -12.43276004973276 116 39 22
-2.1232575088010623 3.9770445943363106 -12.45205755567334 117 41 22
-2.136606756948724 3.9874014791247174 -12.472136162228963 122 46 27
-2.1552583606371725 3.9998099559274856 -12.487000721075423 124 48 28
-2.151344120166255 4.00349893381423 -12.524130114565867 117 40 21
-2.205907495810986 4.029767042529986 -12.503454695985496 117 39 21
-2.240023935565894 4.048121186955925 -12.502868936054057 118 39 22
-2.2599785477123686 4.061006747394103 -12.516279005234594 118 40 23
-2.294712337820267 4.079571998765247 -12.514908637286258 116 38 21
