ply
format ascii 1.0
element vertex 698
property float x
property float y
property float z
property uchar diffuse_red
property uchar diffuse_green
property uchar diffuse_blue
end_header
-0.32294647795647347 -0.7272215485971558 -12.817819944487265 154 91 71
-0.29048024511590675 -0.7488152217637158 -12.820624542243316 148 78 53
-0.25128635116068665 -0.7738156192352164 -12.816238643631097 135 60 33
-0.2276048587888635 -0.790920211666811 -12.828136136687272 102 25 6
-0.2175520427922777 -0.801103122962803 -12.854451079032026 93 19 4
-0.22628875231274748 -0.8017635714111595 -12.900790674320394 86 18 4
-0.2163783402238657 -0.8118917215498076 -12.927384070479683 65 11 2
-0.20440434770615568 -0.8230697460771381 -12.951807778519731 54 9 4
-0.21497123517966532 -0.8228484669674936 -13.000431161445835 62 19 12
-0.24407946294278116 -0.8132764773148495 -13.06914925978025 45 16 10
-0.2335118148017461 -0.8237801939558218 -13.095351371437827 23 12 7
-0.22568105057979704 -0.8329074268638292 -13.12454711777869 45 33 29
-0.22079920366029082 -0.8405545636919483 -13.15699045455527 51 43 37
-0.21310073342953384 -0.8496302903014548 -13.186440280197353 59 54 49
-0.20539184257095577 -0.8587183971871193 -13.215930663287473 65 61 56
-0.20829860126323307 -0.8624732828593724 -13.257074740130639 74 71 64
-0.1441624541210853 -0.8999438058053415 -13.224866094649746 100 99 92
-0.13869257664124301 -0.9079102905714174 -13.256838018176108 95 93 86
-0.12762215692272072 -0.9186964056436011 -13.282705132279318 88 83 77
-0.12814503774422903 -0.9236736578439171 -13.321412154718896 76 71 64
-0.1250428455004382 -0.9304811623217697 -13.35620543998084 85 81 73
-0.12093938517340685 -0.9378009821101689 -13.389967125597789 76 72 64
-0.11759511768705799 -0.9447513275493371 -13.424649120892418 100 97 88
-0.11198187885082866 -0.9528466410853969 -13.456877056490182 103 99 90
-0.12253197970335172 -0.952879388038868 -13.507269279693336 89 85 76
-0.1162176803010837 -0.9613494705939862 -13.538891790736029 74 70 63
-0.13632339082692013 -0.9566564383929861 -13.600318986622295 81 75 68
-0.13368989943392684 -0.9633212667184625 -13.636302112131693 87 81 73
-0.11896287324838983 -0.9760170391363583 -13.65868344318038 96 92 84
-0.11192259999202836 -0.9848919103823928 -13.689800559174401 90 78 69
-0.1055993733868279 -0.9934186652493691 -13.721793056795102 87 56 38
-0.10777978966797264 -0.9977325385114888 -13.76355214907928 157 97 65
-0.11038135784378422 -1.0018535281447227 -13.805909661164385 161 95 66
0.5443619080413296 -1.4431369041028455 -13.904721623427463 87 42 23
0.6186117879821547 -1.484683493738613 -13.854096556481224 106 47 27
0.66443286119768 -1.5123743260283815 -13.83778513596084 136 70 39
0.6812448355150185 -1.5259661955134258 -13.856776104808084 115 43 24
0.7116298615912271 -1.551580364617024 -13.898733149148368 111 37 21
0.9314691324294593 -1.6904023791903797 -13.863902953250157 114 40 24
0.9540288344335908 -1.7067012967312252 -13.875270107961882 117 45 27
0.9735700973018249 -1.7215438681292166 -13.890388188648432 116 45 26
0.9891886053759471 -1.734500162667139 -13.910427438012908 112 41 22
1.0089252701700167 -1.7494319718626814 -13.925266017971278 118 45 26
1.0373373791803893 -1.7685169993050938 -13.929087088012034 118 45 27
1.051177052263296 -1.7806154322388572 -13.951339728140196 114 42 24
1.1248518520692663 -1.82132793214199 -13.897378542768648 113 42 24
1.150384953563207 -1.8389885009986155 -13.904519755199882 113 42 24
1.1681522602838461 -1.8529340019919398 -13.921542696233741 113 42 24
1.180711799356656 -1.8643950147471466 -13.945242196593274 111 42 23
1.194973435241141 -1.8766700234160534 -13.96677388337668 115 45 27
1.2161354872594847 -1.892230002682552 -13.979407770317852 108 36 20
1.2238820615055497 -1.901408330425983 -14.009375581749282 108 36 20
1.255304718256916 -1.9218371798426168 -14.008664360458367 110 39 23
1.284779080694121 -1.9413270346565374 -14.010381684270723 106 38 23
1.3288276206245762 -1.9677104099990688 -13.992981824936109 103 37 22
1.374026713326833 -1.9946113334805196 -13.973878765721429 99 35 20
1.36785332949706 -1.9971890126018823 -14.02198501727996 98 36 23
1.4048237876832115 -2.0201706442030676 -14.01347775727945 95 35 24
1.4375387182491242 -2.0411234166108163 -14.01043600346739 97 36 25
1.4663064632747194 -2.060198857954836 -14.01249666104161 98 36 24
1.4950289526835494 -2.079240369673412 -14.014525539913187 98 36 22
1.5049318128152906 -2.0894151849279017 -14.041494436520772 98 38 24
1.5498041721384244 -2.11603073971177 -14.021867894692964 97 39 26
1.577395122127764 -2.134504298564509 -14.025142772364696 100 43 30
1.605831447590437 -2.153362665683149 -14.027199229078576 105 47 33
1.6422147223493315 -2.175931529503501 -14.018479504322187 112 59 44
1.6813224896037662 -2.1997548866247683 -14.005937282611956 117 69 54
1.7064686622470058 -2.217028009968703 -14.01209832363305 116 73 60
1.7321276007722943 -2.234531150104891 -14.017495654766943 115 73 62
1.7688146024306022 -2.2571686971068514 -14.007831881815122 114 73 62
1.794351483208919 -2.2745893611261274 -14.013209251523087 110 68 57
1.8176351918282831 -2.2909512639581453 -14.021592933120544 103 59 49
1.8409516441498592 -2.3073206629901226 -14.02987550771974 92 43 34
1.8709352886626496 -2.326778875137739 -14.028941490337274 98 44 36
1.8911916193080165 -2.3417095200722953 -14.041301168536153 99 44 34
1.9263075797455809 -2.3635218512885174 -14.033100535462975 101 48 35
1.9469296165144119 -2.3786046583687406 -14.044829031060269 104 51 39
1.9846072479635124 -2.412662124309975 -14.113562907839027 120 71 58
2.0012179590857277 -2.4258880379058128 -14.13084746102248 126 81 67
2.021837176295577 -2.44095812471073 -14.142496790304147 124 83 69
2.031363087178266 -2.4509222112777307 -14.169724107539412 123 86 73
2.0303857774319214 -2.6380540119549845 -15.536197623749903 6 2 3
2.0842828784503507 -2.668016927604164 -15.498028530787561 20 3 2
2.161070643893642 -2.7080329253272777 -15.424199976279407 83 40 29
2.23479043931537 -2.746627277848127 -15.354610343235604 104 47 32
2.273241052393348 -2.7696392855126364 -15.339287662649483 111 49 34
2.3080243518053027 -2.791014059298889 -15.329484192444061 104 42 25
2.345717167353401 -2.813643462668929 -15.314979636915599 108 43 27
2.3832089728020334 -2.8361593701243577 -15.300604707385812 110 47 30
2.523508573353208 -2.9156967421865594 -15.212460217830042 99 36 19
2.56446432393959 -2.9396037036326446 -15.19174132513389 105 44 27
2.585240423785579 -2.9546987375244242 -15.202826402420047 116 48 26
2.608074835886998 -2.9706823537686358 -15.21059305389429 118 47 21
2.6494146780256047 -3.0007481015430026 -15.232868007947461 131 71 51
2.62447178573946 -2.996031724869436 -15.317120698178265 123 68 54
2.618663353162268 -2.999634191390888 -15.370949773251821 89 28 11
2.6479938773949554 -3.018427836806832 -15.36828431265339 86 21 5
2.656490401128221 -3.0282265029036513 -15.399201386578817 81 18 4
2.6652311177938453 -3.0381392711302073 -15.429787960160207 85 28 15
2.6452857599242527 -3.0357335010522926 -15.507098113391176 56 15 9
2.650988178361086 -3.044377719544816 -15.542896684791273 20 2 2
2.6546351776237973 -3.052153850253202 -15.582149075215437 11 2 3
2.7039904971477435 -3.079502780928327 -15.54654812768229 10 3 2
2.741310711307884 -3.1016681303372295 -15.530437781621533 10 1 2
2.7628646591112513 -3.117080398013133 -15.54013369108392 9 1 2
2.8015674328764764 -3.1397910603231733 -15.521419267011616 9 2 3
2.840768073087112 -3.1626848392287203 -15.501670653060577 23 18 23
2.854133152307721 -3.1745756055906 -15.524668188723005 56 53 60
2.8656960397021622 -3.1857051187902314 -15.550693206190097 76 75 80
2.8467648267242636 -3.183926337301038 -15.62774506494312 28 27 33
2.8303529418413023 -3.1958796752396204 -15.792754065749538 41 42 47
2.8253189626720383 -3.206468574264877 -15.893744342341895 43 43 48
2.799537384664613 -3.2020362785601844 -15.984051406242948 42 42 48
2.8317212713194344 -3.221944897525677 -15.975935479582517 44 43 48
2.859801506993443 -3.240115891134995 -15.97468247244515 46 44 46
2.88750721808455 -3.2581147814798914 -15.973957450890218 32 31 29
2.9138750305300585 -3.275540474614071 -15.975421270052564 29 26 25
2.9359489677104893 -3.291164753404149 -15.984188096004626 26 22 21
2.942338084432979 -3.300260706594175 -16.020009627185814 28 24 22
2.986606098257055 -3.325090993257964 -15.99026401312869 31 26 23
3.0135332121233924 -3.3426979810650956 -15.990388329116772 36 29 26
2.9883026180617174 -3.3387117153966295 -16.081322007524456 41 33 31
3.0166173772053124 -3.356897489557095 -16.079061667550505 47 38 36
3.0435371545417924 -3.3744915339576695 -16.079126666550792 55 45 43
3.079733866849933 -3.3958903079546157 -16.062778659741777 63 55 52
3.111574052195712 -3.4154711374985576 -16.053911202629568 71 67 63
3.1388387004614016 -3.4331528605369557 -16.052974796640207 80 76 74
3.166676939377539 -3.451054179481225 -16.05090969047062 87 85 85
3.1943830002361837 -3.4688851872641338 -16.04896126250738 91 89 90
3.2203329749846255 -3.4859830097856688 -16.050025395838773 96 94 94
3.264248219396767 -3.510390148682188 -16.018877401959898 100 99 99
3.285287021042751 -3.5254493404216145 -16.02845278982877 103 103 103
3.2974148355432673 -3.5368812334160498 -16.053992741620874 108 106 106
3.29075131847702 -3.540697283324913 -16.11344111109454 113 111 111
3.32471338120172 -3.560992275611965 -16.0996837310401 118 117 116
3.190617056494397 -3.546863404762006 -16.634340509970713 154 152 153
3.219560951233758 -3.5652123790379924 -16.63027700274393 159 158 160
3.326672655574094 -3.6214711789798906 -16.530496981903518 169 169 170
3.3471566560785737 -3.6363647138411475 -16.541504281190836 173 173 174
3.369387686537335 -3.6587065296998045 -16.598410312729623 179 179 179
3.341652971033633 -3.6545188726868494 -16.699782684021766 183 183 183
3.5433487533188464 -3.7747450159691622 -16.615875401267072 202 202 204
3.5681832056352265 -3.7912629151603743 -16.618022277056625 203 203 205
3.5763420859971644 -3.801269095075491 -16.65205462199251 204 204 206
3.5761444456199456 -3.808036684210017 -16.702244436187275 205 205 207
3.60041480588641 -3.8312014143488407 -16.755444391277234 207 207 209
-3.9519310092292934 1.648838132507222 -12.491428770634519 103 47 36
-3.908975755709088 1.6204424679794118 -12.49428888126333 104 47 35
-3.0576658728173554 1.085471686197173 -12.35046344223985 108 42 30
-2.359218341816801 0.6322309272400761 -12.335858693649369 112 40 25
-2.3669934089503912 0.6313126099715407 -12.379051414034176 115 42 27
-2.372528955459016 0.629190857886833 -12.420394582199634 118 45 28
-2.3375658267375004 0.6056114431119419 -12.426091805214156 115 42 25
-2.2958712412347495 0.5784820266659056 -12.425744624894389 114 41 24
-2.2625535878283207 0.5557984597701644 -12.43271687641704 113 40 23
-2.2377759822735017 0.5376384897527249 -12.447214739333972 113 40 23
-2.221174099496153 0.5238010611103818 -12.468975431026859 113 40 23
-1.8503098682038637 0.26776956898619675 -12.572105190428253 116 37 20
-1.799436337567239 0.23603894326760866 -12.561787603893773 117 38 21
-1.7379306441870144 0.19876841894759645 -12.541437899882393 118 39 22
-1.6859312184893938 0.16649996141782664 -12.52970573315908 123 44 27
-1.6338961816649382 0.13423741256007782 -12.5177634515617 118 40 20
-1.572876728781682 0.09730775657998647 -12.497241121593863 118 40 18
-1.5397127180193975 0.07494566640401867 -12.502616426456203 120 41 20
-1.52473312462425 0.06207816042393466 -12.525008631653886 121 40 19
-1.5198003190831946 0.05444499708821704 -12.55688455428577 121 40 19
-1.4963377374265523 0.03715311754437112 -12.571303581280658 121 40 19
-1.458284159162833 0.01227222020783314 -12.571856700706714 121 40 19
-1.4261952776673796 -0.009491567844113646 -12.577971520206042 123 42 21
-1.3868531315728996 -0.03501415332125468 -12.57709434678338 123 42 21
-1.3537985555650636 -0.057255203050276204 -12.582110993267095 125 45 23
-1.3234146727957103 -0.07809859369971761 -12.589603653588798 123 44 22
-1.284037606952344 -0.10359640865792308 -12.58838352358556 120 40 19
-1.244981132310441 -0.12891181023757348 -12.587354999975078 122 43 21
-1.2103263974299043 -0.15193145025952237 -12.590463699964259 124 44 23
-1.1760581702192274 -0.17473811982784726 -12.593853539655198 126 47 25
-1.1330612651527607 -0.20204632400710842 -12.588671439508033 127 47 26
-1.11028968987684 -0.21888279659115994 -12.603054445154198 124 45 23
-1.0559302800068817 -0.25202811963019345 -12.586549890026573 122 44 22
-1.0165324797573891 -0.2774245511888811 -12.584500735723736 124 48 24
-0.9772633281940086 -0.3027379481414285 -12.582457510225492 136 60 36
-0.9381238426337202 -0.32796786769231145 -12.580421803172381 133 55 33
-0.9407619600844734 -0.3316672797098783 -12.619521354068134 123 45 23
-0.9200399524265439 -0.347401961841737 -12.6355939380302 125 45 24
-0.8896013617341438 -0.36813010316087125 -12.64199774722944 119 38 17
-0.8789236959933548 -0.37869395012435936 -12.668000768754322 122 41 20
-0.8527683270478192 -0.3972096427071552 -12.678585525571634 123 43 22
-0.840699554184626 -0.40849048207582905 -12.703219343683351 127 49 27
-0.8154254381993677 -0.426545425701383 -12.714624281321825 126 47 25
-0.7683740699999788 -0.45575128808786314 -12.704065806471482 123 44 22
-0.772124501331751 -0.4589255336941602 -12.744607448370731 126 49 26
-0.7110165326870357 -0.49529577984941264 -12.719632528232193 130 54 32
-0.6573141275916079 -0.5278465034567237 -12.701927728003339 127 51 31
-0.6206559262177747 -0.5516623995510233 -12.70135915423193 125 52 36
-0.5869152595396763 -0.5739737263599616 -12.703656125035478 141 77 60
-0.5615377284252885 -0.5920062017062375 -12.714412577674576 137 71 56
-0.5317923180372093 -0.6122580830525788 -12.72064012955828 139 72 59
-0.5070294131302626 -0.6299622451763325 -12.73191835390598 140 78 67
-0.4692686435454281 -0.6542747044802599 -12.729747144039706 150 92 80
-0.43276387525465143 -0.6779320160581408 -12.728755949240352 162 104 86
-0.408277345114195 -0.6954669623602134 -12.740113050196829 157 90 68
-0.3907062208599932 -0.709484415671946 -12.758614241950415 157 79 55
-0.3798553343321025 -0.7200914537664915 -12.784114226795882 147 68 45
-0.3575142663009636 -0.736527925671218 -12.79763583238838 161 94 75
-0.33775872483402747 -0.7516500226209479 -12.81383382302081 165 104 86
-0.3160685075906695 -0.7677487954218001 -12.827979845989846 150 82 62
-0.27038964243052455 -0.7959764901890671 -12.816818628272378 120 43 19
-0.2386120962054168 -0.8171555191620063 -12.82017848988664 102 23 4
-0.24356983212961936 -0.8197712823436301 -12.86236858829396 95 19 5
-0.20331039832741116 -0.8452204066341089 -12.85664728912891 86 17 4
-0.19061929008580591 -0.8567506114367234 -12.88015344902917 63 11 1
-0.22989163456882977 -0.8421044938712363 -12.959178991275063 52 6 2
-0.21838581043449246 -0.8530646415541612 -12.98414652888762 63 18 12
-0.1934032352577919 -0.8708075546005234 -12.994671223317782 52 17 11
-0.2521755015712177 -0.8464484739353395 -13.095324934467193 29 10 5
-0.24341524429215688 -0.8560645610589819 -13.123507350807092 65 48 46
-0.2076101215626185 -0.8792578424171 -13.122458546324113 83 73 66
-0.2003513438998441 -0.8881227186439862 -13.152282361811931 107 102 97
-0.19308239544679484 -0.8970001958482903 -13.18214926264655 91 88 83
-0.18327620083663643 -0.9071552836843466 -13.209301580857026 87 84 77
-0.16623178987428133 -0.9209361826399509 -13.228573147260388 107 107 98
-0.16616191986505857 -0.9262334851897034 -13.266466010346404 105 103 95
-0.1602097872268482 -0.9344815946411864 -13.297984951666288 102 98 90
-0.1573667779592789 -0.9411871630676774 -13.332996519324043 85 79 72
-0.14729841061279814 -0.9515060792064705 -13.360097881898922 78 74 65
-0.14796893324823035 -0.9564812017437214 -13.399148259894638 77 73 64
-0.1458327309698717 -0.9628675354941114 -13.435180637615932 97 93 84
-0.14503581151390765 -0.968599896821563 -13.472793190766453 104 100 90
-0.14109733029981175 -0.9759063917417086 -13.50698850593989 89 85 76
-0.1356266292980406 -0.9839841797388802 -13.539542746631179 73 68 62
-0.15171443298463583 -0.9813776470865614 -13.596398242593699 93 89 81
-0.1458263970289817 -0.98969011610528 -13.628683007807197 88 85 75
-0.13639387937303038 -0.9997669095972421 -13.657027846236678 95 91 80
-0.1298924924476843 -1.0083996416854597 -13.688738753268016 80 63 50
-0.1254745184908419 -1.0160111216816228 -13.722879522234875 129 85 63
-0.1361453384641198 -1.0161803789702133 -13.774286548812487 156 95 64
-0.35267851163887265 -0.9427536849694769 -14.26286737918492 128 57 32
0.5161087174348067 -1.4610569678644199 -13.91658396547213 113 73 47
0.5835722768221441 -1.499177662501801 -13.874348110490361 85 29 13
0.61618760483484 -1.5204221860580183 -13.874240372971467 125 61 38
0.6335297833010207 -1.5342827451374568 -13.892686282337994 118 49 30
0.714780403826702 -1.5844267434374015 -13.87236006733888 111 38 23
0.718535865174255 -1.5917264108035911 -13.907366878134464 108 36 21
0.8189295412805162 -1.656453004970229 -13.90222658194209 114 41 25
0.8474698680838593 -1.6756367010367539 -13.90641450105981 112 39 23
0.8871751999407991 -1.7001549648085352 -13.896582781375898 112 39 23
0.9242481943650853 -1.7233921945663715 -13.88988816618553 111 40 22
0.9307091820300393 -1.7319809834991884 -13.921472012706088 113 42 24
0.9522457319245614 -1.7477761664475926 -13.934150263779024 111 40 22
0.9934766165257036 -1.7729594456049953 -13.921942003064462 110 40 22
1.020298004891938 -1.791253385452452 -13.92779440708086 113 43 26
1.0132762803300261 -1.793427856832143 -13.976507583155904 109 41 24
1.02144371535665 -1.8028471355242668 -14.006058067881437 106 38 22
0.9947255559658963 -1.7957014748452842 -14.080158012490493 105 40 22
1.0282517852720892 -1.8171873052861502 -14.077507321686966 102 38 21
1.0619587160196238 -1.8387422988988726 -14.07450580732485 100 37 23
1.1065359055783235 -1.86542893243075 -14.057406692487607 98 36 23
1.1482756514334778 -1.8907457969628605 -14.04376906780661 100 36 24
1.1908223747210895 -1.9164194487695099 -14.028910474935138 100 36 22
1.2396287481201007 -1.945023244258845 -14.00575398361393 101 37 22
1.287171993953148 -1.972999541773123 -13.98401052324981 99 35 21
1.3143682959875642 -1.9913576054084898 -13.988562346286482 98 36 22
1.3640877559663425 -2.020306876910236 -13.96360423246518 95 36 22
1.3858902058127978 -2.036095705236601 -13.974986082745723 91 35 20
1.40308976979063 -2.0497166038476338 -13.992373505419168 91 36 23
1.4302817733257154 -2.068025216135197 -13.996588739847422 97 43 30
1.4534304567505645 -2.084427377197308 -14.00606449837905 104 51 39
1.4820508417520264 -2.1033845909792506 -14.008241766047465 109 62 49
1.506181426005809 -2.1202289978803472 -14.016290483131062 113 68 56
1.5330030680258764 -2.138322663826878 -14.020696663936908 118 74 63
1.5613468085039868 -2.1571158911276584 -14.022991808007355 121 77 67
1.5948106079325592 -2.1782839994946377 -14.018342279794547 115 73 63
1.6212740686767875 -2.1961738493640803 -14.022962430118051 106 61 50
1.6507451118353913 -2.2154523385693605 -14.023457067776592 97 49 38
1.6741495549865917 -2.23189746522084 -14.03203997451224 96 46 32
1.7016325061588846 -2.2502283847548807 -14.035047809835143 98 47 34
1.728358643369556 -2.2681964431254027 -14.038996865456625 96 46 33
1.7504213851619523 -2.283993015594555 -14.049210416276019 97 47 34
1.7671260475969977 -2.297303722426986 -14.066687286311204 99 49 36
1.7868551420683012 -2.3120114001899883 -14.080019513156842 101 51 40
1.80693660894263 -2.3268776573027377 -14.092838694917813 111 62 53
1.928474808572581 -2.617705683340639 -15.619636737168463 14 12 15
1.9833309161216324 -2.6480433328676307 -15.580538047624886 6 3 3
2.031955120266346 -2.6756019969743483 -15.550697409032233 10 2 2
2.113799187056334 -2.7176799781578174 -15.46938167417257 61 25 19
2.1767990503429946 -2.7514350189622507 -15.416639597327723 98 42 29
2.2322954390498575 -2.781856084187834 -15.375131476884597 105 40 28
2.2745914289820552 -2.806469789069575 -15.353804301504514 100 35 25
2.3056732615600657 -2.826164964892544 -15.349729763582992 104 38 28
2.336845089862768 -2.8458815855656376 -15.345386698364184 105 39 26
2.3675648901846182 -2.8653838097650546 -15.341622631418833 107 43 26
2.4040351714812447 -2.8873646845345617 -15.328697687847818 106 39 26
2.465100651917836 -2.919982514698044 -15.276847899166976 104 37 25
2.502836215122338 -2.9424474465025803 -15.261464827481525 108 45 28
2.562338133611558 -2.974295208948745 -15.211412359472606 107 41 17
2.543301744397854 -2.9721876593476697 -15.285735605679097 134 70 48
2.5775861898620445 -2.9931071085675693 -15.275432365293913 138 77 56
2.6283840343279197 -3.027239998416285 -15.282803721504866 146 91 77
2.5917310801275653 -3.017653617690328 -15.38601741168635 103 43 32
2.6296219797525815 -3.0400832701075644 -15.36964922907356 86 20 8
2.6526449796815017 -3.056122201502884 -15.377095287868839 80 17 4
2.644321380497594 -3.0587547287584984 -15.435236289713522 84 28 17
2.636380687086194 -3.0615805411975643 -15.492971057353417 50 12 6
2.633934037290766 -3.0667772524762533 -15.541973537632089 21 3 3
2.6101494018605917 -3.0629165892724806 -15.625979008746658 13 3 4
2.6983004872852305 -3.1066690876069947 -15.527082912820195 12 3 3
2.718187514026 -3.121367355505679 -15.539604475827485 11 2 3
2.7391717023427855 -3.136525453851783 -15.550283793817512 11 2 3
2.776727234259357 -3.158687421518848 -15.533561456824932 10 2 3
2.8319950613128047 -3.2071322579027846 -15.62317465563259 28 27 33
2.7392457215574364 -3.1745073381462596 -15.823985222588934 28 27 33
2.775083260920284 -3.195927472678904 -15.809990226907889 40 39 45
2.816010773497215 -3.2322499607603294 -15.87958115023665 42 43 48
2.784267665123263 -3.2254547328857264 -15.979842331937707 42 43 48
2.8172240774886914 -3.245635204231586 -15.970453021283193 43 42 48
2.852573972100961 -3.2667876751471656 -15.956820195807289 42 40 45
2.7700077418968094 -3.2390192674662144 -16.14477976305286 33 30 31
2.7933085159996436 -3.255210262922905 -16.152016609124804 35 31 30
2.8115344787779497 -3.2692942316030313 -16.16791796498144 31 26 25
2.8243290531122796 -3.2811340692418947 -16.193171599387913 32 27 24
2.863473542122052 -3.303835008835663 -16.172865087647025 35 27 24
2.9479966568813385 -3.345171747997381 -16.073601297133074 39 29 28
2.974091132272747 -3.362421510900185 -16.075338417253406 45 35 34
2.9332397972125754 -3.352209504001247 -16.19378339414267 49 38 38
3.007299768788849 -3.389111181042671 -16.111728500926116 60 49 47
3.0349098516679973 -3.406952425200316 -16.11060528481491 66 58 55
3.0664861231015346 -3.426396066531014 -16.102390468920113 73 69 65
3.1084496762597897 -3.450049222320488 -16.075696151470304 82 78 76
3.174360629985575 -3.4834042438870827 -16.00637671765104 89 87 86
3.1934728575656317 -3.4976937975050637 -16.019593244286803 95 94 93
3.2134703797972293 -3.512337627696472 -16.03120235468863 100 99 97
3.2334502835900416 -3.5269686046234714 -16.042801586360227 103 102 102
3.2596731934345753 -3.544115149055209 -16.043189919005354 106 105 106
3.2790170552650846 -3.5584738711890243 -16.0558161192329 111 109 110
3.272849869912723 -3.5625602933771354 -16.114305564643303 118 114 116
3.2952026039595435 -3.5781358676068247 -16.121560694849318 124 121 120
3.1418711900849363 -3.5503051496973574 -16.641885458247096 154 153 153
3.145759826159539 -3.558674496222167 -16.68398396064467 158 156 159
3.1651681331114254 -3.573219842813989 -16.69765361573032 163 162 165
3.360958585718147 -3.6847052804036586 -16.58123170290763 182 182 182
3.3812368763693037 -3.6994923344554587 -16.59255373395353 185 185 185
3.328370474609841 -3.6856204431873696 -16.741099555423048 187 189 188
3.5655981369669165 -3.8192517717969205 -16.5895834415712 204 204 206
3.545619472948707 -3.8183962414071857 -16.677371944271396 205 205 207
3.6215576187601384 -3.861468924832992 -16.631009311918863 206 206 208
3.631225456864927 -3.8720803714831904 -16.662105084772282 207 207 209
3.6306639057465286 -3.8787784493887423 -16.713074548350804 207 207 209
-3.9744956848639568 1.624068113916814 -12.492178588137632 100 47 35
-3.9037994121849584 1.5807940978480302 -12.472808699924773 101 47 35
-2.5138722299312533 0.6845862677562335 -12.41691392969765 112 40 26
-2.3882071673576184 0.6130992628060912 -12.34360645698057 111 39 25
-2.3922386435077065 0.6101435102712935 -12.3835121337835 112 39 25
-2.4013401345616683 0.6098476264601849 -12.427980197169223 119 46 31
-2.3938210117188135 0.6007719839836478 -12.457921945638104 114 41 24
-2.3538584768390103 0.5745976544339939 -12.459226557136082 112 39 22
-2.3176255322028787 0.5504020925386235 -12.463729068241376 113 40 23
-2.321344844962516 0.5472397313079354 -12.503660321268564 112 39 22
-2.2883613010515202 0.5247645407234347 -12.510974950353756 113 39 23
-1.8519146876121875 0.234694812760746 -12.555339481254052 117 38 21
-1.800534095741816 0.20278400384871675 -12.544553877058643 117 38 21
-1.747349536148577 0.16995752729850233 -12.531924978498989 120 41 24
-1.7025506570920816 0.14152188238628138 -12.526903154057766 121 42 25
-1.6759578890810065 0.122577044426178 -12.53869825585393 118 40 20
-1.5919642809037375 0.07379811530568858 -12.49683676459858 117 39 17
-1.5485189231440533 0.04613206979429396 -12.492607225052804 119 40 19
-1.5358382753679427 0.03445646224613519 -12.517132202144225 121 40 19
-1.5673123330872345 0.04568496957494439 -12.583255747294679 120 39 18
-1.5373941277915941 0.025050676737455202 -12.591663730994025 118 37 16
-1.4684721490272645 -0.015781321878081567 -12.563079094436851 120 39 18
-1.4330665105960874 -0.0392240019306338 -12.566044899324542 122 41 20
-1.4518851154427352 -0.03460027278082389 -12.6205324259553 126 45 24
-1.4057674170659542 -0.06357402490368846 -12.61322362797546 128 50 28
-1.3536447783592802 -0.09562897602395859 -12.600016354646266 124 46 24
-1.3121182864189942 -0.12218794750655082 -12.596795376673509 123 45 23
-1.2687871249652147 -0.14966001774883475 -12.59170946022514 126 48 26
-1.2363228032622553 -0.17151056222517225 -12.596971237972006 124 46 24
-1.206748384899111 -0.19186091623999735 -12.60494755377983 121 44 21
-1.1393803600714083 -0.23165802039571304 -12.576189858525293 121 43 21
-1.1090642420418515 -0.25235730585738425 -12.583211244242992 124 46 24
-1.0627888721175438 -0.28125062538610246 -12.574593327297897 123 45 23
-1.0272311112324264 -0.30461658422365945 -12.57630238668117 122 45 22
-0.9927819432572509 -0.32739952436446274 -12.578998880056833 121 45 21
-0.968140512215447 -0.3451384432892124 -12.591246471964988 122 44 22
-0.9571887720365817 -0.3558544894486686 -12.616951443247851 124 46 24
-0.9319666507296152 -0.3738841125889034 -12.628576741845354 127 47 25
-0.9248802696834151 -0.3826250588342588 -12.658137615085009 121 40 19
-0.8982123974655947 -0.40138814505400067 -12.668282934215142 121 42 20
-0.8728992170799481 -0.4194513893680427 -12.679725051022768 127 49 27
-0.8481493915909493 -0.4372204296165214 -12.691683756916042 125 48 26
-0.8136873396847051 -0.4599396570900822 -12.693864479036275 127 48 26
-0.7057627488796854 -0.5201064755400058 -12.622119281960092 126 47 26
-0.7543543387834939 -0.5004503858512583 -12.707600985977908 127 49 27
-0.7133495241648138 -0.5264640252780626 -12.702906017345867 137 61 39
-0.6604359171987291 -0.5585180949089086 -12.68601188984129 131 57 37
-0.626089490952241 -0.5811046428456903 -12.687781414192864 132 60 41
-0.5984427592353017 -0.6002739218478417 -12.69627791158766 134 66 47
-0.551333746010263 -0.6293144083134337 -12.684833747007607 129 60 45
-0.524301363225768 -0.6481473815567118 -12.693782911721467 135 68 55
-0.4973583976772291 -0.6669268620470694 -12.702765451140799 135 73 62
-0.47711450127222843 -0.682305299536988 -12.718588138741872 135 78 66
-0.45280820730852245 -0.6997367113715356 -12.730195198651227 151 93 76
-0.42834035044106944 -0.71724369615854 -12.741591142700418 152 86 66
-0.4126631266486429 -0.7303024559733005 -12.76206788419164 139 64 41
-0.3929638243328295 -0.7453926055077971 -12.77836218837649 144 67 44
-0.38524794597944023 -0.7544343186244911 -12.807145649755064 154 88 69
-0.3525919688119563 -0.7760558321167976 -12.809877056547828 152 90 75
-0.33285848100637594 -0.7911550852017593 -12.826077417724921 131 62 43
-0.367551275842386 -0.7788571136323448 -12.89952718065259 118 40 17
-0.2656837222483137 -0.8352809740290139 -12.829188454461189 106 25 6
-0.3343978638047975 -0.8059129231615918 -12.938822497016137 95 18 3
-0.193504377411986 -0.8818651078848827 -12.826599082863794 85 15 3
-0.2032813745168882 -0.8821203818199335 -12.873919887935795 63 10 2
-0.2446702684796609 -0.8665483332606514 -12.955104331799932 55 8 4
-0.2275597963659628 -0.8803271872038789 -12.974063625616282 63 19 12
-0.21781852037197158 -0.8904169643044728 -13.000920634088654 55 16 10
-0.22608088820237882 -0.8915080027094526 -13.047172848458231 43 18 14
-0.2210546211231046 -0.8992597049722408 -13.07924253315571 81 63 60
-0.21674026149018033 -0.906665235989816 -13.112148265558595 86 79 71
-0.21293300211387844 -0.9138276816932982 -13.145674540811873 90 85 80
-0.2054354492378403 -0.9228401099299983 -13.175264405421888 79 75 70
-0.20239098169696845 -0.9296418726135474 -13.209759682949942 91 88 81
-0.1969822773838521 -0.9376313400110123 -13.241750846859617 105 106 94
-0.19274325813570048 -0.9450483209875871 -13.275089070934591 106 105 94
-0.1897488415455566 -0.9518570751867532 -13.30986726584511 107 104 93
-0.1913828996813658 -0.9563792820714117 -13.349824117880669 95 89 80
-0.1881136506807719 -0.9633487898037889 -13.384473536627056 95 89 81
-0.1846015375749248 -0.9704497607999922 -13.418933383337023 89 84 75
-0.17781617599599642 -0.9791825719147882 -13.449836764615721 87 82 73
-0.1728253134557729 -0.9870357459365917 -13.482797153725498 92 88 77
-0.16588579391391267 -0.9958620378770604 -13.513651994239687 81 77 66
-0.15384498433014837 -1.007216241903175 -13.538854860801292 83 79 70
-0.1630375319612707 -1.0080952976117454 -13.587918816816021 89 85 77
-0.16422378235412172 -1.012944094657315 -13.628128445692347 88 84 75
-0.15204146538017227 -1.0243943968018288 -13.653360362258708 106 96 85
-0.14213925502841995 -1.034726198480513 -13.681200024446266 144 118 103
-0.140315077613959 -1.0410908712952298 -13.718246506032571 152 104 81
-0.14312378115769242 -1.0451917145232388 -13.760654677336035 154 95 70
0.3224208938342601 -1.3659433404348302 -13.889127077701366 118 44 27
0.30220922242951875 -1.3617119631840553 -13.952903849774513 121 46 29
0.49798402208874304 -1.4839082084239035 -13.91614958916761 139 93 59
0.5293591518332139 -1.504545346985532 -13.917798544971847 88 35 14
0.6176948909472131 -1.5635991890833116 -13.929241978656771 111 43 24
0.6553436180653831 -1.587189191084947 -13.922824188283066 108 39 24
0.6795027529293334 -1.6043045946099186 -13.932855193411534 105 36 20
0.6651477177695337 -1.6030009015240365 -13.990325290252901 105 36 21
0.6878877736572475 -1.6194419791188963 -14.00213524941234 107 38 22
0.7332814231346791 -1.6466857960509445 -13.985819133996886 109 38 23
0.76628813550656 -1.6679982120269337 -13.984707117160589 109 39 23
0.8002793725054076 -1.6897638833202553 -13.982256616993176 108 39 23
0.819759950671556 -1.7046099200473357 -13.997822236143886 109 42 26
0.8638207728005538 -1.7311348494932135 -13.982564920406325 110 43 27
0.9115023083191636 -1.759352671359741 -13.96257109570201 107 39 23
0.931665031709505 -1.7744883217741498 -13.977034527536052 109 42 25
0.9621693684154815 -1.7945204757857494 -13.978407232395044 103 37 21
0.9317760468546803 -1.78571239726256 -14.056818349664384 101 36 20
0.962784302327381 -1.8059846415365506 -14.05756388834153 100 36 21
0.9936698945165361 -1.8261848435181816 -14.058364793866685 98 38 22
1.017713404128588 -1.8431420319058023 -14.067801909989358 95 36 23
1.0539269387621566 -1.8658292409145538 -14.06160353147704 94 37 25
1.1042729965365732 -1.8951531229492886 -14.037124189791337 93 36 25
1.1456521337170749 -1.920225201722479 -14.023951209586517 92 33 22
1.2135125101947528 -1.9577189848215446 -13.976423845651848 95 37 25
1.2398374949550188 -1.9756610418538951 -13.982290806007029 95 40 25
1.2661652382647013 -1.9935943550529633 -13.988082374226675 97 46 29
1.2906492488440637 -2.010653726821249 -13.996200793851447 109 59 42
1.317415884722502 -2.0287731586002904 -14.001281647372755 118 68 53
1.3417324926437644 -2.0457364665671482 -14.009491758833235 120 72 56
1.3673446985724045 -2.0632966750476327 -14.015943575495488 127 79 63
1.3907985336741486 -2.0798403098682607 -14.025165889502434 121 75 60
1.412762902295471 -2.0956822979602765 -14.03629922476097 113 69 54
1.4489054608616847 -2.118119345717844 -14.028641384800224 105 60 45
1.4760010286557375 -2.1363286717416496 -14.032834776781172 102 58 43
1.5009479308324885 -2.1535285764298067 -14.039804675521786 101 57 44
1.5279120782190745 -2.17165555468614 -14.0440204546999 97 51 39
1.5572750473614683 -2.190883417130404 -14.044950048729646 96 49 37
1.5843532508014428 -2.2090396473808442 -14.048844377760425 99 48 36
1.5976418149671687 -2.2208058687671235 -14.071188865924054 104 48 37
1.60116173626973 -2.2280609417692214 -14.106714871325753 107 55 41
1.621481171504195 -2.243082374348654 -14.119631940165668 107 59 46
1.9133582919162855 -2.6356551372336106 -15.570047268208395 59 59 61
1.9224213099324716 -2.6458792337104606 -15.601021319978443 15 14 17
1.9566304789393536 -2.667088113015253 -15.593573277918667 5 4 3
2.014988207430487 -2.698802903522168 -15.548919161650968 5 3 3
2.074595586994504 -2.7310125846881377 -15.501990742616254 38 15 11
2.1521141103485784 -2.7709581227922455 -15.427062505941048 100 50 36
2.193241585377712 -2.795032356270235 -15.407921680299715 110 46 29
2.2418540608604802 -2.8223223084770384 -15.376957731384687 111 44 26
2.274504206080632 -2.8426626480791124 -15.37055037353261 112 44 28
2.3145418444861843 -2.866177453996263 -15.352478482850897 113 47 26
2.33755256235417 -2.8823119057824056 -15.36083529988537 119 53 30
2.3751168019137427 -2.904713151568301 -15.346305930312411 116 48 27
2.459358086424385 -2.947186531632827 -15.258180159423294 114 45 27
2.4395811708079345 -2.944852725617872 -15.333509711346398 114 48 27
2.465978963693086 -2.9623880081294387 -15.33612769279651 114 47 21
2.4915224935293905 -2.9795443637767347 -15.34000979008752 113 50 26
2.512092070139599 -2.9945594248628704 -15.351717313004727 121 59 35
2.5335800594215776 -3.0099614885705774 -15.361919994289412 132 72 46
2.555044600866438 -3.0253467310825917 -15.372111439596509 148 91 71
2.564713826430812 -3.0356965797378668 -15.401164344267634 126 66 49
2.5962787688090847 -3.0553752094809217 -15.395072601164522 91 28 6
2.615953551209972 -3.0699801569247387 -15.408009720691222 87 26 5
2.6275205219611255 -3.081138909431712 -15.434019143891092 87 35 20
2.6076817904180682 -3.0789918309448705 -15.51097224349277 47 11 5
2.6045743965816275 -3.0839703802939016 -15.561049658470807 25 7 7
2.595063709962287 -3.0862667395094037 -15.621733798591293 17 5 8
2.676833651482382 -3.1271128079499007 -15.533465450321398 14 5 5
2.6939868386202193 -3.1406504182411084 -15.550500052433769 12 3 4
2.7173364983794697 -3.156793379390435 -15.557340577495935 12 3 4
2.7488753921002207 -3.1763670242303186 -15.550618951014346 12 5 6
2.781973419758039 -3.1965747611328323 -15.54117881909247 31 25 30
2.8137584162797475 -3.228879198111041 -15.62439192489182 30 29 35
2.742185107182987 -3.205406552402642 -15.789507792595561 30 29 35
2.759063125382868 -3.2188632774566672 -15.807244138533523 40 39 45
2.7570220838925987 -3.2374041940456344 -15.949388823343245 42 43 48
2.7809823228158175 -3.253820269939832 -15.955342135188879 42 42 47
2.725889408554897 -3.250736832163485 -16.18964163713481 35 31 35
3.1484162857617974 -3.502034293547511 -16.021389320311542 93 91 89
3.1679092996166096 -3.516473676604406 -16.033987751265055 99 97 96
3.2077753075343054 -3.5391016682175778 -16.010369959356435 102 101 99
3.2254602329783566 -3.5527909432861544 -16.026015322485122 106 104 104
3.1011553863217847 -3.563867074761874 -16.683674835448894 159 157 159
3.1247422791383395 -3.5800610713699195 -16.689776586347023 164 162 165
3.1460363593494254 -3.5953418555149383 -16.700013898471354 168 167 170
3.319881727872171 -3.684193680491515 -16.526746085797093 178 178 180
3.35253899483601 -3.7106547191624215 -16.56409490437642 184 184 184
3.5060511674047348 -3.8322205532911076 -16.719487710523023 205 205 207
3.6139247482885546 -3.8943225240802906 -16.66182453351287 207 207 209
-3.994141564977157 1.5977197057968904 -12.490589612186593 99 46 34
-3.940641323705721 1.5637783696242118 -12.485055585173134 100 46 35
-2.537224916799029 0.6621976750816501 -12.419577377878259 111 39 25
-2.430244766185873 0.6007816599433493 -12.3627256934825 109 37 23
-2.431382948151085 0.5962481116596456 -12.400129105567633 110 37 22
-2.4348194849396396 0.5929089850367717 -12.439640975766519 111 38 23
-2.4251672892106004 0.5826856306585304 -12.467728728082998 111 37 22
-2.4246621343163266 0.5772547553446143 -12.503931831085186 111 38 22
-2.4074418686643204 0.5630503023054767 -12.525417927219436 112 39 22
-2.387434124415694 0.547385361145468 -12.544431107236264 113 39 23
-2.327102077129886 0.5106122111109799 -12.527531846579464 114 40 24
-1.9243258485071557 0.25909082545149653 -12.457450452318099 113 38 19
-1.904640083870596 0.24370945481518902 -12.47593433562104 115 40 21
-1.8787319950878367 0.21994832053445013 -12.525218730278588 116 38 21
-1.8477399879619232 0.19869584694672549 -12.533297981507436 117 38 21
-1.8160525096249085 0.177092180221619 -12.540666624916032 116 37 20
-1.7707358924259786 0.14843066653975168 -12.535354714142668 120 41 24
-1.7181570892333555 0.1160255555480032 -12.523164576436074 119 40 23
-1.6910916245002756 0.09685878279558091 -12.5345257498413 117 39 19
-1.6590584081765245 0.07512813115160277 -12.541203414952218 117 39 18
-1.6429448724205473 0.06164137546797477 -12.56269351804534 121 41 20
-1.6217467637331646 0.04552611293408804 -12.579420736775091 121 40 19
-1.5935991758228232 0.025824704594266557 -12.589592479879315 120 39 18
-1.5853007925239266 0.01637525154790609 -12.618423133569006 117 36 16
-1.4903898659748567 -0.03774916426308694 -12.565411427168833 119 38 17
-1.45686399152099 -0.06018135246658396 -12.570193523926658 122 41 20
-1.4218360454310561 -0.08337510634878553 -12.573462582557923 125 44 23
-1.4266886986047806 -0.08603169307001846 -12.614652374291305 128 50 28
-1.3744434091968936 -0.11806808011824721 -12.601381931142832 122 46 23
-1.3220287898707097 -0.1501656596153933 -12.58776597636665 120 43 20
-1.2637749152747482 -0.1852358676650514 -12.568353738822989 120 44 21
-1.2571731415214753 -0.19376939662503068 -12.598498046814772 120 43 21
-1.1935606350654293 -0.23154558704973205 -12.57361073395058 121 45 22
-1.1560131848082706 -0.2559306974637461 -12.573731362434799 122 46 23
-1.1262773084802244 -0.27630046114377693 -12.581331829688931 123 45 23
-1.0844219545092315 -0.30286198212482374 -12.577058187232808 124 47 25
-1.0498851445675452 -0.32566274955182717 -12.579800544386153 126 49 26
-1.0152392138283277 -0.348505989067164 -12.582341797430104 125 48 25
-0.9864451169355082 -0.36834807571747596 -12.590534884418888 126 48 26
-0.9584676164250512 -0.3877644781108227 -12.599467797705799 125 47 25
-0.9705983982602717 -0.3867246861604463 -12.647944209688221 124 44 23
-0.9376264987266509 -0.4086835511884961 -12.651918987136497 120 40 19
-0.9142491522986482 -0.42574595450126296 -12.665331875703309 122 44 22
-0.8872601560885078 -0.4446404673440334 -12.675113600510748 126 48 26
-0.7966808379147832 -0.4958499477393361 -12.621365894748951 127 50 28
-0.7608163446822616 -0.5192125589392935 -12.621981228196834 127 50 28
-0.7374908353898979 -0.5361964880820045 -12.635076058387543 126 50 27
-0.7718299683110912 -0.5239305702076513 -12.706162294387372 124 49 26
-0.7183683708600848 -0.5561982575908462 -12.688932609812943 124 49 27
-0.6821337057035493 -0.5797141816049769 -12.688931246423786 132 58 39
-0.6393043629564552 -0.6065518219224972 -12.682132026081472 136 63 44
-0.6227046198315564 -0.6201072117670368 -12.701870429496655 134 62 43
-0.577745437353439 -0.6479903423401114 -12.692682053166386 131 63 45
-0.5389373200785723 -0.6727461085783912 -12.689627848144916 136 70 54
-0.5081621652253059 -0.6934323107031939 -12.694688168308357 137 74 60
-0.4836799612971765 -0.7109353563047924 -12.706140123256159 146 86 73
-0.4590537871178979 -0.7285046206749266 -12.717398987673807 154 93 78
-0.4399413727275112 -0.7432925578594949 -12.734312646609201 144 77 58
-0.42170519362041237 -0.7576377461289123 -12.752119660190715 139 65 42
-0.40926482461754876 -0.7690692301111834 -12.775940958216959 142 68 43
-0.3960688802770669 -0.7808832276938573 -12.798997114862726 150 84 63
-0.38053681983544685 -0.7938717885713378 -12.81963006728364 158 93 76
-0.3573235850215406 -0.8107115569697556 -12.832219098916262 135 61 43
-0.3985389126511878 -0.7952742448316901 -12.91246581594898 116 38 17
-0.36526737292502975 -0.8171630230497215 -12.914563749345483 102 22 3
-0.3474091156749397 -0.8313303236168603 -12.9328487975758 94 19 3
-0.22602610358797737 -0.8972266802038109 -12.84146821616769 87 17 6
-0.2279290720879832 -0.9014835618389077 -12.880430104017666 66 12 5
-0.26748691234504207 -0.8869698188238462 -12.959597532155877 56 7 4
-0.2563925496961863 -0.8977503386192072 -12.984997959343097 59 15 8
-0.2184191283435526 -0.9219228994363862 -12.981649392618554 54 15 7
-0.24455529884233584 -0.9141728299310636 -13.047004513251132 59 31 26
-0.24000654352357387 -0.9217157732587014 -13.07957378981567 70 53 50
-0.23573734912307653 -0.9291295649127354 -13.112513977074059 79 72 64
-0.2314604341812796 -0.9365572036202416 -13.145516853980899 86 81 75
-0.22663750072108169 -0.9442657289573138 -13.177998455946648 87 83 79
-0.21803187138492497 -0.9538586526026962 -13.206432314362129 85 81 74
-0.21378291837354002 -0.9613006858656972 -13.239666056124038 107 107 95
-0.20876510708131235 -0.969133322001706 -13.272130887298811 113 111 99
-0.2158579564565395 -0.9709883524120153 -13.317948515884268 109 105 94
-0.21476200638974774 -0.9769079986081208 -13.354899001244995 96 90 80
-0.2113847324094671 -0.9839665107447852 -13.389425306904553 101 94 86
-0.20789399766367467 -0.991092055851166 -13.423904771601945 84 77 69
-0.2027115006562097 -0.9990621661103845 -13.456586649177478 82 75 67
-0.19678473697358623 -1.007408315493033 -13.48850952055231 83 79 69
-0.18508041212942494 -1.0186052742046776 -13.514055926316026 85 81 70
-0.17257633676581552 -1.0301994705110187 -13.538738255492714 86 82 73
-0.16562529569542317 -1.0390706039898485 -13.569669561173034 94 90 82
-0.18024825725433136 -1.0373660722659297 -13.624904640218736 107 99 93
-0.17622548866340892 -1.044827667104462 -13.659318569638053 139 122 114
-0.1671564633902447 -1.05477146263995 -13.688108073564237 146 113 99
-0.1323660663835895 -1.0773074866826384 -13.68780464939939 155 112 92
-0.18238631871615407 -1.0583660530275862 -13.783731690975682 134 80 60
0.3748576260505736 -1.4229618847537422 -13.804641122471594 118 48 29
0.3195258910488077 -1.401902494257865 -13.909997858438862 115 44 25
0.4607010033494099 -1.4975928367166191 -13.938860847500308 144 88 51
0.48885763850759645 -1.5166613994465696 -13.944501256258743 115 64 34
0.526029216899798 -1.540026284845521 -13.939114578038804 87 30 15
0.5463393518035415 -1.555324079027856 -13.954130777772734 125 64 42
0.5701678665781893 -1.5722960298074309 -13.964824665716876 113 48 27
0.609861252726926 -1.596818873001698 -13.956042006069264 108 42 26
0.581926657726699 -1.5891348291295686 -14.030145935489347 103 36 21
0.5349889275625959 -1.57245695542787 -14.127938943313008 102 35 20
0.5799266757632093 -1.599477747656965 -14.112731457153592 102 36 21
0.6434546084933119 -1.63529336371928 -14.074324386211536 104 39 24
0.662256356790996 -1.649862485045242 -14.09111605557662 104 39 23
0.7737017230699488 -1.7083034364161853 -13.992599025336489 102 36 21
0.8195745735721163 -1.7356319720103635 -13.975269358751952 100 38 25
0.7907214543745082 -1.7276144970209475 -14.051236898927183 101 39 25
0.8265308446112734 -1.7501708798702573 -14.046386210107096 100 38 24
0.8574754417741461 -1.7704140987092298 -14.047523661960689 101 37 23
0.8990377255215378 -1.7956465044557106 -14.035170073523972 100 36 21
0.9317883520611172 -1.8167068361015581 -14.033789065248788 97 35 20
0.9667010800380238 -1.8387680831710864 -14.02955412704781 97 36 22
0.9915370308779128 -1.8560776039251028 -14.038004394669844 100 42 29
1.029979952788839 -1.8797643942863735 -14.029047866119848 102 46 32
1.0527268759073403 -1.8960713200606851 -14.040003698577063 108 55 40
1.0995391366206375 -1.9236421425174095 -14.020067640335736 114 63 48
1.1249452276169905 -1.9411686311989498 -14.027432104258537 113 65 49
1.1596605365267543 -1.9630366911268484 -14.02273558008513 119 72 56
1.1886901188767407 -1.9822321282854718 -14.025256824115681 121 77 61
1.2122492455188514 -1.9988636218649019 -14.03477569255255 118 72 55
1.2410576332574967 -2.017933245154333 -14.037422794072565 113 65 49
1.266849178561885 -2.035586299107726 -14.043910438700571 101 51 36
1.2905830621269736 -2.0522731166116444 -14.053017174394903 96 45 31
1.3143995872151235 -2.068990659305251 -14.061961385614119 98 44 32
1.3394640433924705 -2.0862793453039292 -14.069211747014121 102 47 35
1.3714148417835528 -2.1067501039933 -14.067330663085418 104 49 37
1.3991052461464193 -2.125232767731955 -14.070961095527874 106 51 40
1.4263299070433302 -2.143488309977753 -14.0751246295365 109 57 46
1.4289996777496743 -2.1503907456081577 -14.111801182815391 107 59 47
1.8724352558406592 -2.648588247213427 -15.60454032423814 65 66 67
1.9116481007259702 -2.6719390496747746 -15.589655235974494 22 22 23
1.9416564024919163 -2.69127175817278 -15.588644073747796 6 5 5
1.9882168098422426 -2.717756495972576 -15.562162460126721 4 3 5
2.057567210734719 -2.754061605064498 -15.50041996854311 12 2 2
2.1359423341518387 -2.794201654243329 -15.424332117489953 57 26 17
2.17421216975739 -2.8169714441025824 -15.409666926013749 104 53 35
2.212902583088578 -2.8398961307986332 -15.394164194565123 121 63 36
2.250081399325013 -2.8621438305757336 -15.380818396876737 126 65 35
2.2891192793099577 -2.885164804710808 -15.364398946810109 123 62 32
2.321750931344499 -2.9054106709722016 -15.357787559557416 124 61 32
2.3688986787306705 -2.9318536962079675 -15.328305759196365 121 56 26
2.4009381065130757 -2.9517975337827247 -15.322278398764404 120 54 25
2.3911859904775365 -2.9538735719692153 -15.381907877853003 116 50 24
2.4132505172886223 -2.9695498070103814 -15.391531242027659 118 50 23
2.416191921246244 -2.977074817005637 -15.431373938062682 124 58 29
2.469161760447868 -3.0058904988811133 -15.391918421319271 125 59 28
2.4931784952012146 -3.022366241355567 -15.398225382738643 126 63 34
2.5068357315275627 -3.0344393988104077 -15.420996227565157 149 92 64
2.5383187784615933 -3.0540629521675613 -15.41525834941313 138 82 54
2.5646703838160896 -3.0714977668917465 -15.417619055173363 108 50 21
2.5791146819422055 -3.0838927679938055 -15.439049368395462 95 39 15
2.589143872856824 -3.094428437097714 -15.467617035729308 75 28 14
2.590043521140462 -3.1011286660036443 -15.511009132421648 48 16 11
2.5976575766500734 -3.1106697421982696 -15.543640615759394 30 13 12
2.5953594785405043 -3.116061535742505 -15.592473331326854 20 9 11
2.6541802391255604 -3.147087129104655 -15.541756775671237 16 6 8
2.6713329588266417 -3.1606246331911936 -15.558822247873927 14 5 6
2.696452086353421 -3.1774886545365497 -15.562808135313475 14 5 6
2.7296242558111565 -3.1977001015111393 -15.55346388593912 14 7 8
2.7673484612837855 -3.2197853532667997 -15.536454504256401 36 30 36
2.794542604653281 -3.237463698222522 -15.536663663085868 65 62 68
2.8239124859246054 -3.2560308202256216 -15.533160548504025 82 81 86
2.810249412129033 -3.2567407513827966 -15.601105301759205 32 32 37
2.74940215273283 -3.237958710237296 -15.748013380962952 30 30 36
2.790154468833159 -3.2612636006064295 -15.725714463474343 40 39 45
2.7812886519712094 -3.283579160465079 -15.924851059861103 42 42 48
2.7373902106855095 -3.2721289266581417 -16.04573754694305 42 41 47
2.759781352724083 -3.287891926725178 -16.054472641573856 41 38 45
3.0262655181550278 -3.5572179025264266 -16.738227280916792 157 155 157
