ply
format ascii 1.0
element vertex 836
property float x
property float y
property float z
property float nx
property float ny
property float nz
property uchar diffuse_red
property uchar diffuse_green
property uchar diffuse_blue
property uchar class
property uchar detection
end_header
1.7505 0.2393 -13.6596 0.214 -0.283 0.935 118 53 34 0 0
1.7527 0.2168 -13.6761 0.281 -0.204 0.938 119 52 33 0 0
1.7635 0.1117 -13.7656 0.133 0.073 0.988 146 103 73 0 0
1.7663 0.0678 -13.7627 0.133 0.073 0.988 109 50 35 0 0
1.7691 0.0239 -13.7598 0.133 0.073 0.988 118 60 33 0 0
1.7719 -0.0224 -13.7545 0.056 0.068 0.996 155 89 58 0 0
1.7746 -0.0659 -13.7517 0.056 0.068 0.996 135 61 36 0 0
1.8127 -0.6824 -13.6923 0.078 0.026 0.997 127 50 26 0 0
1.8149 -0.7073 -13.7054 0.122 0.039 0.992 140 65 36 0 0
1.8229 -0.8393 -13.6893 -0.000 -0.160 0.987 127 60 35 0 0
1.8453 -1.1781 -13.6903 0.016 -0.138 0.990 123 52 32 0 0
1.8703 -1.5031 -13.7711 0.144 -0.409 0.901 146 69 36 0 0
1.8870 -1.7600 -13.7669 -0.266 -0.448 0.854 150 84 64 0 0
1.9081 -1.9982 -13.8898 -0.405 -0.168 0.899 172 108 89 0 0
1.9109 -1.9731 -13.9923 0.699 -0.298 0.650 156 84 63 0 0
1.9135 -2.0228 -13.9767 0.240 -0.154 0.958 155 79 55 0 0
1.9156 -2.0457 -13.9899 0.259 0.010 0.966 151 74 52 0 0
1.9201 -2.1101 -13.9961 -0.138 -0.402 0.905 153 90 72 0 0
1.9740 -2.4595 -14.6983 -0.412 -0.880 0.237 47 14 6 0 0
1.9758 -2.4642 -14.7332 -0.469 -0.829 0.305 66 27 11 0 0
1.9835 -2.5009 -14.8528 -0.316 -0.939 0.133 31 5 2 0 0
1.9853 -2.5059 -14.8879 -0.232 -0.969 0.086 30 6 3 0 0
1.9872 -2.5097 -14.9246 -0.232 -0.969 0.086 28 3 1 0 0
1.9892 -2.5273 -14.9446 -0.355 -0.890 0.286 34 8 4 0 0
2.0595 -3.6848 -14.8080 0.564 -0.592 0.575 115 68 56 0 0
2.1149 -4.2248 -15.2579 0.471 -0.590 0.655 97 41 26 0 0
2.1168 -4.2412 -15.2781 0.478 -0.583 0.657 95 39 24 0 0
2.1547 -4.3904 -15.9166 0.085 -0.866 0.493 94 66 60 0 0
1.6569 1.3372 -13.8344 0.507 0.085 0.858 211 211 214 0 0
1.7232 0.2318 -13.6553 0.065 -0.258 0.964 118 53 35 0 0
1.7418 0.0166 -13.7555 0.056 0.068 0.996 116 49 29 0 0
1.7446 -0.0271 -13.7527 0.056 0.068 0.996 138 76 46 0 0
1.7963 -0.8374 -13.6936 0.453 -0.055 0.890 143 77 47 0 0
1.7988 -0.8721 -13.6970 0.453 -0.055 0.890 140 66 34 0 0
1.8167 -1.1469 -13.6868 -0.096 -0.218 0.971 126 60 43 0 0
1.8398 -1.4496 -13.7538 -0.017 -0.537 0.843 154 73 35 0 0
1.8419 -1.4723 -13.7680 -0.010 -0.546 0.838 170 99 71 0 0
1.8880 -2.0301 -13.9716 0.341 -0.345 0.875 153 78 54 0 0
1.9066 -2.3094 -13.9706 -0.260 -0.283 0.923 106 34 6 0 0
1.9313 -2.3892 -14.4233 0.116 -0.209 0.971 80 34 18 0 0
2.0344 -3.6795 -14.8186 0.642 -0.321 0.696 116 70 58 0 0
2.0899 -4.2341 -15.2483 0.471 -0.590 0.655 95 39 23 0 0
2.1172 -4.3418 -15.7173 0.106 -0.994 -0.013 76 48 44 0 0
2.1191 -4.3553 -15.7428 -0.096 -0.995 0.022 77 53 48 0 0
2.1331 -4.3628 -16.0574 0.440 -0.895 -0.073 93 64 60 0 0
2.1745 -4.5410 -16.7474 -0.275 -0.943 -0.185 193 193 193 0 0
1.7146 0.0095 -13.7515 0.086 0.097 0.992 119 60 39 0 0
1.8004 -1.2920 -13.6931 -0.164 -0.332 0.929 126 56 35 0 0
1.8069 -1.3607 -13.7350 -0.101 -0.601 0.793 119 47 32 0 0
1.8395 -1.7980 -13.8072 0.261 -0.835 0.485 162 82 58 0 0
1.8449 -1.8281 -13.8879 0.378 -0.412 0.829 164 90 68 0 0
1.8472 -1.8600 -13.8918 0.271 -0.259 0.927 172 105 88 0 0
1.8602 -2.0800 -13.8454 -0.242 -0.144 0.959 153 78 62 0 0
1.8603 -2.0140 -13.9539 0.331 -0.752 0.570 153 76 55 0 0
1.8624 -2.0386 -13.9653 0.083 -0.315 0.946 156 80 58 0 0
1.8646 -2.0652 -13.9744 0.051 -0.288 0.956 154 85 64 0 0
1.8668 -2.0922 -13.9832 -0.145 -0.394 0.908 156 94 76 0 0
1.8812 -2.3108 -13.9719 -0.323 -0.561 0.763 103 30 6 0 0
1.9057 -2.4033 -14.4101 -0.215 -0.539 0.814 75 34 21 0 0
2.0534 -4.1529 -15.1071 0.707 -0.404 0.580 115 71 61 0 0
2.0841 -4.3273 -15.5610 -0.023 -0.977 0.213 71 41 39 0 0
2.0899 -4.3519 -15.6605 0.016 -0.968 0.252 71 44 41 0 0
2.0918 -4.3445 -15.7174 0.106 -0.994 -0.013 71 45 42 0 0
2.0937 -4.3604 -15.7393 0.136 -0.990 0.036 71 46 43 0 0
2.1055 -4.4093 -15.9429 0.033 -0.880 0.474 90 63 58 0 0
2.1113 -4.3762 -16.1357 0.266 -0.960 -0.090 94 64 56 0 0
2.1440 -4.5278 -16.6737 -0.364 -0.922 0.131 188 188 188 0 0
2.1461 -4.5342 -16.7132 -0.364 -0.922 0.131 190 190 190 0 0
1.5850 1.5301 -13.8139 0.939 -0.029 0.343 211 211 215 0 0
1.5878 1.4959 -13.8227 0.941 -0.047 0.334 210 210 214 0 0
1.5903 1.4649 -13.8341 0.939 -0.010 0.343 211 211 213 0 0
1.6344 0.7957 -13.7860 0.515 -0.807 0.290 119 53 37 0 0
1.6818 0.0855 -13.7491 0.189 -0.001 0.982 156 77 36 0 0
1.7743 -1.2919 -13.6957 -0.254 -0.533 0.807 136 76 46 0 0
1.7807 -1.3603 -13.7380 -0.101 -0.601 0.793 121 47 22 0 0
1.7906 -1.4989 -13.7462 0.242 -0.036 0.970 176 134 95 0 0
1.8139 -1.8033 -13.8044 0.197 -0.810 0.553 164 82 57 0 0
1.8193 -1.8385 -13.8797 0.315 -0.219 0.923 168 97 77 0 0
1.8216 -1.8670 -13.8872 0.315 -0.219 0.923 175 108 92 0 0
1.8319 -2.0325 -13.8615 0.196 0.211 0.958 167 92 70 0 0
1.8348 -2.0258 -13.9441 -0.076 -0.631 0.772 149 71 49 0 0
1.8369 -2.0474 -13.9587 -0.061 -0.615 0.786 151 75 52 0 0
1.8389 -2.0660 -13.9765 -0.257 -0.584 0.770 156 88 69 0 0
1.8410 -2.0900 -13.9884 -0.268 -0.468 0.842 147 83 68 0 0
1.8519 -2.2825 -13.9300 0.023 -0.604 0.797 100 24 3 0 0
1.8544 -2.3205 -13.9262 0.053 -0.657 0.752 107 32 6 0 0
1.8564 -2.3396 -13.9430 0.053 -0.657 0.752 107 39 12 0 0
1.8796 -2.3936 -14.4243 0.064 -0.562 0.825 64 22 13 0 0
1.9023 -2.4619 -14.8682 -0.326 -0.931 0.162 63 31 22 0 0
1.9041 -2.4690 -14.9009 -0.391 -0.912 0.125 57 28 23 0 0
1.9059 -2.4741 -14.9360 -0.402 -0.907 0.127 45 12 7 0 0
1.9077 -2.4797 -14.9706 -0.402 -0.907 0.127 83 49 32 0 0
2.0514 -4.3079 -15.4141 -0.124 -0.963 0.240 59 35 32 0 0
2.0551 -4.3182 -15.4885 0.027 -0.991 0.134 64 36 36 0 0
2.0569 -4.3208 -15.5297 0.153 -0.957 0.246 67 38 38 0 0
2.0588 -4.3290 -15.5627 0.153 -0.957 0.246 67 38 37 0 0
2.0800 -4.4111 -15.9445 0.033 -0.880 0.474 86 61 56 0 0
2.1197 -4.4909 -16.7891 -0.448 -0.878 -0.168 190 190 190 0 0
2.1261 -4.6278 -16.7142 -0.770 -0.467 0.436 196 196 196 0 0
2.1282 -4.7179 -16.6147 -0.769 -0.322 0.553 199 199 199 0 0
2.1323 -4.7451 -16.6698 0.779 0.321 0.539 204 204 204 0 0
2.1385 -4.8573 -16.6320 0.741 0.215 0.636 208 208 208 0 0
1.5591 1.4493 -13.7496 0.939 -0.029 0.343 210 208 209 0 0
1.6516 0.1205 -13.7462 0.246 0.043 0.968 138 61 31 0 0
1.6947 -0.5178 -13.7109 0.421 -0.200 0.885 128 53 30 0 0
1.7066 -0.7055 -13.6804 -0.053 -0.095 0.994 125 56 34 0 0
1.7175 -0.8665 -13.6732 0.292 0.084 0.953 151 76 46 0 0
1.7433 -1.2292 -13.6868 -0.043 -0.087 0.995 119 50 32 0 0
1.7573 -1.4034 -13.7344 -0.055 -0.226 0.973 137 70 38 0 0
1.7883 -1.8122 -13.7978 0.102 -0.756 0.646 163 84 57 0 0
1.7902 -1.8266 -13.8201 0.252 -0.728 0.638 167 90 67 0 0
1.8091 -2.0259 -13.9467 -0.076 -0.631 0.772 155 76 53 0 0
1.8115 -2.0575 -13.9505 -0.291 -0.728 0.621 156 80 58 0 0
1.8134 -2.0748 -13.9698 -0.291 -0.728 0.621 161 95 77 0 0
1.8266 -2.2862 -13.9288 -0.048 -0.763 0.645 99 27 3 0 0
1.8286 -2.3068 -13.9441 -0.194 -0.584 0.788 105 35 5 0 0
1.8509 -2.3422 -14.4468 -0.278 -0.046 0.959 81 34 20 0 0
1.8622 -2.4183 -14.5980 -0.040 -0.998 0.053 56 18 10 0 0
1.8638 -2.4204 -14.6358 -0.040 -0.998 0.053 43 8 7 0 0
1.8655 -2.4244 -14.6714 -0.089 -0.988 0.123 43 7 6 0 0
2.0056 -4.1879 -15.1083 0.307 -0.746 0.591 105 47 34 0 0
2.0137 -4.2782 -15.1526 0.017 -0.754 0.657 104 60 49 0 0
2.0279 -4.3000 -15.4746 -0.052 -0.964 0.261 52 32 29 0 0
2.0335 -4.3194 -15.5810 -0.041 -0.994 0.101 63 43 42 0 0
2.0544 -4.4129 -15.9460 0.033 -0.880 0.474 81 57 53 0 0
2.0785 -4.3207 -16.7195 0.013 0.397 0.918 167 166 164 0 0
1.5950 0.4897 -13.6721 0.034 0.262 0.965 125 61 41 0 0
1.6046 0.3823 -13.7246 0.192 -0.571 0.798 123 56 37 0 0
1.6070 0.3566 -13.7386 0.063 -0.199 0.978 122 55 36 0 0
1.6664 -0.5176 -13.6768 0.066 -0.377 0.924 124 51 27 0 0
1.6688 -0.5464 -13.6865 0.160 -0.134 0.978 129 55 32 0 0
1.6772 -0.6699 -13.6800 0.097 -0.024 0.995 134 65 42 0 0
1.6913 -0.8770 -13.6657 0.196 0.141 0.970 166 94 64 0 0
1.7628 -1.8191 -13.7933 -0.324 -0.810 0.489 161 84 59 0 0
1.7679 -1.8472 -13.8760 0.173 -0.081 0.982 172 106 90 0 0
1.7704 -1.8827 -13.8761 0.155 -0.080 0.985 178 113 97 0 0
1.7837 -2.0355 -13.9392 -0.374 -0.666 0.645 159 81 59 0 0
1.7857 -2.0545 -13.9566 -0.395 -0.663 0.636 160 89 70 0 0
1.8165 -2.3093 -14.2906 0.127 -0.859 0.496 88 46 37 0 0
1.8183 -2.3229 -14.3144 -0.180 -0.885 0.429 91 51 35 0 0
1.8640 -2.2463 -15.6453 0.518 -0.797 0.311 25 5 5 0 0
1.8983 -3.1146 -14.9402 0.144 0.416 0.898 81 32 19 0 0
1.9731 -4.1254 -15.0280 0.045 -0.545 0.837 116 75 65 0 0
1.9808 -4.1941 -15.1032 0.307 -0.746 0.591 101 36 23 0 0
1.9869 -4.2650 -15.1319 0.076 -0.617 0.783 104 64 49 0 0
2.0209 -4.3505 -15.8593 -0.339 -0.899 0.278 69 61 58 0 0
2.0228 -4.3616 -15.8888 -0.312 -0.883 0.351 70 59 56 0 0
1.5598 0.6078 -13.7040 0.284 0.325 0.902 123 57 37 0 0
1.5672 0.4879 -13.6729 0.301 0.136 0.944 122 57 37 0 0
1.5725 0.4217 -13.6882 0.538 -0.563 0.627 123 56 37 0 0
1.5774 0.3671 -13.7135 0.471 -0.446 0.761 124 56 37 0 0
1.6230 -0.2584 -13.7368 0.005 0.007 1.000 143 69 39 0 0
1.6420 -0.5487 -13.6868 0.254 -0.187 0.949 129 55 27 0 0
1.6446 -0.5820 -13.6922 0.296 -0.104 0.950 134 61 33 0 0
1.6563 -0.7553 -13.6746 0.124 0.109 0.986 143 67 35 0 0
1.6804 -1.0869 -13.6849 0.064 -0.644 0.762 137 59 32 0 0
1.7223 -1.6252 -13.7736 -0.277 -0.405 0.871 154 76 58 0 0
1.7398 -1.8203 -13.8696 0.020 -0.219 0.976 166 101 82 0 0
1.7422 -1.8497 -13.8762 0.020 -0.219 0.976 176 110 95 0 0
1.7500 -1.9199 -13.9524 -0.218 0.099 0.971 155 82 60 0 0
1.7550 -1.9862 -13.9572 -0.280 -0.294 0.914 154 75 50 0 0
1.7615 -2.1034 -13.9067 0.184 -0.910 0.372 160 95 76 0 0
1.8354 -2.3276 -15.4618 -0.379 -0.925 -0.032 28 8 7 0 0
1.8654 -2.8885 -15.1887 0.453 0.646 0.614 60 20 15 0 0
1.8729 -3.1299 -14.9243 -0.043 0.018 0.999 100 39 23 0 0
1.8747 -3.1424 -14.9502 -0.369 0.142 0.919 112 51 33 0 0
1.9460 -4.0992 -15.0257 0.431 -0.393 0.812 118 73 60 0 0
1.9503 -4.1540 -15.0344 0.126 -0.840 0.527 110 56 39 0 0
1.9541 -4.1853 -15.0763 0.231 -0.718 0.657 100 38 21 0 0
1.9598 -4.2343 -15.1365 0.231 -0.732 0.641 98 62 46 0 0
1.9618 -4.2502 -15.1571 0.088 -0.844 0.529 81 45 35 0 0
1.9775 -4.3027 -15.4787 -0.403 -0.899 0.171 59 50 50 0 0
1.9793 -4.3104 -15.5122 -0.317 -0.924 0.213 66 59 59 0 0
1.9970 -4.3547 -15.9037 -0.483 -0.770 0.416 69 55 54 0 0
1.9990 -4.3680 -15.9301 -0.386 -0.860 0.335 69 55 55 0 0
1.5336 0.5643 -13.6685 -0.282 0.037 0.959 121 54 35 0 0
1.5369 0.5171 -13.6641 -0.059 0.050 0.997 123 55 36 0 0
1.5484 0.3649 -13.6772 0.419 -0.683 0.598 123 55 36 0 0
1.5692 0.0797 -13.6799 -0.114 -0.259 0.959 117 50 33 0 0
1.6125 -0.5160 -13.6832 0.108 -0.125 0.986 131 57 32 0 0
1.6179 -0.5883 -13.6887 0.152 -0.006 0.988 127 58 32 0 0
1.6298 -0.7608 -13.6719 0.303 0.151 0.941 141 59 25 0 0
1.6526 -1.0827 -13.6548 -0.243 -0.364 0.899 133 57 30 0 0
1.6542 -1.0895 -13.6849 0.064 -0.644 0.762 138 60 32 0 0
1.6921 -1.5830 -13.7452 0.309 -0.385 0.870 149 86 68 0 0
1.6942 -1.6041 -13.7608 0.183 -0.466 0.866 147 78 58 0 0
1.7128 -1.8250 -13.8299 -0.516 -0.719 0.467 163 93 73 0 0
1.7148 -1.8440 -13.8474 -0.558 -0.647 0.520 172 106 88 0 0
1.7166 -1.8585 -13.8696 -0.112 -0.308 0.945 174 108 93 0 0
1.7239 -1.9126 -13.9630 -0.356 0.083 0.931 155 78 55 0 0
1.7360 -2.1084 -13.9040 -0.176 -0.911 0.373 152 89 70 0 0
1.7646 -2.3040 -14.3027 0.161 -0.740 0.654 91 50 37 0 0
1.7876 -2.3945 -14.7567 -0.531 -0.787 0.313 111 75 48 0 0
1.8415 -2.9752 -15.0823 0.475 0.637 0.607 86 31 19 0 0
1.9253 -4.1504 -15.0433 0.335 -0.643 0.689 103 39 21 0 0
1.9713 -4.3471 -15.9196 -0.483 -0.770 0.416 47 26 27 0 0
1.9798 -4.3469 -16.1556 -0.449 -0.891 -0.076 81 53 50 0 0
2.0174 -4.6300 -16.6294 0.086 -0.254 0.963 193 193 193 0 0
2.0369 -4.8871 -16.6515 0.355 -0.934 0.042 210 210 211 0 0
1.4376 1.2487 -13.1636 0.624 -0.593 0.509 139 112 106 0 0
1.4407 1.2355 -13.2236 0.878 -0.440 0.187 113 85 79 0 0
1.4428 1.2168 -13.2440 0.883 -0.440 0.162 111 80 75 0 0
1.4446 1.2041 -13.2693 0.836 -0.523 0.165 108 75 71 0 0
1.5211 0.3543 -13.6702 0.419 -0.683 0.598 124 56 37 0 0
1.5417 0.0804 -13.6830 -0.114 -0.259 0.959 112 46 30 0 0
1.5858 -0.5211 -13.6810 0.108 -0.125 0.986 135 61 34 0 0
1.5885 -0.5570 -13.6840 0.152 -0.006 0.988 132 61 34 0 0
1.5977 -0.6881 -13.6702 0.273 0.101 0.957 135 70 39 0 0
1.6431 -1.2838 -13.7167 0.175 -0.461 0.870 162 90 43 0 0
1.6455 -1.3140 -13.7236 0.056 -0.290 0.955 157 87 51 0 0
1.6476 -1.3342 -13.7403 0.240 -0.284 0.928 145 77 54 0 0
1.6660 -1.5788 -13.7522 -0.216 -0.793 0.570 151 84 66 0 0
1.6848 -1.8025 -13.8188 -0.401 -0.582 0.708 164 89 69 0 0
1.7005 -1.9435 -13.9707 -0.237 -0.033 0.971 162 82 55 0 0
1.7031 -1.9788 -13.9707 -0.280 -0.294 0.914 161 85 58 0 0
1.7129 -2.1058 -13.9854 -0.062 -0.827 0.559 103 32 8 0 0
1.7258 -2.2447 -14.0622 0.323 -0.440 0.838 93 21 1 0 0
1.7391 -2.3148 -14.2934 0.302 -0.519 0.800 94 52 38 0 0
1.7393 -2.2813 -14.3707 -0.083 -0.524 0.848 97 55 38 0 0
1.7505 -2.3674 -14.5096 -0.324 -0.933 0.159 50 11 7 0 0
1.7830 -2.2852 -15.6077 0.513 -0.787 0.343 58 38 36 0 0
1.8129 -2.9414 -15.0864 0.462 0.644 0.610 53 16 7 0 0
1.9024 -4.1727 -15.0587 0.198 -0.656 0.728 104 54 37 0 0
1.9043 -4.1890 -15.0787 0.189 -0.735 0.652 103 60 47 0 0
1.9063 -4.2088 -15.0937 -0.070 -0.837 0.543 89 47 39 0 0
1.9228 -4.2565 -15.4652 -0.647 -0.762 -0.008 63 53 51 0 0
1.9845 -4.5329 -16.6437 0.691 -0.703 -0.167 186 186 184 0 0
2.0111 -4.8971 -16.6392 0.672 -0.739 0.057 209 209 210 0 0
1.3731 1.6871 -13.0526 0.762 0.210 0.612 213 213 212 0 0
1.4724 0.6275 -13.6547 0.468 -0.720 0.513 112 45 29 0 0
1.4892 0.4197 -13.6934 -0.288 -0.597 0.749 125 57 38 0 0
1.4934 0.3528 -13.6713 0.413 -0.529 0.741 125 57 38 0 0
1.5187 0.0044 -13.6536 0.498 -0.392 0.773 111 45 32 0 0
1.5212 -0.0228 -13.6656 0.400 -0.134 0.907 114 48 31 0 0
1.5389 -0.2301 -13.7334 0.248 0.016 0.969 122 61 40 0 0
1.5591 -0.5269 -13.6780 0.217 -0.127 0.968 135 60 35 0 0
1.5864 -0.9076 -13.6462 0.183 -0.067 0.981 113 56 38 0 0
1.6020 -1.1031 -13.6767 0.210 -0.338 0.917 124 54 29 0 0
1.6046 -1.1366 -13.6806 0.085 -0.170 0.982 121 55 27 0 0
1.6189 -1.3031 -13.7371 -0.086 -0.345 0.935 170 113 72 0 0
1.6214 -1.3329 -13.7442 0.172 -0.233 0.957 166 110 85 0 0
1.6691 -1.8664 -13.9800 -0.153 0.145 0.977 156 79 55 0 0
1.6720 -1.9102 -13.9712 -0.117 -0.115 0.986 158 75 52 0 0
1.6745 -1.9424 -13.9746 -0.117 -0.115 0.986 160 82 54 0 0
1.6775 -1.9870 -13.9647 -0.284 -0.574 0.768 167 97 73 0 0
1.6796 -2.0065 -13.9817 -0.405 -0.808 0.429 164 101 81 0 0
1.6870 -2.1018 -13.9926 -0.092 -0.716 0.692 99 27 5 0 0
1.6983 -2.2295 -14.0436 0.323 -0.440 0.838 88 20 3 0 0
1.7004 -2.2525 -14.0565 0.323 -0.440 0.838 100 26 3 0 0
1.7494 -2.3630 -15.2578 -0.538 -0.840 -0.071 69 42 34 0 0
1.7491 -2.2203 -15.5609 -0.198 0.056 0.979 64 39 35 0 0
1.7577 -2.3028 -15.6331 0.328 -0.936 0.124 10 1 2 0 0
1.8757 -4.1608 -15.0361 0.000 -0.613 0.790 108 56 41 0 0
1.8776 -4.1784 -15.0544 0.083 -0.746 0.660 103 58 45 0 0
1.9336 -4.1485 -16.7684 -0.046 -0.857 0.513 134 129 127 0 0
1.9589 -4.5721 -16.5844 0.691 -0.703 -0.167 186 186 186 0 0
1.9778 -4.8668 -16.4946 0.238 0.476 0.847 206 206 208 0 0
1.3364 1.7850 -13.0247 0.751 0.248 0.612 214 214 216 0 0
1.3439 1.6585 -12.9630 0.709 0.194 0.678 214 214 215 0 0
1.4917 -0.0038 -13.6486 0.429 -0.434 0.792 113 47 35 0 0
1.4941 -0.0301 -13.6614 0.332 -0.289 0.898 116 48 32 0 0
1.4966 -0.0592 -13.6717 0.332 -0.289 0.898 120 51 35 0 0
1.5572 -0.8758 -13.6426 0.284 -0.096 0.954 111 59 39 0 0
1.5598 -0.9075 -13.6488 0.070 -0.326 0.943 128 77 59 0 0
1.5627 -0.9449 -13.6495 -0.045 -0.342 0.938 130 73 53 0 0
1.5650 -0.9700 -13.6618 -0.097 -0.468 0.879 129 61 36 0 0
1.5877 -1.2453 -13.7233 0.091 -0.426 0.900 118 53 24 0 0
1.5928 -1.3063 -13.7364 0.180 -0.084 0.980 174 122 75 0 0
1.6372 -1.8426 -13.8571 0.195 -0.433 0.880 173 109 92 0 0
1.6432 -1.8701 -13.9788 -0.170 0.029 0.985 155 78 53 0 0
1.6461 -1.9100 -13.9742 -0.117 -0.115 0.986 158 76 54 0 0
1.6513 -1.9786 -13.9766 -0.416 -0.641 0.645 168 101 82 0 0
1.6609 -2.0939 -14.0041 -0.008 -0.599 0.801 95 21 2 0 0
1.6709 -2.2183 -14.0206 0.309 -0.423 0.852 95 25 4 0 0
1.6730 -2.2417 -14.0330 0.426 -0.432 0.795 101 29 8 0 0
1.6743 -2.2419 -14.0712 -0.331 -0.823 0.461 102 27 3 0 0
1.6769 -2.2434 -14.1463 -0.117 -0.977 0.180 95 24 1 0 0
1.6943 -2.3298 -14.4795 -0.295 -0.945 0.138 112 70 38 0 0
1.6958 -2.3352 -14.5131 -0.295 -0.945 0.138 107 60 35 0 0
1.6978 -2.3530 -14.5324 -0.324 -0.933 0.159 101 53 32 0 0
1.7088 -2.3625 -14.8450 -0.369 -0.921 0.121 68 25 7 0 0
1.7201 -2.3351 -15.2528 -0.371 -0.906 -0.203 59 38 32 0 0
1.7217 -2.3408 -15.2883 -0.662 -0.749 0.004 70 46 41 0 0
1.7292 -2.3115 -15.5822 0.573 -0.754 0.323 7 1 0 0 0
1.7307 -2.3148 -15.6217 0.450 -0.872 0.194 6 1 1 0 0
1.8411 -4.0712 -14.9514 0.365 -0.624 0.691 119 64 51 0 0
1.9067 -4.1462 -16.7768 -0.205 -0.864 0.459 137 134 133 0 0
1.9290 -4.4794 -16.6907 0.244 -0.905 0.349 184 184 184 0 0
1.9337 -4.5419 -16.6885 0.670 -0.732 -0.122 188 188 188 0 0
1.3475 1.2341 -12.9488 0.543 -0.647 0.536 92 42 28 0 0
1.4666 -0.0267 -13.6669 -0.327 -0.384 0.864 117 47 33 0 0
1.5337 -0.9174 -13.6419 0.050 -0.353 0.934 134 78 60 0 0
1.5362 -0.9466 -13.6503 -0.220 -0.417 0.882 125 60 37 0 0
1.5386 -0.9735 -13.6610 -0.045 -0.342 0.938 135 62 36 0 0
1.5698 -1.3526 -13.7297 0.296 0.003 0.955 152 96 67 0 0
1.5812 -1.5052 -13.7239 -0.356 -0.216 0.909 147 83 67 0 0
1.5835 -1.5314 -13.7343 -0.295 -0.402 0.867 148 75 57 0 0
1.5860 -1.5610 -13.7412 -0.139 -0.373 0.917 151 75 52 0 0
1.6071 -1.8003 -13.8293 0.193 -0.570 0.799 165 101 84 0 0
1.6111 -1.8385 -13.8641 0.272 -0.756 0.595 173 109 90 0 0
1.6144 -1.8873 -13.8502 0.451 -0.135 0.882 165 97 81 0 0
1.6227 -1.9413 -13.9814 -0.028 -0.317 0.948 164 90 66 0 0
1.6352 -2.0953 -14.0054 -0.008 -0.599 0.801 92 21 2 0 0
1.6423 -2.1798 -14.0275 0.069 -0.259 0.963 101 30 7 0 0
1.6443 -2.1988 -14.0449 -0.177 -0.613 0.770 94 22 3 0 0
1.6469 -2.2321 -14.0465 0.070 -0.422 0.904 102 26 3 0 0
1.6490 -2.2241 -14.1322 -0.253 -0.957 0.143 102 27 4 0 0
1.6504 -2.2260 -14.1687 -0.133 -0.956 0.263 95 28 3 0 0
1.6522 -2.2405 -14.1912 -0.405 -0.413 0.816 98 42 23 0 0
1.6542 -2.2588 -14.2096 0.423 -0.325 0.846 90 40 27 0 0
1.6559 -2.2726 -14.2330 0.520 -0.657 0.546 86 40 28 0 0
1.6580 -2.2919 -14.2502 -0.000 -0.965 0.263 92 49 38 0 0
1.6680 -2.3239 -14.4894 -0.263 -0.954 0.146 96 62 41 0 0
1.6694 -2.3258 -14.5270 -0.297 -0.954 0.049 98 59 44 0 0
1.6711 -2.3384 -14.5525 -0.324 -0.929 0.179 82 42 27 0 0
1.6726 -2.3430 -14.5871 -0.298 -0.947 0.121 75 38 20 0 0
1.6797 -2.3605 -14.7689 -0.498 -0.865 0.055 108 62 31 0 0
1.6820 -2.3537 -14.8586 -0.300 -0.937 0.178 88 43 24 0 0
1.6891 -2.3676 -15.0489 -0.185 -0.980 0.067 86 41 16 0 0
1.6928 -2.3239 -15.2699 -0.324 -0.928 -0.186 63 34 30 0 0
1.6943 -2.3270 -15.3085 -0.685 -0.726 0.060 73 46 42 0 0
1.6915 -2.2168 -15.4858 -0.202 -0.953 -0.225 69 45 40 0 0
1.6993 -2.3174 -15.4918 0.183 -0.478 0.859 14 2 2 0 0
1.7025 -2.3296 -15.5634 0.681 -0.591 0.433 6 2 2 0 0
1.7047 -2.3496 -15.5819 0.741 -0.555 0.377 7 1 2 0 0
1.7997 -3.8978 -14.8546 -0.495 -0.123 0.860 115 69 62 0 0
1.8144 -4.0580 -14.9308 0.073 -0.425 0.902 124 72 61 0 0
1.8165 -4.0825 -14.9393 -0.072 -0.797 0.599 112 52 37 0 0
1.3179 1.2272 -12.8763 0.681 -0.581 0.446 108 42 27 0 0
1.3253 1.1687 -12.9686 0.056 -0.904 0.424 88 40 29 0 0
1.3272 1.1525 -12.9905 0.097 -0.892 0.441 92 43 32 0 0
1.3280 1.1581 -13.0298 0.047 -0.759 0.650 97 49 37 0 0
1.3302 1.1375 -13.0483 0.037 -0.674 0.738 92 48 37 0 0
1.3323 1.1176 -13.0673 0.079 -0.710 0.700 73 38 28 0 0
1.3346 1.0939 -13.0834 0.194 -0.849 0.492 54 27 21 0 0
1.3605 0.9323 -13.5205 0.585 -0.618 0.525 54 53 58 0 0
1.4529 -0.1912 -13.7029 0.332 -0.105 0.937 126 51 32 0 0
1.4588 -0.2661 -13.7076 0.282 -0.146 0.948 147 95 65 0 0
1.5041 -0.8749 -13.6485 -0.161 -0.437 0.885 136 78 63 0 0
1.5067 -0.9071 -13.6542 -0.398 -0.627 0.669 125 62 43 0 0
1.5095 -0.9409 -13.6583 0.161 -0.400 0.902 128 55 32 0 0
1.5551 -1.5042 -13.7276 -0.112 -0.248 0.962 150 81 63 0 0
1.5574 -1.5284 -13.7401 -0.192 -0.549 0.813 152 74 52 0 0
1.5610 -1.5579 -13.7842 -0.006 -0.739 0.674 153 69 40 0 0
1.5684 -1.6444 -13.8071 0.004 -0.330 0.944 153 72 44 0 0
1.5815 -1.8067 -13.8253 0.103 -0.597 0.796 169 107 90 0 0
1.5856 -1.8476 -13.8573 0.228 -0.730 0.644 173 109 92 0 0
1.5895 -1.9074 -13.8318 0.275 -0.110 0.955 161 93 76 0 0
1.5945 -1.9167 -13.9727 -0.242 -0.378 0.894 153 75 52 0 0
1.5972 -1.9509 -13.9739 -0.458 -0.709 0.537 162 92 69 0 0
1.6231 -2.2207 -14.1389 -0.160 -0.979 0.126 104 29 6 0 0
1.6236 -2.2060 -14.1939 0.144 -0.573 0.807 101 40 14 0 0
1.6256 -2.2247 -14.2118 -0.250 -0.492 0.834 104 53 34 0 0
1.6278 -2.2473 -14.2254 -0.268 -0.730 0.629 78 28 16 0 0
1.6414 -2.3129 -14.5052 -0.429 -0.884 0.187 63 27 18 0 0
1.6501 -2.3441 -14.7100 -0.298 -0.953 0.046 80 43 31 0 0
1.6513 -2.3427 -14.7522 -0.195 -0.979 0.059 91 55 38 0 0
1.6527 -2.3468 -14.7882 -0.153 -0.986 0.072 74 36 20 0 0
1.6541 -2.3507 -14.8244 -0.132 -0.980 0.151 68 27 16 0 0
1.6620 -2.3565 -15.0655 -0.388 -0.870 0.304 91 45 25 0 0
1.6634 -2.3598 -15.1033 -0.387 -0.920 0.060 82 40 27 0 0
1.6653 -2.3103 -15.2898 -0.324 -0.928 -0.186 71 46 40 0 0
1.6663 -2.3033 -15.3408 -0.685 -0.726 0.060 73 47 42 0 0
1.6728 -2.3352 -15.4734 -0.084 -0.665 0.742 8 2 3 0 0
1.6746 -2.3477 -15.5011 0.351 -0.081 0.933 7 2 4 0 0
1.6789 -2.3893 -15.5362 0.165 -0.758 0.631 7 1 2 0 0
1.7895 -4.0612 -14.9301 -0.103 -0.704 0.702 113 54 42 0 0
1.8493 -4.1237 -16.7222 -0.363 -0.516 0.776 122 117 112 0 0
1.8516 -4.1493 -16.7314 -0.150 -0.159 0.976 134 131 129 0 0
1.8813 -4.5577 -16.6722 0.284 -0.273 0.919 190 190 189 0 0
1.2856 1.2729 -12.8450 0.409 -0.438 0.800 116 43 27 0 0
1.2991 1.1575 -12.9965 -0.317 -0.770 0.554 94 42 31 0 0
1.3008 1.1460 -13.0223 0.201 -0.912 0.358 102 55 46 0 0
1.3027 1.1309 -13.0451 0.336 -0.765 0.550 91 52 44 0 0
1.3074 1.0817 -13.0757 0.589 -0.664 0.461 21 9 9 0 0
1.3331 0.9172 -13.5101 0.577 -0.646 0.499 54 53 58 0 0
1.3385 0.8773 -13.5854 0.257 -0.424 0.868 12 10 11 0 0
1.3726 0.4771 -13.6798 0.313 -0.131 0.941 119 51 32 0 0
1.4113 -0.0190 -13.6786 -0.090 -0.100 0.991 142 65 36 0 0
1.4829 -0.9400 -13.6618 -0.291 -0.438 0.851 130 53 29 0 0
1.4856 -0.9736 -13.6659 0.305 -0.328 0.894 135 58 34 0 0
1.5291 -1.5053 -13.7290 0.081 -0.242 0.967 150 77 58 0 0
1.5313 -1.5286 -13.7424 -0.038 -0.474 0.880 155 75 50 0 0
1.5335 -1.5512 -13.7565 0.057 -0.531 0.845 151 70 40 0 0
1.5350 -1.5598 -13.7850 0.369 -0.497 0.786 152 67 38 0 0
1.5534 -1.7850 -13.8133 -0.248 -0.411 0.877 170 104 86 0 0
1.5598 -1.8493 -13.8582 0.008 -0.720 0.694 166 102 86 0 0
1.5633 -1.8999 -13.8424 -0.409 -0.407 0.816 161 92 74 0 0
1.5625 -1.8605 -13.9217 -0.368 -0.631 0.684 159 83 60 0 0
1.5643 -1.8736 -13.9456 -0.204 -0.525 0.826 160 82 54 0 0
1.5665 -1.8962 -13.9594 -0.204 -0.525 0.826 157 78 50 0 0
1.5686 -1.9187 -13.9733 -0.286 -0.603 0.745 159 86 62 0 0
1.5840 -2.1045 -14.0011 -0.262 -0.453 0.852 97 22 1 0 0
1.5860 -2.1249 -14.0169 0.020 -0.308 0.951 108 34 9 0 0
1.5884 -2.1525 -14.0250 -0.292 -0.700 0.652 105 34 11 0 0
1.5905 -2.1736 -14.0401 -0.222 -0.519 0.826 83 13 0 0 0
1.5975 -2.2013 -14.2021 -0.476 -0.510 0.716 103 46 23 0 0
1.5995 -2.2195 -14.2206 -0.525 -0.684 0.507 98 50 32 0 0
1.6031 -2.2483 -14.2662 -0.511 -0.734 0.447 94 50 38 0 0
1.6376 -2.2936 -15.3135 -0.166 -0.980 -0.111 75 51 44 0 0
1.6383 -2.2825 -15.3696 -0.487 -0.870 0.079 74 47 43 0 0
1.8155 -4.1779 -16.3484 -0.474 -0.880 0.037 59 50 50 0 0
1.8248 -4.1513 -16.7328 -0.450 -0.185 0.874 139 135 134 0 0
1.2510 1.3592 -12.8449 -0.162 -0.339 0.927 114 41 24 0 0
1.2537 1.3280 -12.8552 -0.255 -0.365 0.895 112 40 21 0 0
1.2582 1.2678 -12.8430 0.315 -0.484 0.816 116 42 23 0 0
1.2573 1.3006 -12.9029 0.466 -0.704 0.536 117 43 24 0 0
1.2586 1.2942 -12.9325 0.648 -0.552 0.524 115 42 23 0 0
1.2602 1.2831 -12.9585 0.448 -0.365 0.816 107 39 23 0 0
1.2719 1.1468 -12.9901 0.126 -0.284 0.950 90 37 25 0 0
1.2753 1.1051 -12.9918 0.540 -0.496 0.680 100 52 42 0 0
1.2810 1.0568 -13.0579 0.721 -0.514 0.465 13 7 7 0 0
1.2881 1.0364 -13.2525 0.382 -0.864 0.328 52 52 57 0 0
1.3985 -0.1958 -13.7036 0.037 -0.171 0.985 122 49 27 0 0
1.4587 -0.9669 -13.6750 -0.100 -0.200 0.975 125 53 32 0 0
1.4723 -1.1280 -13.7019 -0.069 -0.530 0.845 128 47 22 0 0
1.4747 -1.1560 -13.7112 -0.065 -0.273 0.960 122 45 27 0 0
1.5026 -1.4973 -13.7399 -0.210 -0.377 0.902 150 72 49 0 0
1.5049 -1.5230 -13.7508 -0.198 -0.445 0.873 153 70 41 0 0
1.5092 -1.5664 -13.7809 0.262 -0.637 0.726 147 61 34 0 0
1.5113 -1.5875 -13.7965 0.029 -0.721 0.693 146 61 32 0 0
1.5136 -1.6126 -13.8080 0.158 -0.571 0.806 151 69 40 0 0
1.5712 -2.1937 -14.2135 -0.629 -0.569 0.530 106 51 32 0 0
1.7376 -4.0394 -14.9252 -0.316 -0.644 0.697 102 41 27 0 0
1.7477 -4.0806 -15.1686 -0.418 -0.899 0.130 67 45 43 0 0
1.8078 -4.2739 -16.7416 0.035 -0.358 0.933 169 169 169 0 0
1.2260 1.3105 -12.8093 0.485 -0.119 0.867 118 40 25 0 0
1.2295 1.2661 -12.8093 0.657 -0.187 0.731 112 36 18 0 0
1.2444 1.1416 -12.9880 0.126 -0.284 0.950 90 36 22 0 0
1.2612 1.0339 -13.2882 -0.188 -0.527 0.828 40 39 44 0 0
1.3720 -0.2106 -13.6925 -0.121 -0.087 0.989 127 56 31 0 0
1.3755 -0.2555 -13.6879 0.151 -0.025 0.988 122 46 25 0 0
1.4269 -0.9060 -13.6628 -0.269 -0.398 0.877 136 61 35 0 0
1.4322 -0.9667 -13.6777 -0.100 -0.200 0.975 115 49 33 0 0
1.4381 -1.0396 -13.6804 -0.150 -0.372 0.916 132 67 35 0 0
1.4570 -1.2617 -13.7200 0.038 -0.006 0.999 149 96 65 0 0
1.4810 -1.5457 -13.7675 -0.213 -0.248 0.945 149 63 37 0 0
1.4928 -1.6745 -13.8215 -0.107 -0.539 0.836 158 83 61 0 0
1.5009 -1.7718 -13.8325 -0.201 -0.059 0.978 172 106 91 0 0
1.5121 -1.8698 -13.9552 -0.448 -0.645 0.619 155 77 50 0 0
1.5138 -1.8815 -13.9806 -0.562 -0.513 0.648 159 84 57 0 0
1.5261 -2.0437 -13.9585 0.000 -0.687 0.727 105 26 7 0 0
1.5332 -2.1225 -13.9872 -0.270 -0.316 0.910 95 19 4 0 0
1.5357 -2.1503 -13.9949 -0.326 -0.451 0.831 89 19 2 0 0
1.5377 -2.1699 -14.0118 -0.408 -0.473 0.781 80 11 1 0 0
1.5428 -2.1663 -14.2081 -0.656 -0.601 0.457 104 44 21 0 0
1.5703 -2.3053 -14.8057 -0.630 -0.672 0.389 96 49 27 0 0
1.5829 -2.2328 -15.4802 -0.808 -0.209 0.552 9 1 1 0 0
1.7347 -3.8587 -16.2680 -0.597 -0.386 0.703 18 9 9 0 0
1.7371 -3.8875 -16.2725 0.106 -0.158 0.982 18 8 7 0 0
1.7590 -4.0780 -16.5120 -0.577 -0.816 -0.029 61 51 52 0 0
1.7856 -4.3626 -16.6538 0.036 -0.617 0.786 174 174 174 0 0
1.2496 0.9485 -13.6523 -0.271 -0.039 0.962 56 53 60 0 0
1.3075 0.2357 -13.6574 -0.121 -0.735 0.667 129 58 38 0 0
1.3385 -0.1356 -13.6900 -0.149 -0.469 0.871 119 53 28 0 0
1.3611 -0.4138 -13.6907 -0.028 -0.096 0.995 146 93 65 0 0
1.3641 -0.4502 -13.6936 -0.108 0.018 0.994 138 85 61 0 0
1.3969 -0.8630 -13.6700 -0.217 -0.220 0.951 129 52 26 0 0
1.4066 -0.9847 -13.6628 -0.248 -0.388 0.888 115 49 32 0 0
1.4614 -1.6109 -13.8151 0.421 -0.547 0.724 158 79 54 0 0
1.4664 -1.6673 -13.8317 0.326 -0.507 0.798 158 82 63 0 0
1.4697 -1.7108 -13.8239 0.197 -0.308 0.931 165 93 76 0 0
1.4777 -1.8050 -13.8380 -0.350 -0.282 0.893 167 99 83 0 0
1.4802 -1.8326 -13.8466 -0.271 -0.569 0.777 170 101 82 0 0
1.4828 -1.8459 -13.9078 -0.164 -0.877 0.452 155 76 51 0 0
1.4944 -2.0071 -13.8495 0.024 -0.904 0.427 159 88 65 0 0
1.5037 -2.0696 -14.0094 -0.080 -0.422 0.903 91 20 2 0 0
1.5531 -2.2045 -15.4751 -0.851 -0.422 0.312 13 5 4 0 0
1.6734 -3.8493 -14.9812 0.519 -0.501 0.692 126 86 79 0 0
1.7044 -3.8302 -16.2199 0.629 -0.506 0.590 35 25 24 0 0
1.7066 -3.8536 -16.2325 0.719 -0.568 0.402 40 31 29 0 0
1.7085 -3.8687 -16.2573 0.719 -0.568 0.402 39 30 28 0 0
1.7274 -4.0515 -16.4117 -0.664 -0.302 0.684 25 18 20 0 0
1.7593 -4.3700 -16.6466 0.337 -0.170 0.926 173 173 173 0 0
1.7759 -4.5621 -16.6839 0.237 0.281 0.930 192 192 192 0 0
1.7841 -4.7093 -16.5412 -0.201 -0.368 0.908 195 197 196 0 0
1.7914 -4.7648 -16.6492 0.367 -0.286 0.885 206 206 208 0 0
1.1653 1.3502 -12.7412 0.671 0.038 0.741 120 51 35 0 0
1.1809 1.1564 -12.7285 0.736 0.004 0.677 121 44 24 0 0
1.2680 0.3715 -13.6333 -0.014 -0.075 0.997 117 49 30 0 0
1.2798 0.2370 -13.6610 -0.121 -0.735 0.667 122 50 34 0 0
1.3103 -0.1214 -13.7054 0.358 -0.405 0.841 142 89 61 0 0
1.3340 -0.4151 -13.6920 0.056 -0.141 0.988 136 65 41 0 0
1.3849 -1.0373 -13.6878 -0.142 -0.248 0.958 122 48 28 0 0
1.4015 -1.2300 -13.7196 0.166 -0.010 0.986 137 75 63 0 0
1.4102 -1.3329 -13.7281 -0.050 -0.321 0.946 145 90 77 0 0
1.4286 -1.5432 -13.7753 -0.235 -0.195 0.952 162 76 45 0 0
1.4311 -1.5697 -13.7855 -0.024 -0.294 0.955 155 69 41 0 0
1.4339 -1.6039 -13.7877 0.304 -0.259 0.917 155 73 47 0 0
1.4430 -1.6996 -13.8383 0.403 -0.328 0.854 162 94 75 0 0
1.4489 -1.7712 -13.8386 -0.364 -0.409 0.837 169 101 86 0 0
1.4597 -1.8975 -13.8560 0.189 -0.284 0.940 149 71 44 0 0
1.5214 -2.2859 -15.0415 -0.029 -0.983 0.184 72 39 27 0 0
1.5221 -2.1555 -15.4951 -0.627 -0.769 0.128 23 8 7 0 0
1.5232 -2.1564 -15.5372 -0.752 -0.655 0.068 7 0 0 0 0
1.6488 -3.8628 -14.9665 0.499 -0.446 0.743 131 91 82 0 0
1.6509 -3.8833 -14.9811 -0.128 -0.313 0.941 125 79 67 0 0
1.6763 -3.8249 -16.1847 0.558 -0.466 0.686 30 15 14 0 0
1.6784 -3.8444 -16.2031 0.578 -0.562 0.592 28 13 13 0 0
1.6799 -3.8515 -16.2399 0.371 -0.721 0.585 37 21 21 0 0
1.6819 -3.8685 -16.2620 0.371 -0.721 0.585 42 28 27 0 0
1.6821 -3.8466 -16.3424 0.528 -0.780 0.336 44 32 30 0 0
1.6838 -3.8586 -16.3722 0.501 -0.784 0.367 43 30 29 0 0
1.6854 -3.8675 -16.4068 0.649 -0.616 0.445 33 24 24 0 0
1.7109 -4.1162 -16.6085 -0.621 -0.439 0.649 113 105 102 0 0
1.7133 -4.0850 -16.8063 -0.154 -0.276 0.949 148 147 147 0 0
1.7314 -4.3381 -16.7026 0.245 -0.311 0.918 174 174 174 0 0
1.1351 1.3763 -12.7289 0.585 0.133 0.800 118 50 34 0 0
1.1405 1.3048 -12.7083 0.651 0.055 0.757 120 49 32 0 0
1.1537 1.1509 -12.7261 0.537 -0.491 0.686 121 44 24 0 0
1.1562 1.1243 -12.7396 0.709 -0.412 0.572 123 45 25 0 0
1.1635 1.0500 -12.7841 0.693 -0.237 0.681 118 39 18 0 0
1.1949 0.9296 -13.6775 -0.347 0.145 0.927 53 53 59 0 0
1.2007 0.8651 -13.6960 -0.141 0.064 0.988 21 20 24 0 0
1.2453 0.3029 -13.6118 0.090 -0.545 0.833 118 49 33 0 0
1.2476 0.2805 -13.6286 0.027 -0.415 0.909 116 47 31 0 0
1.2500 0.2550 -13.6427 -0.033 -0.425 0.905 114 45 29 0 0
1.2521 0.2358 -13.6622 -0.253 -0.715 0.651 120 48 34 0 0
1.2539 0.2215 -13.6862 -0.152 -0.308 0.939 121 48 29 0 0
1.3064 -0.4074 -13.7016 -0.082 -0.132 0.988 128 51 27 0 0
1.3530 -0.9769 -13.6754 0.106 -0.561 0.821 172 105 54 0 0
1.3558 -1.0085 -13.6816 -0.186 -0.506 0.842 169 92 38 0 0
1.3584 -1.0376 -13.6900 -0.074 -0.382 0.921 143 63 28 0 0
1.3911 -1.4107 -13.7638 -0.357 -0.313 0.880 157 70 40 0 0
1.4125 -1.6540 -13.8134 -0.119 -0.331 0.936 164 88 70 0 0
1.4228 -1.7692 -13.8434 -0.525 -0.417 0.742 173 106 89 0 0
1.4347 -1.9130 -13.8423 -0.145 -0.402 0.904 153 76 46 0 0
1.4405 -1.9827 -13.8435 -0.384 -0.516 0.766 152 87 62 0 0
1.4504 -2.0607 -13.9866 -0.035 -0.402 0.915 96 22 3 0 0
1.4590 -2.1141 -14.1584 0.352 -0.786 0.508 100 23 2 0 0
1.4768 -2.2472 -14.4398 -0.397 -0.909 0.125 110 63 34 0 0
1.4957 -2.2516 -15.2116 -0.364 -0.918 -0.156 26 5 3 0 0
1.4982 -2.2592 -15.2872 -0.000 -0.987 -0.160 33 12 8 0 0
1.5574 -3.0490 -15.0269 -0.812 0.000 0.583 101 37 18 0 0
1.5746 -3.2808 -14.9401 0.428 -0.891 0.147 105 42 24 0 0
1.5758 -3.2860 -14.9753 0.428 -0.891 0.147 108 47 29 0 0
1.5771 -3.2912 -15.0107 0.428 -0.891 0.147 110 51 33 0 0
1.5902 -3.4656 -14.9517 -0.726 0.353 0.590 112 55 38 0 0
1.6190 -3.8321 -14.8847 0.493 -0.831 0.256 113 57 44 0 0
1.6255 -3.8803 -14.9888 -0.261 -0.501 0.825 108 54 39 0 0
1.6297 -3.9234 -15.0150 -0.442 -0.499 0.745 106 62 51 0 0
1.6337 -3.9626 -15.0465 -0.428 -0.717 0.551 56 20 21 0 0
1.6516 -3.8412 -16.2121 -0.101 -0.820 0.563 28 13 10 0 0
1.6535 -3.8574 -16.2354 -0.101 -0.820 0.563 33 16 14 0 0
1.6547 -3.8331 -16.3669 0.017 -0.917 0.399 38 20 16 0 0
1.6587 -3.8694 -16.4083 -0.177 -0.631 0.755 47 33 31 0 0
1.6607 -3.8882 -16.4281 0.149 -0.532 0.834 41 31 31 0 0
1.6634 -3.9205 -16.4273 -0.330 -0.234 0.915 35 27 27 0 0
1.6823 -4.0234 -16.8580 0.090 0.042 0.995 145 144 144 0 0
1.6863 -4.0868 -16.8081 -0.263 -0.699 0.665 151 151 151 0 0
1.6875 -4.0867 -16.8583 0.000 -0.630 0.776 158 158 158 0 0
1.1230 1.1740 -12.6780 0.665 -0.369 0.649 125 49 27 0 0
1.1271 1.1356 -12.7163 0.537 -0.491 0.686 121 45 24 0 0
1.1302 1.1014 -12.7238 0.709 -0.412 0.572 127 50 28 0 0
1.1332 1.0678 -12.7317 0.616 -0.640 0.459 120 41 20 0 0
1.1384 1.0123 -12.7566 0.574 -0.364 0.734 115 36 14 0 0
1.1408 0.9882 -12.7719 0.625 -0.141 0.768 118 39 17 0 0
1.1412 0.9943 -12.8109 0.532 -0.550 0.644 119 43 20 0 0
1.1369 1.0947 -12.9938 0.122 -0.714 0.689 106 42 28 0 0
1.1392 1.0725 -13.0109 0.029 -0.354 0.935 96 36 24 0 0
1.1567 0.8788 -13.0647 0.891 -0.434 0.134 18 17 21 0 0
1.1583 0.8660 -13.0894 0.867 -0.498 0.031 28 27 31 0 0
1.2115 0.3719 -13.6017 -0.006 0.075 0.997 115 47 29 0 0
1.2201 0.2768 -13.6277 -0.128 -0.573 0.810 118 48 32 0 0
1.2244 0.2361 -13.6648 -0.444 -0.657 0.610 113 44 29 0 0
1.2797 -0.4141 -13.6978 0.051 -0.058 0.997 128 54 31 0 0
1.3098 -0.7755 -13.6878 -0.285 -0.335 0.898 141 63 33 0 0
1.3265 -0.9772 -13.6777 -0.007 -0.649 0.761 157 84 35 0 0
1.3294 -1.0113 -13.6814 -0.074 -0.382 0.921 169 88 31 0 0
1.3319 -1.0379 -13.6923 -0.074 -0.382 0.921 170 89 41 0 0
1.3342 -1.0610 -13.7066 -0.038 -0.245 0.969 152 82 54 0 0
1.3648 -1.4101 -13.7671 -0.099 -0.374 0.922 157 72 39 0 0
1.3796 -1.5833 -13.7769 -0.114 -0.193 0.974 155 70 44 0 0
1.3863 -1.6517 -13.8185 -0.027 -0.233 0.972 165 91 73 0 0
1.3913 -1.7063 -13.8367 -0.214 -0.375 0.902 170 108 89 0 0
1.3937 -1.7324 -13.8470 -0.214 -0.375 0.902 177 112 94 0 0
1.4111 -1.9370 -13.8572 0.107 0.017 0.994 160 89 58 0 0
1.4315 -2.1052 -14.1325 0.310 -0.593 0.743 105 30 5 0 0
1.4334 -2.1219 -14.1527 0.352 -0.786 0.508 96 22 1 0 0
1.4375 -2.1314 -14.2976 0.751 -0.436 0.496 92 47 31 0 0
1.4634 -2.2595 -14.9548 -0.415 -0.898 0.146 65 36 23 0 0
1.5331 -3.0815 -14.9890 -0.828 0.058 0.558 100 35 17 0 0
1.5619 -3.4349 -14.9534 -0.298 -0.378 0.877 111 54 35 0 0
1.5879 -3.7763 -14.8372 0.137 -0.757 0.639 111 54 34 0 0
1.5925 -3.8256 -14.8549 -0.186 -0.938 0.291 109 53 37 0 0
1.5939 -3.8350 -14.8843 -0.186 -0.938 0.291 110 57 44 0 0
1.5970 -3.8572 -14.9389 -0.163 -0.730 0.664 124 78 67 0 0
1.5989 -3.8742 -14.9583 -0.184 -0.647 0.740 111 57 43 0 0
1.6006 -3.8875 -14.9827 -0.341 -0.697 0.631 104 49 35 0 0
1.6062 -3.9379 -15.0416 -0.377 -0.748 0.547 62 26 24 0 0
1.6080 -3.9543 -15.0618 -0.353 -0.839 0.413 62 32 33 0 0
1.6130 -3.6888 -16.2520 -0.506 -0.576 0.642 21 9 8 0 0
1.6154 -3.7144 -16.2618 -0.315 -0.531 0.787 25 14 12 0 0
1.6178 -3.7404 -16.2709 0.083 -0.593 0.801 25 14 12 0 0
1.6232 -3.7835 -16.3497 -0.066 -0.738 0.671 35 17 15 0 0
1.6250 -3.7974 -16.3767 -0.090 -0.799 0.594 37 17 15 0 0
1.6271 -3.8166 -16.3959 -0.167 -0.629 0.759 39 19 14 0 0
1.6558 -4.0368 -16.8416 -0.176 -0.333 0.926 147 146 147 0 0
1.6592 -4.0845 -16.8164 -0.263 -0.699 0.665 152 151 152 0 0
1.6794 -4.3908 -16.5776 0.062 -0.996 0.072 174 174 173 0 0
1.1029 1.0976 -12.7228 0.418 -0.483 0.769 121 45 21 0 0
1.1052 1.0743 -12.7388 0.583 -0.505 0.636 120 42 20 0 0
1.1119 0.9982 -12.7476 0.241 -0.592 0.769 116 38 16 0 0
1.1141 0.9767 -12.7648 0.241 -0.592 0.769 119 41 19 0 0
1.1166 0.9617 -12.8214 0.138 -0.990 0.013 123 47 26 0 0
1.1153 1.0140 -12.9664 0.496 -0.805 0.325 103 39 21 0 0
1.1312 0.8347 -12.9963 -0.130 0.256 0.958 34 18 14 0 0
1.1988 0.2026 -13.6375 -0.296 -0.249 0.922 110 42 26 0 0
1.2135 0.0150 -13.5797 0.617 -0.475 0.628 169 103 66 0 0
1.2158 -0.0090 -13.5946 0.527 -0.299 0.796 184 139 106 0 0
1.2183 -0.0343 -13.6084 0.290 -0.303 0.908 156 106 78 0 0
1.2210 -0.0632 -13.6189 0.290 -0.303 0.908 138 77 46 0 0
1.2296 -0.1475 -13.6889 0.447 -0.283 0.848 136 61 30 0 0
1.3007 -0.9901 -13.6677 0.282 -0.734 0.618 118 49 16 0 0
1.3025 -1.0062 -13.6889 -0.050 -0.374 0.926 162 87 36 0 0
1.3047 -1.0283 -13.7042 -0.023 -0.396 0.918 162 86 36 0 0
1.3360 -1.3822 -13.7607 -0.063 -0.336 0.940 154 67 35 0 0
1.3382 -1.4053 -13.7746 0.140 -0.400 0.906 155 69 38 0 0
1.3651 -1.7051 -13.8407 -0.636 -0.426 0.643 170 109 91 0 0
1.3675 -1.7302 -13.8520 -0.510 -0.411 0.755 173 111 94 0 0
1.3804 -1.8858 -13.8390 -0.248 -0.346 0.905 147 70 43 0 0
1.3826 -1.9078 -13.8533 -0.236 -0.225 0.945 152 73 45 0 0
1.3853 -1.9382 -13.8587 -0.180 -0.574 0.799 154 86 59 0 0
1.3905 -1.9694 -13.9767 -0.032 -0.536 0.844 97 21 3 0 0
1.4132 -2.1622 -14.2662 0.603 -0.567 0.561 96 50 35 0 0
1.4249 -2.2275 -14.5479 -0.166 -0.978 0.127 80 39 24 0 0
1.5244 -3.3062 -14.9142 -0.004 -0.812 0.584 101 39 22 0 0
1.5262 -3.3219 -14.9359 -0.004 -0.812 0.584 103 42 25 0 0
1.5280 -3.3375 -14.9577 -0.004 -0.812 0.584 106 45 28 0 0
1.5335 -3.4014 -14.9587 -0.357 -0.319 0.878 108 50 32 0 0
1.5356 -3.4225 -14.9731 -0.276 -0.462 0.843 110 53 34 0 0
1.5377 -3.4442 -14.9870 -0.158 -0.640 0.752 112 55 37 0 0
1.5673 -3.8255 -14.8586 -0.604 -0.751 0.266 110 54 38 0 0
1.5700 -3.8412 -14.9220 -0.218 -0.533 0.817 124 74 61 0 0
1.5718 -3.8578 -14.9418 -0.075 -0.582 0.809 115 59 47 0 0
1.5739 -3.8783 -14.9563 -0.075 -0.582 0.809 103 45 33 0 0
1.5824 -3.9490 -15.0729 -0.353 -0.839 0.413 87 68 64 0 0
1.5903 -3.7275 -16.2942 -0.508 -0.585 0.633 25 12 11 0 0
1.6309 -4.0812 -16.7763 -0.126 -0.402 0.907 151 149 151 0 0
1.6331 -4.1037 -16.7908 -0.089 -0.439 0.894 155 154 156 0 0
1.6581 -4.4293 -16.6693 0.061 -0.696 0.715 184 184 186 0 0
1.6691 -4.5653 -16.6476 0.766 0.291 0.573 194 195 197 0 0
1.6722 -4.6062 -16.6304 0.814 0.239 0.529 196 197 199 0 0
1.6894 -4.8016 -16.6572 -0.006 0.296 0.955 207 207 207 0 0
1.0800 1.0412 -12.7150 -0.037 -0.298 0.954 117 40 17 0 0
1.0859 0.9770 -12.7329 -0.060 -0.698 0.714 123 45 23 0 0
1.0879 0.9577 -12.7519 0.039 -0.546 0.837 122 44 22 0 0
1.0900 0.9375 -12.7702 -0.015 -0.685 0.728 120 42 20 0 0
1.0910 0.9344 -12.8019 -0.025 -0.899 0.438 121 44 22 0 0
1.1683 0.2339 -13.6310 -0.412 -0.581 0.702 112 43 27 0 0
1.1854 0.0247 -13.5908 -0.160 -0.482 0.861 168 103 66 0 0
1.1880 -0.0026 -13.6028 -0.126 -0.352 0.927 166 119 90 0 0
1.1906 -0.0314 -13.6133 -0.126 -0.352 0.927 131 77 55 0 0
1.1931 -0.0563 -13.6274 0.252 -0.539 0.804 141 78 48 0 0
1.2031 -0.1606 -13.6793 0.447 -0.283 0.848 125 50 22 0 0
1.2763 -1.0120 -13.6858 0.181 -0.603 0.777 132 60 22 0 0
1.2785 -1.0341 -13.7011 0.119 -0.453 0.884 159 82 32 0 0
1.3122 -1.4097 -13.7728 0.385 -0.658 0.648 148 61 33 0 0
1.3268 -1.5756 -13.7902 0.503 -0.613 0.609 162 85 64 0 0
1.3543 -1.8828 -13.8449 -0.248 -0.346 0.905 146 69 43 0 0
1.3567 -1.9077 -13.8562 -0.176 -0.289 0.941 154 76 54 0 0
1.3646 -1.9705 -13.9783 -0.032 -0.536 0.844 97 23 4 0 0
1.3879 -2.1748 -14.2552 0.310 -0.792 0.526 98 53 36 0 0
1.4181 -2.2238 -15.5121 -0.103 -0.384 0.917 7 5 6 0 0
1.4583 -2.7733 -15.1741 -0.286 0.377 0.881 7 6 8 0 0
1.4802 -3.0669 -15.0145 -0.809 -0.106 0.579 97 32 14 0 0
1.5008 -3.3279 -14.9316 -0.520 -0.619 0.588 106 51 35 0 0
1.5028 -3.3459 -14.9503 -0.434 -0.644 0.630 103 44 28 0 0
1.5043 -3.3578 -14.9770 -0.201 -0.836 0.510 107 48 31 0 0
1.5066 -3.3822 -14.9873 -0.347 -0.621 0.703 107 49 30 0 0
1.5088 -3.4040 -15.0009 -0.415 -0.679 0.605 109 52 33 0 0
1.5516 -3.8982 -15.0181 -0.353 -0.788 0.504 106 74 67 0 0
1.5651 -3.7389 -16.3292 -0.552 -0.712 0.434 27 12 10 0 0
1.6033 -4.0710 -16.7970 -0.251 -0.577 0.777 154 152 155 0 0
1.6053 -4.0897 -16.8175 -0.329 -0.412 0.850 159 158 159 0 0
1.6460 -4.6098 -16.6293 0.779 0.250 0.575 197 198 200 0 0
1.6567 -4.7367 -16.6196 0.361 0.343 0.867 206 206 206 0 0
1.0586 0.9741 -12.7327 -0.105 -0.679 0.727 116 38 16 0 0
1.0609 0.9511 -12.7487 -0.068 -0.534 0.843 122 45 23 0 0
1.0626 0.9367 -12.7715 -0.015 -0.685 0.728 122 44 22 0 0
1.0647 0.9169 -12.7901 -0.015 -0.685 0.728 122 44 21 0 0
1.1403 0.2368 -13.6360 -0.218 -0.817 0.534 112 42 27 0 0
1.1557 0.0561 -13.6213 -0.483 -0.221 0.847 163 97 57 0 0
1.1766 -0.1738 -13.6697 0.447 -0.283 0.848 113 44 23 0 0
1.2500 -1.0169 -13.6836 0.181 -0.603 0.777 95 30 11 0 0
1.2528 -1.0466 -13.6914 0.101 -0.610 0.786 141 64 27 0 0
1.2550 -1.0689 -13.7066 0.026 -0.303 0.953 161 92 50 0 0
1.2916 -1.4833 -13.7381 -0.080 -0.598 0.797 161 75 45 0 0
1.3174 -1.7622 -13.8242 -0.064 0.064 0.996 166 98 82 0 0
1.3190 -1.7743 -13.8490 0.461 0.242 0.853 159 87 65 0 0
1.3264 -1.8648 -13.8291 -0.039 -0.186 0.982 150 71 41 0 0
1.3289 -1.8907 -13.8394 -0.219 -0.296 0.930 149 72 42 0 0
1.3312 -1.9149 -13.8513 -0.147 -0.424 0.893 157 82 60 0 0
1.3358 -1.9398 -13.9759 0.136 -0.549 0.825 101 26 8 0 0
1.3384 -1.9676 -13.9842 0.120 -0.259 0.958 91 19 0 0 0
1.3817 -2.2260 -15.0458 -0.274 -0.954 0.120 54 20 13 0 0
1.3828 -2.2309 -15.0817 -0.274 -0.954 0.120 40 9 7 0 0
1.3856 -2.1694 -15.4956 -0.623 -0.709 0.330 5 2 5 0 0
1.3891 -2.2114 -15.4875 0.133 -0.665 0.735 6 4 5 0 0
1.3908 -2.2264 -15.5124 0.083 -0.460 0.884 9 7 8 0 0
1.4807 -3.3786 -14.9956 0.014 -0.590 0.807 105 48 29 0 0
1.4829 -3.4011 -15.0083 -0.150 -0.725 0.672 107 50 31 0 0
1.4830 -3.3903 -15.0650 -0.319 -0.903 0.289 109 52 35 0 0
1.4806 -3.3364 -15.1787 0.124 -0.985 0.117 110 53 36 0 0
1.5249 -3.6685 -15.9671 -0.390 -0.905 -0.171 39 29 27 0 0
1.5370 -3.7178 -16.3647 -0.022 -0.495 0.869 33 15 12 0 0
1.5394 -3.7436 -16.3741 -0.105 -0.344 0.933 36 18 14 0 0
1.5729 -4.0120 -16.8946 -0.279 -0.562 0.779 157 155 157 0 0
1.5829 -4.1571 -16.7654 -0.306 -0.949 -0.072 163 163 163 0 0
1.5982 -4.3798 -16.5596 -0.560 -0.627 0.541 174 174 175 0 0
1.6003 -4.3822 -16.6550 -0.090 -0.975 0.202 180 180 182 0 0
1.6033 -4.4006 -16.7254 -0.443 -0.700 0.560 185 185 187 0 0
1.6053 -4.4192 -16.7454 0.346 -0.634 0.691 188 188 190 0 0
1.6250 -4.6722 -16.6312 0.604 -0.174 0.778 202 202 205 0 0
1.6273 -4.6969 -16.6404 0.652 0.159 0.741 203 203 204 0 0
1.0335 0.9513 -12.7508 -0.068 -0.534 0.843 120 40 19 0 0
1.0352 0.9359 -12.7728 -0.015 -0.685 0.728 121 43 21 0 0
1.0373 0.9158 -12.7912 0.459 -0.471 0.753 123 45 23 0 0
1.0579 0.7388 -13.0641 0.238 -0.970 0.052 25 20 26 0 0
1.1124 0.2386 -13.6398 0.179 -0.722 0.669 115 46 28 0 0
1.1368 -0.0369 -13.6497 -0.214 -0.010 0.977 112 50 26 0 0
1.1425 -0.0988 -13.6670 0.132 -0.327 0.936 101 33 11 0 0
1.1453 -0.1277 -13.6774 0.132 -0.327 0.936 110 43 26 0 0
1.1491 -0.1724 -13.6733 -0.048 -0.330 0.943 106 39 23 0 0
1.1577 -0.2647 -13.6989 0.065 0.001 0.998 154 95 59 0 0
1.2048 -0.7985 -13.7128 0.009 -0.136 0.991 154 71 29 0 0
1.2240 -1.0248 -13.6784 0.005 -0.542 0.840 98 32 18 0 0
1.2606 -1.4249 -13.7627 0.492 -0.437 0.753 151 64 34 0 0
1.2741 -1.5813 -13.7524 0.503 -0.613 0.609 162 84 60 0 0
1.2794 -1.6272 -13.8172 0.205 -0.440 0.875 165 97 79 0 0
1.2818 -1.6525 -13.8284 0.052 -0.817 0.575 178 114 97 0 0
1.2861 -1.6944 -13.8600 -0.207 -0.050 0.977 183 117 99 0 0
1.2993 -1.8478 -13.8498 -0.249 -0.367 0.896 152 71 42 0 0
1.3018 -1.8740 -13.8597 -0.183 -0.289 0.940 155 74 49 0 0
1.3050 -1.9103 -13.8590 -0.282 -0.560 0.779 168 93 74 0 0
1.3098 -1.9398 -13.9788 -0.139 -0.549 0.825 96 20 3 0 0
1.3491 -2.1997 -14.8732 -0.503 -0.839 0.207 75 41 30 0 0
1.3533 -2.2161 -15.0192 -0.269 -0.942 0.200 64 29 19 0 0
1.3542 -2.2189 -15.0575 -0.259 -0.963 0.073 68 32 24 0 0
1.3553 -2.2229 -15.0945 -0.220 -0.974 0.054 56 25 18 0 0
1.3619 -2.2154 -15.4861 0.133 -0.665 0.735 7 5 6 0 0
1.3640 -2.2353 -15.5049 0.124 -0.655 0.746 9 7 8 0 0
1.4015 -2.7173 -15.2513 -0.622 0.258 0.740 11 6 8 0 0
1.4438 -3.2664 -14.9342 -0.529 -0.475 0.704 96 37 20 0 0
1.4462 -3.2914 -14.9438 -0.595 -0.450 0.666 135 90 74 0 0
1.4505 -3.3346 -14.9720 -0.586 -0.557 0.588 132 76 58 0 0
1.4526 -3.3544 -14.9884 -0.470 -0.641 0.607 104 46 31 0 0
1.4551 -3.3816 -14.9952 -0.257 -0.504 0.824 105 46 31 0 0
1.4560 -3.3593 -15.1521 -0.093 -0.968 0.234 109 49 33 0 0
1.5078 -3.6966 -16.3526 0.204 -0.530 0.823 29 11 10 0 0
1.5098 -3.7139 -16.3748 0.107 -0.382 0.918 39 17 15 0 0
1.5126 -3.7468 -16.3737 0.049 -0.149 0.988 60 43 39 0 0
1.5156 -3.7813 -16.3702 -0.226 -0.249 0.942 77 60 56 0 0
1.5627 -4.2404 -16.7375 0.046 -0.563 0.825 173 173 174 0 0
1.5701 -4.3533 -16.6067 -0.093 -0.494 0.864 176 176 178 0 0
1.5737 -4.3826 -16.6591 -0.139 -0.685 0.715 180 180 182 0 0
0.9265 1.8402 -12.7133 -0.720 -0.646 0.254 119 65 52 0 0
0.9974 1.0429 -12.7222 0.340 -0.408 0.847 127 51 29 0 0
1.0035 0.9768 -12.7387 0.180 -0.146 0.973 135 54 33 0 0
1.0068 0.9412 -12.7449 0.200 -0.191 0.961 122 42 21 0 0
1.0107 0.9050 -12.7847 0.560 -0.398 0.727 122 44 22 0 0
1.0146 0.8686 -12.8244 0.545 -0.345 0.764 124 45 23 0 0
1.0146 0.8769 -12.8653 0.691 -0.684 0.234 128 50 26 0 0
1.0141 0.9079 -12.9939 0.369 -0.645 0.669 108 40 23 0 0
1.0314 0.7242 -13.0543 0.456 -0.883 0.114 30 25 29 0 0
1.0534 0.5776 -13.5732 0.550 -0.056 0.833 23 12 16 0 0
1.1129 -0.0772 -13.6523 -0.085 0.026 0.996 118 55 27 0 0
1.1154 -0.1027 -13.6659 0.233 -0.256 0.938 112 40 17 0 0
1.1182 -0.1331 -13.6749 0.233 -0.256 0.938 110 37 20 0 0
1.1219 -0.1747 -13.6736 -0.034 -0.318 0.947 109 45 26 0 0
1.1778 -0.7975 -13.7162 0.032 -0.145 0.989 158 88 53 0 0
1.2136 -1.1889 -13.7787 0.051 0.023 0.998 137 62 39 0 0
1.2286 -1.3631 -13.7533 -0.060 -0.315 0.947 152 65 33 0 0
1.2349 -1.4332 -13.7569 0.311 -0.609 0.730 155 69 40 0 0
1.2440 -1.5437 -13.7192 0.136 -0.640 0.757 158 73 47 0 0
1.2462 -1.5656 -13.7339 -0.117 -0.752 0.649 156 77 52 0 0
1.2484 -1.5869 -13.7493 0.056 -0.816 0.575 164 88 65 0 0
1.2500 -1.6002 -13.7730 0.244 -0.659 0.711 160 86 65 0 0
1.2533 -1.6286 -13.8184 -0.111 -0.505 0.856 169 104 86 0 0
1.2558 -1.6546 -13.8290 0.052 -0.817 0.575 178 115 97 0 0
1.2711 -1.8260 -13.8378 -0.167 -0.364 0.916 155 77 47 0 0
1.2731 -1.8451 -13.8553 -0.195 -0.333 0.922 152 73 45 0 0
1.2767 -1.8860 -13.8498 -0.191 -0.535 0.823 157 84 59 0 0
1.2912 -2.0178 -14.0120 -0.325 -0.328 0.887 115 55 25 0 0
1.2972 -2.0468 -14.2112 -0.239 -0.959 0.153 93 31 13 0 0
1.2983 -2.0533 -14.2430 -0.104 -0.952 0.288 105 54 36 0 0
1.3002 -2.0700 -14.2635 0.248 -0.907 0.339 91 46 30 0 0
1.3046 -2.1041 -14.3429 -0.298 -0.782 0.547 103 55 38 0 0
1.3171 -2.1744 -14.7018 -0.380 -0.920 0.094 100 58 27 0 0
1.3228 -2.1954 -14.9226 -0.361 -0.925 0.121 65 30 20 0 0
1.3260 -2.2104 -15.0292 -0.269 -0.942 0.200 97 55 33 0 0
1.3268 -2.2124 -15.0685 -0.259 -0.963 0.073 84 38 19 0 0
1.3278 -2.2155 -15.1066 -0.259 -0.963 0.073 64 26 12 0 0
1.3347 -2.2187 -15.4855 0.124 -0.655 0.746 6 4 5 0 0
1.3366 -2.2368 -15.5067 -0.105 -0.719 0.687 9 7 8 0 0
1.3771 -2.7408 -15.2680 -0.446 -0.328 0.833 11 5 6 0 0
1.4175 -3.2589 -14.9473 -0.568 -0.496 0.657 95 35 17 0 0
1.4197 -3.2812 -14.9606 -0.618 -0.365 0.697 122 72 55 0 0
1.4263 -3.3473 -15.0013 -0.470 -0.641 0.607 114 56 40 0 0
1.4287 -3.3727 -15.0104 -0.378 -0.651 0.658 105 44 29 0 0
1.4303 -3.3628 -15.1511 0.173 -0.910 0.377 106 45 28 0 0
1.4496 -3.6347 -14.8760 0.157 0.247 0.956 111 53 37 0 0
1.4504 -3.6361 -14.9163 0.059 0.232 0.971 112 55 38 0 0
1.4805 -3.6913 -16.3647 0.110 -0.389 0.915 34 15 11 0 0
1.4830 -3.7173 -16.3739 -0.144 -0.469 0.871 61 42 38 0 0
1.4854 -3.7425 -16.3844 -0.138 -0.340 0.930 80 62 58 0 0
1.4885 -3.7779 -16.3797 -0.335 -0.265 0.904 83 61 58 0 0
1.4926 -3.8176 -16.4163 -0.337 -0.605 0.721 60 33 30 0 0
1.5117 -3.9468 -16.8560 -0.424 -0.400 0.812 147 145 146 0 0
1.5362 -4.2467 -16.7322 0.356 -0.062 0.932 173 173 175 0 0
1.5427 -4.3405 -16.6319 -0.291 -0.625 0.724 176 176 178 0 0
1.5442 -4.3508 -16.6652 -0.084 -0.734 0.674 180 180 182 0 0
1.5470 -4.3825 -16.6640 -0.139 -0.685 0.715 184 184 186 0 0
1.5529 -4.4508 -16.6533 0.020 -0.722 0.692 189 189 191 0 0
0.9732 1.0063 -12.7297 0.370 -0.206 0.906 126 48 26 0 0
0.9809 0.9201 -12.7303 0.578 -0.120 0.807 122 42 21 0 0
0.9892 0.8703 -12.9658 0.568 -0.692 0.445 123 50 29 0 0
0.9910 0.8550 -12.9882 0.326 -0.756 0.568 107 40 25 0 0
1.0106 0.6427 -13.0245 0.402 -0.342 0.849 35 31 32 0 0
1.0265 0.5793 -13.6499 -0.051 -0.653 0.756 15 10 11 0 0
1.0913 -0.1401 -13.6709 0.266 -0.288 0.920 104 32 8 0 0
1.0929 -0.1539 -13.6951 -0.136 -0.183 0.974 109 40 19 0 0
1.0966 -0.1951 -13.6942 0.082 -0.002 0.997 108 40 23 0 0
1.1461 -0.7478 -13.6926 0.385 -0.307 0.871 123 77 65 0 0
1.1482 -0.7685 -13.7097 -0.038 -0.224 0.974 115 66 60 0 0
1.1542 -0.8327 -13.7219 -0.060 -0.143 0.988 160 89 48 0 0
1.1762 -1.0747 -13.7456 -0.507 -0.621 0.598 125 48 31 0 0
1.1805 -1.1251 -13.7331 0.121 -0.579 0.806 136 60 42 0 0
1.1830 -1.1501 -13.7455 0.152 -0.380 0.912 130 55 34 0 0
1.1840 -1.1560 -13.7768 -0.032 -0.319 0.947 134 57 34 0 0
1.2085 -1.4322 -13.7606 0.190 -0.837 0.513 150 65 37 0 0
1.2101 -1.4460 -13.7838 0.190 -0.837 0.513 151 66 39 0 0
1.2216 -1.5775 -13.7616 -0.291 -0.684 0.669 159 86 64 0 0
1.2240 -1.6029 -13.7728 -0.021 -0.838 0.545 161 90 72 0 0
1.2282 -1.6357 -13.8512 -0.186 -0.456 0.870 180 119 100 0 0
1.2305 -1.6588 -13.8649 -0.179 -0.348 0.920 174 111 94 0 0
