ply
format ascii 1.0
element vertex 702
property float x
property float y
property float z
property uchar diffuse_red
property uchar diffuse_green
property uchar diffuse_blue
end_header
3.6208546464776807 -3.0173398668293485 -15.903858079239807 44 45 50
3.621639410528993 -3.023495098102907 -15.946918165535589 42 43 48
3.689311042679072 -3.045499821598265 -15.88284761880098 42 43 48
3.641452307869499 -3.040172010384893 -16.004141496414253 44 43 49
3.6339333834822742 -3.0444216238910062 -16.060961805556467 44 43 49
3.661471709035003 -3.0569328634880324 -16.061293980550555 60 59 65
3.6942136450129084 -3.0706493228722205 -16.053085106442758 58 55 62
3.755532027783799 -3.0910190950077934 -15.998229025072856 23 20 25
3.781595457511278 -3.1031222455049967 -16.000488450877928 41 37 40
3.803268618705248 -3.1141941175805963 -16.009846736353268 58 53 53
3.8155371931974775 -3.1230816996079 -16.03459634098682 62 58 57
3.7818287206511005 -3.121355962812265 -16.135075044603894 63 59 57
3.879079668067871 -3.2177672424757753 -16.52399965022706 154 154 154
3.9544618406043517 -3.2661095327537857 -16.62954980743993 188 189 191
3.9852453717081833 -3.279226815380631 -16.62347454012827 192 193 195
3.9457858412386546 -3.276989237358095 -16.73948198435386 197 198 200
4.064823201699036 -3.309325177199589 -16.579477122405017 199 200 202
4.081948208939276 -3.319410509984869 -16.596797056882338 203 203 205
4.115190709707452 -3.332981268246473 -16.5858241204509 203 203 205
4.142574850588682 -3.345266704052801 -16.584998085060185 203 203 204
4.1733178804698 -3.3582593716368563 -16.57813377275776 205 205 205
-3.3528472440245567 0.5644439402039447 -12.505138341746171 191 175 168
-3.3188167418771655 0.5478346860212722 -12.514290874570857 173 149 138
-3.3078813118839983 0.5393874097265825 -12.540127082837442 152 123 108
-3.284909038716836 0.5266890732815432 -12.557246973985935 138 101 82
-3.2680155146711742 0.5161354903563748 -12.578784039624045 123 78 60
-3.2589239623213597 0.5083285492595082 -12.60603547649184 113 63 47
-3.2891027742736796 0.5143368544443709 -12.662120777228747 106 54 42
-2.6348420380303645 0.2391041068334543 -12.513491787803392 98 41 29
-2.610658939254681 0.22611243760075395 -12.528746232251244 96 39 25
-2.589980000878219 0.21434513273274147 -12.546635359065094 98 39 25
-2.586733595824171 0.20864979965690766 -12.577771467416955 100 41 27
-2.5995041956171505 0.2085187920104037 -12.621186377512387 103 41 27
-2.2065881474983344 0.0493108607399817 -12.487146019433458 106 40 27
-2.142937593037609 0.018221902977557658 -12.504434622203927 106 39 23
-2.1037263861497797 0.00013626002377664648 -12.507234840108929 106 39 23
-2.0518987053280258 -0.02229416004982987 -12.500081920565268 107 38 23
-2.0320648681287254 -0.03366570621146403 -12.517866767263587 109 38 23
-2.0164520121687186 -0.04358131515658448 -12.538964291634912 110 39 24
-1.962358617925891 -0.0712876548370609 -12.563119773982196 109 39 23
-1.8939679016835056 -0.09934941526366048 -12.542366349185286 110 39 23
-1.8969429822400476 -0.10286341580764002 -12.578124815028538 110 38 23
-1.7307663763248033 -0.16445202932389158 -12.479138565143213 109 38 23
-1.7288653281021817 -0.16961319485397786 -12.510814355917525 113 42 27
-1.7207784468238572 -0.176903822668387 -12.537604447157655 110 37 22
-1.6826848402332102 -0.19447338196234654 -12.540320395401231 108 36 21
-1.660063362099213 -0.20673879630257996 -12.55541930797429 109 36 21
-1.6527063257887589 -0.2137850923714395 -12.582836760414185 108 35 20
-1.6225575653665079 -0.2286199924624568 -12.591830218430552 106 33 18
-1.5061087970462879 -0.2728873655134816 -12.530629163296698 104 31 16
-1.506660001793934 -0.2772180374251665 -12.56434257782729 105 31 16
-1.467800121127759 -0.29498043636697835 -12.565931001593386 108 33 19
-1.4202545670450109 -0.3156851016663338 -12.560307692504717 110 34 19
-1.3520842076756399 -0.34338211178769296 -12.537601563793645 111 37 21
-1.3021143145889535 -0.36486742075219425 -12.529666438062412 115 42 24
-1.2409389021782813 -0.3901348382909977 -12.512326093232648 111 38 19
-1.224807567689802 -0.40010666730674416 -12.53211403062218 117 44 25
-1.2008213131703487 -0.41273982208954907 -12.545383519966716 107 34 16
-1.1901440996791655 -0.4208660998492646 -12.5697149606863 111 40 22
-1.1752510108342742 -0.43042207280818046 -12.590557509874806 120 51 32
-1.1669367462792852 -0.437758153049276 -12.616926369131313 113 38 22
-1.1494546706323883 -0.44819363281916225 -12.635637601741028 117 41 23
-1.1138060593696872 -0.46475329469813076 -12.639046329375057 115 40 21
-1.084111156908885 -0.4792967194807023 -12.647402688850613 115 39 21
-1.0399190396330038 -0.4987104941067835 -12.643423297515664 114 37 19
-1.0021503822915534 -0.515948398251755 -12.644777852124465 113 34 16
-0.9643427767799384 -0.5331867531112158 -12.64600625801032 113 35 16
-0.9346553262570945 -0.5476880327570974 -12.654077127876144 114 36 16
-0.8932909870620023 -0.5660957074615811 -12.652090871703031 115 37 18
-0.8653860667750939 -0.579981195590511 -12.66155373015824 119 41 22
-0.8326827470532621 -0.5954654917617828 -12.66683630196648 123 45 25
-0.8060252775133749 -0.6089195338808673 -12.677269601930583 124 47 28
-0.7764239586039521 -0.6233508057132582 -12.68511140251072 120 43 23
-0.7407261076508025 -0.6398080822535976 -12.687602722019365 117 39 19
-0.710544784054834 -0.6544153310923075 -12.694812034152378 123 45 25
-0.6813941472459337 -0.66867134683653 -12.702861752014833 126 45 26
-0.6598441815867355 -0.6803919398810501 -12.717511637162465 127 46 27
-0.6089183296601002 -0.7018707969098354 -12.7063513324172 127 48 28
-0.5620386971250841 -0.721984747102614 -12.698592922943167 131 55 35
-0.5467379911214048 -0.7316074637888548 -12.718571869133676 134 65 48
-0.5287665127687937 -0.7421165111966719 -12.736197872887999 137 77 61
-0.5035560811469404 -0.7550211019257502 -12.747396335846947 154 94 78
-0.4669589172486557 -0.7716853827397716 -12.748422175224693 160 99 79
-0.4327077413080227 -0.7875622031752467 -12.75144920356614 152 83 56
-0.39664280176553035 -0.8040263970320733 -12.752771215289673 141 66 38
-0.36988337919540637 -0.8174109395950886 -12.762353979595218 152 79 58
-0.3485465261020657 -0.8290037399696906 -12.776771494470086 158 96 81
-0.3478085680231082 -0.8384009990007009 -12.843498395346302 123 42 24
-0.36455022190506625 -0.8374999951324003 -12.892516025451982 106 24 4
-0.250561021190002 -0.8794939654606995 -12.822754624691477 101 21 4
-0.23031399952024234 -0.890712650443191 -12.838040693753303 91 19 4
-0.3893490132811932 -0.843257749739089 -13.01733608257127 71 12 2
-0.35730064756445223 -0.8583919350492435 -13.022218356610537 55 7 1
-0.3239706271916738 -0.8739348922760142 -13.025849572496828 55 11 4
-0.2815562713537103 -0.8924307601781156 -13.021022232219906 61 21 13
-0.2683652758282511 -0.9013860457901681 -13.043100583993205 53 17 10
-0.27737494980608357 -0.9031171011308969 -13.085792976597116 54 31 23
-0.26465081849616023 -0.9119344203870905 -13.108407552599823 66 53 44
-0.2692314692008484 -0.9151336846569311 -13.147186060426751 77 71 60
-0.272336820556097 -0.9188271829793582 -13.184698967825224 82 78 69
-0.25624297165270793 -0.9287587665603008 -13.204315234851007 89 85 76
-0.2375453607208513 -0.9395346420174895 -13.221491829024037 84 79 69
-0.21810634092007142 -0.9505496860748641 -13.237964613090451 107 104 92
-0.22961954838750742 -0.9515626834371593 -13.283692808891939 112 110 99
-0.2216958715773556 -0.9588696461228006 -13.31114565715385 116 114 102
-0.21502937473173223 -0.9657782698937565 -13.339845012559934 105 101 90
-0.16076831323619167 -0.9880225296905394 -13.323232887280916 99 95 84
-0.15603108581690162 -0.9943094572840794 -13.353768535364836 99 95 84
-0.1513499395959217 -1.00058765050367 -13.384426301763174 90 86 75
-0.14546286739686742 -1.0072622866399117 -13.41399397546924 88 84 74
-0.14144275873438783 -1.0133468693665733 -13.445423777217446 84 81 72
-0.1389596981791028 -1.018949101522602 -13.478411919871334 80 76 67
-0.12523387354823345 -1.0281590084610706 -13.500586907324035 81 78 69
-0.12787293159652524 -1.0321425996658702 -13.538685400180352 89 84 76
-0.11776739679559434 -1.0402088882112013 -13.564475522009516 87 82 73
-0.10765168089527322 -1.04828408184482 -13.590297357781527 102 91 83
-0.1299372898930029 -1.0460465111190396 -13.647904104278059 131 112 103
-0.10587732730295141 -1.0585804497004632 -13.660198180975314 150 115 102
-0.09112595363053089 -1.0681523556743437 -13.681629096740586 148 92 71
-0.07026166979065263 -1.0796666272316386 -13.69703936198077 136 69 44
-0.07328276540996725 -1.0836072642214445 -13.736091560871333 122 57 36
0.3827556475438163 -1.3056550737425443 -13.854836737127243 115 38 18
0.40230127075074584 -1.3166824948840845 -13.871046279711603 116 39 19
0.6830000987852056 -1.4331959360142044 -13.795720094298668 99 53 34
0.74562526457147 -1.4574124546081446 -13.765824239009493 144 82 57
0.7284193592087735 -1.4570473137931357 -13.820329947639834 118 48 25
0.7411226950573777 -1.465894121442493 -13.843230734486728 108 38 22
0.7571056941138794 -1.4757505657658774 -13.862662321339513 109 38 22
0.7163134793769785 -1.4682185804147392 -13.94281050311134 110 36 20
0.8589342785467853 -1.5168375075922285 -13.826646472938872 114 39 24
0.8898350744008274 -1.531227037125357 -13.829861415989825 117 42 25
0.900874891708443 -1.539546352507704 -13.854408621076782 116 41 23
0.9283659368436856 -1.5528833277487348 -13.861209237930389 115 41 23
0.9777689231818991 -1.5728797597050117 -13.844197868076929 117 41 23
1.031970848126205 -1.5943086971882394 -13.821780147814565 118 42 24
1.079340220547686 -1.6136342715932472 -13.8065900078976 118 41 23
1.1044347762157738 -1.6261845120324563 -13.815565026157726 117 39 22
1.1644102179381157 -1.6492857065570217 -13.786266363686307 119 40 24
1.3542951993515775 -1.7410754991639332 -13.83080406085892 120 42 22
1.3937168887703484 -1.7578360816671603 -13.823149902677788 120 42 23
1.4376470330507427 -1.7759258326425624 -13.810294246882874 121 43 24
1.4651660814445258 -1.789093817108939 -13.815757717011843 122 44 24
1.5060342405991838 -1.8062325396943906 -13.80607913970685 120 42 23
1.515864121431691 -1.8141113024273423 -13.83140504546462 120 42 23
1.711260250196104 -1.9017735786264227 -13.827237664885292 121 40 22
1.7393777892497937 -1.9150260682205613 -13.831333807964022 121 40 21
1.9293950559920967 -2.0005608094516 -13.82938388064287 121 40 20
1.9757693004737034 -2.019059879278678 -13.811417133458434 119 40 19
2.0176480755031365 -2.0362236403296787 -13.798563516214731 120 39 19
2.049290600886968 -2.0503886042305752 -13.797659704580198 123 42 23
2.086831010978023 -2.0662526662532064 -13.789659138395075 122 41 21
2.1220527494219414 -2.081425956514971 -13.784280753554587 120 40 20
2.147141247331879 -2.093649549904595 -13.790871226197302 121 43 21
2.1751961235299433 -2.106722805389923 -13.793856195289226 122 44 23
2.202730445734212 -2.1196355234130198 -13.797389695594887 123 45 24
2.2369638667869864 -2.1344683970291354 -13.792790504908872 120 42 20
2.240419297817022 -2.1404317758633513 -13.825205070767247 119 41 19
2.270273470432781 -2.153988769504842 -13.825770180132107 121 43 21
2.3034528983490086 -2.168487165206408 -13.822212214136755 121 43 21
2.331131057781751 -2.181395365217312 -13.825234327968982 122 43 21
2.36771827923777 -2.1968398894973222 -13.817313718346572 122 44 22
2.396309999385953 -2.2099841832362968 -13.819037139585124 122 45 23
2.4258484646114784 -2.22338703457085 -13.819516933386414 123 46 23
2.4795786940810203 -2.2436594637885285 -13.790153282849857 123 45 23
2.504554795892796 -2.255731138005046 -13.795998983419025 123 45 23
2.5303661961758577 -2.2680316177236 -13.800752487361539 123 46 24
2.5428573579655636 -2.2765526209313744 -13.82196007828238 124 45 23
2.548270681460351 -2.2830768836314057 -13.851995523421037 122 45 23
2.612685584955323 -2.3062581290666446 -13.808529055809048 122 47 24
2.936330403863817 -2.4667096114000375 -13.91390633094447 111 55 25
2.916703287256527 -2.466366827465605 -13.97662491946366 154 85 40
2.92308746313143 -2.473198342980052 -14.00569508287352 148 67 24
2.931286928392999 -2.4856406992819373 -14.070036486641168 126 52 29
2.9470294340512018 -2.4950580870141277 -14.08703528335234 116 53 35
3.0825370747473864 -2.5421872674742847 -13.983548857585468 101 31 15
3.1228834962637757 -2.5582336413804536 -13.967563018567715 102 26 6
3.133311570358016 -2.5661480909774688 -13.991163199766632 104 26 4
3.146739129630731 -2.5748794437748965 -14.010806665920182 108 27 4
3.165792920625769 -2.5851323503273336 -14.022949342416368 107 28 7
3.165555251993423 -2.590183628041234 -14.06092543210218 90 16 2
3.186032778470496 -2.600823054891815 -14.071180952657446 81 21 8
3.1638850563621155 -2.600014967482337 -14.138852799375385 87 45 32
3.13466711608572 -2.5973514848107766 -14.216367713654341 71 40 35
3.0586720799694174 -2.5874773227663885 -14.396290383710113 17 12 13
3.050600877263639 -2.5905964564774546 -14.446081860273903 21 16 17
3.042920775470061 -2.5938448372075293 -14.495524766473007 25 18 19
3.033106542752667 -2.596551876553799 -14.548076489927858 27 22 23
3.0327472491153245 -2.6017902891742333 -14.587834504227457 27 23 24
3.032387267133819 -2.6070460834192186 -14.627722765181232 27 24 26
3.031886400866197 -2.6122823627115856 -14.667935672990248 28 26 25
3.056992951569371 -2.6242781011829277 -14.672788734054974 27 25 25
3.057243806097784 -2.629734216713477 -14.712121234792448 25 23 24
3.057497355482255 -2.6352082559943906 -14.751576727137895 26 25 26
3.0577505198946815 -2.6406994927088046 -14.791160101743174 21 21 20
3.070590534502167 -2.6494950910939252 -14.813229569795244 17 17 17
3.0718653752677776 -2.6552807028694585 -14.851583917489464 14 14 13
3.0723216046875628 -2.660869851459014 -14.891213087377356 12 11 11
3.077194646085278 -2.667622708371066 -14.92472731748163 9 7 8
3.078704969332997 -2.673517353647201 -14.963101576468276 6 5 5
3.079131929576393 -2.679148420327507 -15.003136628365533 5 4 4
3.079560747647122 -2.684797643404025 -15.043299166891629 4 2 3
3.086012890524075 -2.6920148034909386 -15.074982407641413 5 3 4
3.0884018456057563 -2.6981997339051023 -15.112573022007506 4 2 3
3.0864144635272837 -2.7032789356886915 -15.156570864603044 3 1 2
3.1074455202170403 -2.7142649574440103 -15.167537940055766 3 1 2
3.110110628811154 -2.720560024568967 -15.205021393556448 3 1 2
3.112243611935403 -2.7267352876205995 -15.243391710308792 3 1 2
3.117699547131253 -2.733771096560275 -15.277051367819487 5 2 3
3.1405248056134525 -2.7452226072506467 -15.285481172934618 6 3 5
3.134186888293442 -2.749291150381094 -15.336500354131076 11 7 10
3.154872470823233 -2.760205674441423 -15.348089467059946 18 16 18
3.1802998521996777 -2.772309932060168 -15.352674948854933 28 27 28
3.205755542564 -2.784411636420886 -15.357147533012519 38 37 36
3.235122686458195 -2.7974840855059186 -15.35576448549054 53 51 49
3.262769331698447 -2.8101119819403046 -15.356827840260795 55 50 50
3.28660000906691 -2.8217753206238623 -15.363474971666955 57 53 54
3.3160962515449475 -2.8348410984491847 -15.361613678483437 61 57 59
3.340208560777463 -2.8465550026896085 -15.367696892773072 52 50 51
3.3616226238668476 -2.857591809859727 -15.377764692781074 27 27 29
3.3843628758005764 -2.8689511064265436 -15.385798212308664 9 8 13
3.4016936466790817 -2.8789692443138146 -15.40194004228665 11 11 14
3.4281323046817587 -2.8912277974302785 -15.404299841025153 32 32 35
3.3465003903214097 -2.8769464329241905 -15.570515370832297 31 31 33
3.3904974694433836 -2.893545561733289 -15.546463684701578 24 24 26
3.335498425727991 -2.88592821012037 -15.673208031572596 17 17 19
3.2923697345651766 -2.8812887299341274 -15.782416638191716 17 17 19
3.287693704824626 -2.886068937683286 -15.833150646726054 15 15 17
3.302949899440554 -2.8957089789551684 -15.853405090879953 12 12 14
3.320125176468662 -2.905815515916432 -15.870714563217774 11 11 14
3.3380573580872044 -2.916104650789734 -15.886852259249608 10 11 13
3.317777815396231 -2.917194522497501 -15.96228636368021 11 11 13
3.3182775633087536 -2.9233189842782608 -16.00571169718813 13 14 16
3.3324022671541185 -2.9327269752686194 -16.028019017124702 16 16 20
3.3605504701353954 -2.9454889659282495 -16.028402318164922 22 21 27
3.3905277689555797 -2.958673486804335 -16.025816108547204 63 62 66
3.422902339834077 -2.972412153122568 -16.01934063984073 77 77 80
3.4648872886288 -2.988410442563211 -15.997554224339693 30 28 33
3.5191809245622023 -3.007288497242316 -15.956052780575043 16 15 21
3.5490333348856105 -3.0203565704221997 -15.95302445545007 37 37 43
3.613951889611605 -3.041656638886493 -15.894035125500405 43 44 49
3.6074782023721337 -3.046149372394352 -15.948628384629565 46 47 52
3.659403186206016 -3.0643344209501837 -15.909898812393267 43 44 49
3.6313574902641825 -3.0638157364876895 -15.999306485592427 44 44 50
3.6364625703314832 -3.0710680078338948 -16.03572594717837 46 45 51
3.651277218990539 -3.0805886361262136 -16.056569040341532 62 61 67
3.723302335755074 -3.1033527827470433 -15.98473506845367 52 49 56
3.7461663089910395 -3.114700423494805 -15.992271521923913 48 45 48
3.7676895735699842 -3.1257318997504204 -16.001937083000705 85 81 82
3.7869189736471913 -3.136230977147244 -16.015308260508384 78 75 73
3.806668674406624 -3.1468461558152576 -16.027804622310935 61 58 56
3.7664617669863354 -3.143773491232901 -16.138835439970542 65 61 58
3.6787920081552894 -3.167697593674061 -16.606378947022044 108 104 102
3.9664640554233763 -3.2948248866911483 -16.58600937667009 189 190 192
3.91438216877099 -3.2899709994709085 -16.723400699872556 192 193 195
3.9450883124720466 -3.3030551317593315 -16.71765272100381 196 197 199
4.043281867513032 -3.330618480898659 -16.59416317539524 200 200 202
4.055660357106572 -3.3396938142615626 -16.61982611740746 202 202 204
4.10304885601663 -3.3562478489445917 -16.58416911745943 203 203 205
4.144337471865166 -3.371461802433757 -16.558923310195333 204 204 205
-3.213174270820793 0.47019606383841817 -12.493430878841494 203 193 188
-3.1855847617686273 0.4559116077077485 -12.507000660146554 193 178 170
-3.173165801146414 0.4469464580484148 -12.531616959669844 177 156 146
-3.1420572724322895 0.43143522425909353 -12.542572446142549 156 123 115
-3.101860121191296 0.4127517651814583 -12.546803763164135 123 83 71
-3.0779530874473697 0.39977321979389524 -12.562947567014021 109 57 44
-3.0532368305987143 0.38651472154587374 -12.578474476352838 108 51 39
-2.3894329820961024 0.09612397698713604 -12.515903866507315 102 41 28
-2.3336457304488407 0.07228554674030008 -12.506509518044734 102 40 27
-2.2996067578014534 0.055969167485987015 -12.513707831356452 103 39 27
-2.255975467327141 0.036356526372145925 -12.513431384285365 104 40 28
-2.211806609717695 0.016573515825788476 -12.512631224483293 105 41 28
-2.170968306404 -0.0020487588737703177 -12.514307831695369 106 41 25
-2.1171555615589535 -0.025117044907768005 -12.505783152304257 105 38 22
-2.0948912012893732 -0.037330969967027006 -12.52174591689463 105 37 23
-2.0644204024580928 -0.052358272687743845 -12.531265336324429 107 38 23
-2.033907147470271 -0.06739302172154149 -12.540699524766245 107 38 23
-2.007222529082438 -0.08110931858376036 -12.55309674272649 108 39 22
-1.9775388362916084 -0.09584699923674256 -12.56308974954296 108 40 21
-1.9406564691405004 -0.11303916577708906 -12.567332808358845 108 39 23
-1.8759379004298529 -0.1397289459644866 -12.549388997620337 109 40 24
-1.8450366105047227 -0.154849221866578 -12.558171741037057 110 41 25
-1.7961141031947774 -0.17610698812605508 -12.552508269996224 111 42 26
-1.7606873929132218 -0.19274840750228517 -12.557516743419942 104 35 19
-1.69603970382716 -0.21932572876924272 -12.538984990019465 106 35 20
-1.672036585842278 -0.23205255176442163 -12.55297522093419 109 36 21
-1.658631016111972 -0.2411751542957692 -12.575497107769486 107 34 19
-1.6364434388314937 -0.25328193010155875 -12.590930101709727 107 35 20
-1.553800881893725 -0.28589002179548384 -12.557259677283486 108 35 20
-1.5296284927831714 -0.298645937574066 -12.570905748845469 106 33 17
-1.5013967685683003 -0.31277242143950534 -12.581210741067968 108 35 18
-1.4441820952286957 -0.3366956043710929 -12.567741896895134 110 37 20
-1.3911640706698094 -0.35917643811569144 -12.557541579556151 115 42 25
-1.338816834071749 -0.38140911071211203 -12.547735086058735 106 33 16
-1.2806208779230985 -0.40559317704420117 -12.532944418975505 103 30 13
-1.269832927580155 -0.4137764104794517 -12.557215066006838 116 43 26
-1.238442597127749 -0.42890038793136753 -12.564416916013766 123 50 33
-1.2202829763482175 -0.43956573343021654 -12.58257050170678 114 43 25
-1.2077878522838432 -0.44832747887935787 -12.605451464760137 107 35 18
-1.1966156837511388 -0.45664855625333134 -12.629465147955585 113 38 22
-1.1744594570397773 -0.46865811585319017 -12.644291508596565 114 39 21
-1.1479751285664301 -0.48211536145041434 -12.65545609875126 116 41 22
-1.123321088035742 -0.4949544877933931 -12.66812601393563 118 41 23
-1.0763247728823497 -0.5152618425076305 -12.661857346476637 113 36 18
-1.032631601108294 -0.5344469575672939 -12.65825635677712 114 36 19
-0.9847607356721086 -0.5550101472356634 -12.65097993684942 113 33 16
-0.9441625134926399 -0.5731287197492541 -12.649768712245963 116 35 18
-0.907542851901753 -0.589907122643158 -12.651854907490858 114 35 18
-0.8741261866222905 -0.6056073004042304 -12.656600827756527 118 39 22
-0.8392349001031638 -0.6217877364247029 -12.660004387902344 117 40 22
-0.8073636750210635 -0.6369538279543443 -12.665932551687753 120 43 25
-0.7743862217984319 -0.6524778873034744 -12.670836833628407 119 42 23
-0.7406576415384194 -0.6682410640746208 -12.675017122716461 116 39 19
-0.7117066729433095 -0.6824113548056143 -12.683277116679115 118 41 21
-0.6757794918747901 -0.6988826666248444 -12.685398250552975 120 42 22
-0.6425058552439991 -0.7144648469856723 -12.68975301412112 123 45 25
-0.5987597423020432 -0.7334951273531143 -12.684847614170689 125 46 26
-0.5947224274648395 -0.7394081258388252 -12.71474019606476 126 50 30
-0.5469348540979766 -0.7597489987558688 -12.70611464544243 130 59 41
-0.5222666212105045 -0.7724580593433892 -12.717788374081817 139 75 59
-0.4907494525263809 -0.7874150937106918 -12.723354452427106 154 96 78
-0.36864380942326047 -0.855060388747928 -12.815716678525149 130 61 46
-0.3852637606036673 -0.8542551809716032 -12.864483116798672 110 31 12
-0.30779891026670914 -0.8841647869093787 -12.828136621450565 103 22 2
-0.2784746661910402 -0.8983459852754474 -12.835248952640484 99 19 0
-0.24448762434508442 -0.9140370138592009 -12.838052740192413 92 20 5
-0.22919920292491724 -0.9236362286276449 -12.857863429152875 71 14 3
-0.37695663008211344 -0.880272643024536 -13.027106281689763 59 9 3
-0.34283858036620973 -0.8960412576045025 -13.030045732285785 53 9 3
-0.29475495467332014 -0.9163255474300116 -13.020033715967305 58 20 11
-0.2828622025152665 -0.92486993638714 -13.043308442061448 59 22 13
-0.29781968011606974 -0.924733351025151 -13.091490001972272 59 30 23
-0.27739635917489913 -0.9360514506847588 -13.106966093343836 64 43 35
-0.28616756032738433 -0.9379447383660127 -13.149626551800166 76 60 48
-0.28500940525683305 -0.9430579167821129 -13.183146566851551 85 75 65
-0.2673928163091581 -0.9534833859920333 -13.201334409353983 84 75 66
-0.2495254849173909 -0.9639896317042091 -13.21928753145022 83 72 65
-0.23377454753974103 -0.9738156890819578 -13.239233541461212 99 91 82
-0.22688238619503398 -0.9807994620380982 -13.26755668747144 104 97 87
-0.215335703844163 -0.9892834257918524 -13.291528132020108 107 102 90
-0.21763030462045752 -0.9933385261894943 -13.328676136942157 95 89 76
-0.2134738834976906 -0.9994718794914736 -13.359785773215776 97 91 80
-0.21390369467270443 -1.0041493217281627 -13.395345841413167 91 88 76
-0.21403703214054914 -1.0089344957783046 -13.430717612205902 83 79 70
-0.21407520797134527 -1.0137629431146116 -13.466092410586537 83 78 69
-0.15983240459019754 -1.0358930382508365 -13.449304634809012 89 85 76
-0.15678306389804053 -1.0417100366617729 -13.481744743463496 92 87 78
-0.14128589623233 -1.051493451152151 -13.502213815372057 88 85 76
-0.13134545679696252 -1.0595147922586459 -13.528089124709677 95 88 80
-0.13441109455729183 -1.0634182853460783 -13.56666543746005 104 97 86
-0.12056241919059207 -1.0726936658807924 -13.588845768136014 136 119 106
-0.13788256625130035 -1.072112599142736 -13.641550684416213 141 112 99
-0.11714856436466103 -1.0835808632213544 -13.65710153862483 155 117 102
-0.09606622496658446 -1.0951570328647526 -13.672294840910716 146 98 82
-0.09546892435978016 -1.1002736202392152 -13.707683775443973 121 61 45
-0.11294784612828579 -1.0997117628984547 -13.761050961983365 103 42 28
-0.127732421159509 -1.1000235353025785 -13.811937197288 119 61 44
-0.17964604111983729 -1.0886972230958976 -13.899938080713145 120 65 46
-0.20963707217830496 -1.0843009858942714 -13.966451566321561 116 61 43
0.3512078669540477 -1.3240608449899667 -13.87277707893314 116 38 18
0.3813406513282054 -1.338356794780224 -13.878068734885078 116 38 19
0.6870630820174313 -1.4621644762837263 -13.776721671749389 99 49 30
0.7394038321078531 -1.4831313316511716 -13.757695616198337 137 79 54
0.7286224788772424 -1.4848014718963047 -13.805336201175948 116 52 26
0.7560466486705266 -1.4981417718606433 -13.81255694557673 107 37 23
0.8426576132638965 -1.5294948738048264 -13.75667695195317 109 36 22
0.8941427704462201 -1.5501119631142806 -13.73791059046665 109 36 23
0.8490704347479365 -1.5413799533523949 -13.82235729613263 110 37 22
0.8500931175818351 -1.5466773251403065 -13.857667403448342 114 41 25
0.8626113566456546 -1.5554695413466209 -13.880694813429582 115 42 25
0.8800070136266829 -1.565740982656302 -13.898484602793914 116 41 25
0.93640278110934 -1.5877927731180939 -13.87404644774989 117 41 25
0.9484472399178481 -1.5964342729219156 -13.897531319321388 117 41 25
0.9993356716893489 -1.6167816685147662 -13.878758076527506 116 40 24
1.1120326241316878 -1.6606749549882096 -13.82865752443709 118 41 25
1.1412838163140755 -1.6744439447895965 -13.833000782531968 119 42 26
1.303907628900384 -1.7480164077298794 -13.835413658990046 119 40 23
1.34669031375123 -1.765744545123407 -13.824169834373594 120 41 24
1.3948127364034386 -1.7850376399833845 -13.80679420287807 120 41 24
1.4635737551090084 -1.8104278140839507 -13.766071665013978 119 42 24
1.4574379224585332 -1.8135851494001716 -13.809295267874457 121 44 26
1.48342049224674 -1.8262639662384625 -13.816426799779416 119 42 24
1.525222403588729 -1.8436084705293605 -13.805607009674954 117 40 21
1.7036189780176896 -1.9260226379264882 -13.820708034031203 120 40 23
1.7148176112232667 -1.9342999867042217 -13.844315470675156 120 39 22
1.8977452965178108 -2.0176069223359137 -13.851036165852133 121 41 22
1.93796320517537 -2.034264602488337 -13.840410371043916 122 42 22
2.033344235404261 -2.071828560828573 -13.80103661406681 119 38 17
2.0702154910530055 -2.0874529823491335 -13.793871143513655 118 37 16
2.0995387757377015 -2.1008887238748244 -13.795544544882912 120 40 19
2.1201384100828085 -2.1118082939340983 -13.807531536210462 124 46 24
2.146326552021132 -2.1243262915127454 -13.812813133235975 120 42 20
2.169456820758392 -2.1359603709809756 -13.821695811359191 122 41 20
2.2004258501423157 -2.1498285505217405 -13.821115112148023 118 40 18
2.2139676978545877 -2.1587114029604835 -13.841438674870712 118 40 18
2.242379091174416 -2.1718326776393955 -13.84381457000105 119 41 19
2.3050217531100747 -2.194678555511238 -13.804634359267329 120 42 20
2.3414769273268004 -2.210046373946735 -13.796963634199855 121 43 21
2.3788726820885087 -2.2256624375250227 -13.788012647656396 122 44 22
2.39867616734473 -2.2362800971070445 -13.800413249503897 123 45 23
2.4100437175632914 -2.2445108886374303 -13.823125420561517 124 46 24
2.5054104001138358 -2.281441985057378 -13.779178733669443 124 46 24
2.525862293587773 -2.292207087963995 -13.790523820224685 123 45 24
2.536497348648835 -2.3002126739934265 -13.81400028606747 122 44 24
2.562915388814715 -2.3126464481854736 -13.817911142008285 121 44 24
2.577566192088975 -2.3217786438632655 -13.836408859640155 120 45 24
3.036142379432012 -2.5443412284706364 -13.953437865831738 123 61 41
3.0872762327412078 -2.563266959857458 -13.92347907767724 108 46 31
3.1346466967551336 -2.5811430500348176 -13.898231202388558 103 34 21
3.1469308881159463 -2.589547916071667 -13.919200351866952 97 23 5
3.125644110707471 -2.5889414831264315 -13.984761967123003 100 25 5
3.1214809495316596 -2.5929623656043224 -14.027803808042659 102 25 5
3.1542913629872675 -2.6068948882736773 -14.021638549958418 96 21 5
3.1654663251303656 -2.615033403653971 -14.04431028444532 80 12 1
3.1537475262072787 -2.617075691998181 -14.097749901933302 80 26 14
3.1284718670302993 -2.615540496561339 -14.169646281638776 90 49 40
3.0998197008402766 -2.6131514720158693 -14.246411038073557 71 41 36
3.0244868359784975 -2.609066383489237 -14.464275392404504 8 3 4
3.0434230908667583 -2.619392604710846 -14.477399762807588 9 2 3
3.025905950240988 -2.620133570030286 -14.540403650156243 8 2 3
3.027355974987829 -2.6258860813979745 -14.577631371458239 7 1 3
3.028811643272215 -2.631655835585238 -14.614966415726197 7 2 2
3.048181492983045 -2.6421222706864302 -14.627688778262339 7 2 3
3.070041293740024 -2.6532349226595784 -14.636942031979327 6 2 3
3.072534597772111 -2.659302072256588 -14.673036520431033 7 3 4
3.075035310943763 -2.665386040489634 -14.709229430045568 6 3 4
3.0724594673895016 -2.6701693112314686 -14.75261801987299 6 2 3
3.0743970529115545 -2.6761403554826626 -14.78983805361225 6 2 4
3.0763389788028768 -2.6821282406488076 -14.827166760965252 7 2 4
3.065062593272991 -2.6847275719967665 -14.883218368001142 5 2 4
3.0661176994132484 -2.6905263666610115 -14.92208242541722 4 2 3
3.0673864504379944 -2.696396889165194 -14.960767677203243 4 2 4
3.068407955738363 -2.702220923587774 -14.999926469469646 3 2 3
3.0692713797444817 -2.708021728392972 -15.039435433123437 3 3 4
3.071177295691551 -2.714105578649817 -15.077583114794578 4 4 5
3.0755172562116506 -2.7208246661044226 -15.112365347202111 4 4 4
3.07535787870121 -2.72641592272492 -15.15370740733264 3 2 3
3.093578057489877 -2.736678963799743 -15.168724927577111 3 1 2
3.1033062742104853 -2.744795312964307 -15.195991594402862 3 1 2
3.093990400113385 -2.7481195510416216 -15.250889298975336 3 1 2
3.104930559871976 -2.7565671879581157 -15.276589730614456 3 2 2
3.1201605396400076 -2.766097897095453 -15.296092455822492 4 2 3
3.1124539770317714 -2.769888031404456 -15.349100104707043 5 3 4
3.129317047267765 -2.7798433535719913 -15.366333210165468 7 4 5
3.1492288691727355 -2.790558562099721 -15.379089751953785 9 5 6
3.1758431249483845 -2.802936966660626 -15.381951253925173 11 5 4
3.21234797308645 -2.817758000364694 -15.370125494637241 16 9 7
3.2503101142363393 -2.83291723939966 -15.3559773148181 22 16 15
3.2761141451299913 -2.8450498915178373 -15.359708679528651 29 24 24
3.3130570550733784 -2.8599163575658357 -15.346774288481303 37 33 35
3.3263931820632946 -2.8689573781519604 -15.36892892056799 31 27 30
3.3486137343680387 -2.880180858237861 -15.377805141839492 20 17 20
3.364175693082273 -2.8897691803221153 -15.396636947511139 18 16 19
3.3794671206138593 -2.8992928945720924 -15.415886573649498 36 35 39
3.3767935623872525 -2.90444484950263 -15.46228795732911 37 37 41
3.316630212276152 -2.895657948303437 -15.595951671451184 28 27 30
3.2898198833835517 -2.895042316247855 -15.679607010663712 23 23 25
3.2627733393543705 -2.8944214887476565 -15.76400107295326 17 17 20
3.268507411392404 -2.9017557572623605 -15.798690634651802 18 17 20
3.266133103114898 -2.907153680438338 -15.845903765100292 19 18 21
3.2645945901053963 -2.9127754397586525 -15.892002963651112 18 18 21
3.279615068641516 -2.922381886537396 -15.912747417900677 18 19 22
3.305928602673349 -2.934686311144424 -15.916057584253926 23 24 26
3.3194039124465675 -2.943923264433805 -15.939184971627904 25 29 30
3.347438128517785 -2.956621897776808 -15.93971556445896 28 32 35
3.34034120848744 -2.960986343916573 -15.994911438399448 36 37 43
3.3549113818109033 -2.9704991251050625 -16.01645266067122 60 59 64
3.3768295189104283 -2.981746506445092 -16.02649767980307 75 74 78
3.409745213631492 -2.9955726237259035 -16.019209472613415 75 74 79
3.4590916348498073 -3.013230552979856 -15.985872201511889 24 23 29
3.5078109180688797 -3.0307019391719825 -15.95323507021222 23 22 28
3.5415808592338287 -3.0446485076268694 -15.94401752066548 42 41 47
3.6022614343123784 -3.0648316129326374 -15.89184932363769 45 46 51
3.6098106540305377 -3.0726388427830384 -15.92402363862023 47 48 53
3.6294523336594082 -3.083254515595338 -15.936941736978088 43 44 49
3.614876491309995 -3.085974899612261 -16.004725350431755 51 50 56
3.612026354772823 -3.0914322081360956 -16.053936489134003 55 54 60
3.6545586719407 -3.107324131553462 -16.0301108722022 66 64 70
3.7037506132513416 -3.124706797315079 -15.995271999929464 44 39 46
3.7289318367868862 -3.1365715946097414 -15.999095662680844 53 47 51
3.747655369734284 -3.146957006297606 -16.013351551580207 90 88 88
3.767305670481038 -3.15755029414762 -16.02607788686163 73 72 69
3.783335180051493 -3.167321184182519 -16.044705239531403 63 62 58
3.7508211069848265 -3.1661462837428083 -16.143031068471167 65 62 58
3.7643792140195185 -3.175395418106848 -16.165975152713028 63 59 55
3.961543745417816 -3.3197805541987857 -16.57177781965145 188 189 191
4.0017236190540215 -3.334804813930015 -16.54935256490001 194 195 197
3.9584831754422707 -3.332052596360341 -16.671430676562522 198 199 201
4.019431703696727 -3.3514740626558464 -16.612821257047816 200 200 202
4.0264778880644725 -3.359444028917418 -16.647837531777036 201 201 203
4.05579362398558 -3.372118344380656 -16.643977087857657 203 203 205
4.095477722618126 -3.3869518231019975 -16.621789126181255 205 205 206
4.114829674788902 -3.397499996306096 -16.63516704950803 206 206 206
-3.044692633394256 0.36181176411856253 -12.493120919877157 196 183 175
-3.0349523466512207 0.35378635919781276 -12.519546213907148 176 150 141
-3.0076863594614913 0.3396689376710884 -12.533078139059842 153 121 108
-2.9861755703362665 0.3275532496226057 -12.550835385353205 127 87 72
-2.961012527449098 0.3141725656418499 -12.565872824317896 115 69 57
-2.9376181102064383 0.30140803480835565 -12.582201489675327 108 56 44
-2.906359951834226 0.285923898838758 -12.592644521491167 103 48 35
-2.266815728603344 0.005443379338621934 -12.543308349433264 104 40 28
-2.209997734527005 -0.018614043801813196 -12.532692649868075 104 39 26
-2.164826816799165 -0.0386683425131813 -12.530974604360765 104 37 23
-2.128680876965472 -0.05562519910053343 -12.536183392118167 105 37 24
-2.0924299821414047 -0.07260734532219493 -12.54123392706737 106 38 24
-2.0570852650510902 -0.08927000489813341 -12.546918578371884 105 37 23
-2.0431116368583933 -0.09864468199711629 -12.569344326630324 106 38 22
-1.9826170337292224 -0.12385067761828417 -12.55508669939814 106 38 22
-1.9420340557508657 -0.1422624631544953 -12.556398405902563 106 38 22
-1.923656862283135 -0.15311888785072325 -12.575230106004682 108 39 24
-1.864921434316769 -0.17767033822391376 -12.561955009218714 107 38 23
-1.8274070837535925 -0.19500264724491467 -12.565431530844524 106 37 21
-1.8134031077091803 -0.20435974670001933 -12.587631314738463 106 37 21
-1.7841701721524474 -0.21887329587645432 -12.597634009086583 105 34 19
-1.7471022363707949 -0.23602929195934852 -12.601285918042434 108 35 20
-1.7035906390311304 -0.2553504737334267 -12.599656779532365 107 34 19
-1.6886706213151088 -0.2650066442031509 -12.621042556465982 107 35 20
-1.6022572829510082 -0.29877137984202795 -12.584453609355926 107 34 19
-1.5511004809611002 -0.320616857240978 -12.576235549089343 108 36 20
-1.5202607225089873 -0.33560390102998294 -12.584440405157503 113 42 24
-1.469411558603122 -0.3573112713840829 -12.576222993400055 111 40 22
-1.4080491325998752 -0.38253005250158445 -12.559235469988716 117 45 27
-1.3749182563821076 -0.3982465301993323 -12.565269927841058 105 32 15
-1.3084207655076217 -0.4251417887560529 -12.543719112232331 106 33 16
-1.3115121459476518 -0.42869451641745693 -12.579495190878077 109 36 19
-1.275079846220427 -0.44548841118459315 -12.582592788868272 113 40 23
-1.2588562117547761 -0.4555136138747411 -12.60241054986244 110 37 20
-1.2389334713802995 -0.4667756441604851 -12.6191521845693 110 36 19
-1.2128273594698946 -0.48010005004396694 -12.630714978588818 117 41 25
-1.19590869555965 -0.4903561175201858 -12.649943727038824 114 38 21
-1.1672775453331194 -0.5045142183884308 -12.659330183953507 112 37 18
-1.1426887862419948 -0.5173203356576472 -12.672075518695415 112 35 17
-1.1021001755589 -0.5354413728886231 -12.671263881385753 114 37 19
-1.0767832512721185 -0.5484757201425174 -12.683293358512074 118 41 23
-1.0456253922406402 -0.5634433792097218 -12.690323294434407 120 42 24
-0.999458216852755 -0.5833778065351565 -12.684497199090735 113 34 17
-0.9638582163679867 -0.5997945362035444 -12.687571041446503 114 35 18
-0.9092351327810562 -0.6224931963346565 -12.674256483506987 118 40 22
-0.8805882044515876 -0.6365826469797145 -12.683094595348894 117 40 22
-0.8695772914056787 -0.644842006193751 -12.70708120266939 121 44 26
-0.8337327090133124 -0.661297241681261 -12.709638362131283 120 43 23
-0.7592685345124508 -0.6904666599007636 -12.67864207270758 119 42 22
-0.7263264673040508 -0.7059299860474746 -12.683457780544177 118 41 21
-0.6802642282631108 -0.7256980114587654 -12.676768221284576 120 42 22
-0.6653765361859074 -0.7352054574177638 -12.697182363687244 120 43 23
-0.6237672818038611 -0.7534847719954492 -12.69419716771373 126 48 28
-0.5923628022463694 -0.7684023663699073 -12.700062537938326 125 49 30
-0.5593485451385769 -0.7838380511011795 -12.704443334506244 135 63 47
-0.5288036818389408 -0.7984554759741354 -12.710931243444065 143 78 61
-0.3874498972637852 -0.8769955571646388 -12.819831264605597 125 55 38
-0.41384218156003083 -0.8730918361706768 -12.87740517436805 108 31 11
-0.30073951454616843 -0.919090235334326 -12.842585197210573 96 20 1
-0.2943314749051549 -0.9258297970707812 -12.870538590431075 88 18 4
-0.25212640453993274 -0.9441436988147238 -12.865866004389488 67 12 1
-0.2502609357611538 -0.949420064773236 -12.897999856135883 58 10 4
-0.2661080850927924 -0.948996298480814 -12.94647224993695 54 10 3
-0.25891624757369947 -0.9560160921895222 -12.973905344167184 60 20 12
-0.29820010788021634 -0.9480905553195775 -13.044289129587337 63 25 18
-0.3097876099775769 -0.9491058225461688 -13.089326296138317 54 16 13
-0.28878469142734176 -0.960604075684143 -13.10426507246201 52 17 11
-0.29643214993401834 -0.9629124776774338 -13.145850164318201 65 35 24
-0.2525361794430996 -0.9817494315522675 -13.139465088992711 83 64 51
-0.2528107255117993 -0.9864345625142952 -13.174278462667083 86 71 61
-0.24794040969636644 -0.9927768241348778 -13.204356609703732 90 75 69
-0.2415690253210938 -0.9996074571673663 -13.233088576904287 92 81 73
-0.2326945253732644 -1.0072444554210978 -13.259517639324008 96 87 78
-0.2307712449531003 -1.0126734850881531 -13.292568756089697 94 86 75
-0.23398731466183964 -1.0164785569263475 -13.330577345372953 96 88 75
-0.23638204703554866 -1.0205597578462458 -13.367913839204387 111 101 91
-0.24073784525242736 -1.0240329192142 -13.407226184863363 99 92 82
-0.23576218129696613 -1.0304812385184197 -13.43772956293073 95 89 80
-0.23381421526506418 -1.0359798640528148 -13.471204269104044 93 87 79
-0.1679441108486568 -1.0617143678473924 -13.443290042989826 96 88 80
-0.1648572422965957 -1.0675728633044903 -13.475666106255712 97 88 81
-0.15687573989504155 -1.0749871769574808 -13.503387267441301 100 91 84
-0.15059821909707427 -1.0818714667485714 -13.53281298796167 101 91 82
-0.15231899367900326 -1.086245368181996 -13.57007669369422 96 80 71
-0.14313681013310564 -1.0940633544941805 -13.596815419083068 102 79 68
-0.14405844343022167 -1.098713232166474 -13.63347811209541 137 110 98
-0.12810822502484864 -1.1086718503860316 -13.653703044661135 152 119 108
-0.1339591580743793 -1.1117983056578535 -13.695367931682236 130 87 76
-0.1208750899403741 -1.1208706796957228 -13.718498159345742 109 60 47
-0.13881234331385972 -1.1202460329497446 -13.772313923377581 88 32 21
-0.14910783817275508 -1.1220350373815564 -13.818750905398385 103 44 29
-0.18262055065540128 -1.116602375396738 -13.888413370347756 118 61 42
0.33110622024908487 -1.3460578485506138 -13.878857064606187 116 39 20
0.6908736854594695 -1.4909828657249786 -13.758027851885227 85 40 17
0.6716904927915088 -1.49016172073653 -13.814473194495136 115 59 36
0.7329319229641911 -1.5137435279275167 -13.786027463682146 122 61 35
0.756241918489164 -1.5258099439073245 -13.797576330698856 107 40 25
0.834672618409499 -1.5545325621296637 -13.750444671473124 108 38 23
0.8197418514138084 -1.5600426542873 -13.83889793849514 111 39 24
0.7867626685896711 -1.5551468683549072 -13.910712173151934 113 41 25
0.821346914257429 -1.5706046863292484 -13.910147063082606 116 44 26
0.8446975666051264 -1.582675856103009 -13.921598117469724 117 42 26
0.8842354189334802 -1.5995956899716215 -13.915507174336106 116 42 25
0.9005684950873167 -1.6095494495033922 -13.934451742610669 116 41 24
0.9986957753587644 -1.6439616360700744 -13.864452519417064 114 39 23
1.10151178363554 -1.6847243142052015 -13.825181615327336 116 40 24
1.1370578421949435 -1.7003400902055477 -13.82263197306333 117 41 25
1.1769018682650705 -1.7172187320283707 -13.815247014512893 118 42 26
1.2201525081309557 -1.7350901283180526 -13.803970121352483 118 42 26
1.2867238791142848 -1.7648661766004512 -13.803036004392304 117 40 23
1.2734367700668967 -1.7659628235028753 -13.854190077779961 120 43 25
1.3645407658687736 -1.7979084462551738 -13.789175054042314 118 41 23
1.3834217543842406 -1.8084969596182527 -13.804428552378408 117 39 21
1.4172147740398087 -1.8234743679665177 -13.80295860945984 118 41 23
1.4529079348591036 -1.8389961976743852 -13.799250365928767 123 46 28
1.4593791389788882 -1.8459233494415699 -13.828356482230017 120 43 25
1.4933484920411253 -1.8609204630885086 -13.826455708216706 118 41 23
1.686324581058071 -1.9474462786980915 -13.825278840534441 118 40 23
1.7065252941608176 -1.9583505151517286 -13.838525975307428 116 39 21
1.713513687430022 -1.9654243957890096 -13.86701233196495 116 39 21
1.7398787289841051 -1.9781115752057614 -13.873119462242947 117 40 22
1.837392545913609 -2.0214260618780506 -13.869568289943892 119 42 22
1.8883657726208254 -2.041145863116222 -13.846557337337675 119 42 22
2.0397325837797293 -2.104713116481763 -13.814487883323253 117 38 16
2.1048665646289066 -2.1333781511039525 -13.81018489776756 121 43 21
2.123693120403182 -2.1437820045757054 -13.824278488634231 119 41 19
2.1468887061579434 -2.1554241122417177 -13.833127454469018 120 39 18
2.172844963904417 -2.167842635371362 -13.83861901506063 118 39 18
2.2022763891454975 -2.1812359501165894 -13.839865628992197 116 38 16
2.232289212928566 -2.1947816999400698 -13.84032496495739 118 40 18
2.2627232045629553 -2.2084338359771998 -13.840184754375862 119 41 19
2.293450279142248 -2.2221556517570873 -13.839595818476846 120 42 20
2.3333448758223954 -2.2384416073404414 -13.827755324874836 122 44 22
2.376400861875826 -2.2555931384537735 -13.811899673866929 122 44 22
2.3807287131439185 -2.2618679784870204 -13.843253971496232 121 43 21
2.43311387671067 -2.281597658535064 -13.815722429279905 122 44 22
2.5239288422816486 -2.322119236395063 -13.81373754136014 121 43 23
2.529035192041472 -2.3286076423768316 -13.844106111941088 120 43 23
2.9548657238433202 -2.5268460010080136 -13.894406499426157 150 81 35
2.9997164240364143 -2.5543226056350843 -13.947467575581136 132 67 42
3.027591539817804 -2.566948946267177 -13.948222942231094 120 62 45
3.0729874046156223 -2.58425204400503 -13.92585453307983 101 39 26
3.103287004775127 -2.5974932153611174 -13.923176017009645 100 30 16
3.109440562199109 -2.6042826410770252 -13.952318091727502 96 23 7
3.1246807433815995 -2.613499858971541 -13.96948455856186 96 23 8
3.151319271925498 -2.625744955920336 -13.971501526471151 97 21 6
3.1283468569329145 -2.6248289807428806 -14.039584172450532 90 16 4
3.1456455914036887 -2.634606781200865 -14.054114134527737 80 12 2
3.1482726616297514 -2.6405093844489453 -14.088304964141273 82 29 17
3.0969409056528665 -2.632206517633401 -14.19514084206925 89 50 39
3.0843342250528964 -2.6341582611913514 -14.250272843277617 72 44 36
3.038247632530548 -2.6380321308671304 -14.42820946231392 9 3 4
3.038146646863316 -2.643371495646983 -14.467195024468388 10 2 3
3.0350241382496854 -2.647941395167049 -14.510436690021931 10 3 3
3.045203691999797 -2.655988540838892 -14.53559073766316 9 2 2
3.048325626980768 -2.6622120166709213 -14.57049521878728 9 2 2
3.048341536637465 -2.6676457737420085 -14.609783998788272 8 3 2
3.050156129981354 -2.6735615642129016 -14.646712763133504 9 3 2
3.0497625586423363 -2.678923900517171 -14.686816230563736 11 3 3
3.0494768489408255 -2.684332080781184 -14.726900805532635 11 3 4
3.0497572390010133 -2.6899036279484667 -14.76632700617833 10 3 5
3.077259601984747 -2.7024646802906394 -14.767822006584794 9 2 4
3.0761593491972343 -2.7077038079039633 -14.809331815507718 9 2 4
3.0820632057146575 -2.71474836492731 -14.841133161314275 9 3 3
3.0834718985942224 -2.720660604108811 -14.87935634449612 9 4 4
3.0834049716628193 -2.726214735081003 -14.919786047808628 10 3 4
3.0843819563071895 -2.7320516879426027 -14.958868222483755 11 3 3
3.097341855606258 -2.740935610342609 -14.981037896510685 11 4 4
3.1008124598753106 -2.74742962194556 -15.016767068265729 11 3 3
3.0512403620459603 -2.7405858399220904 -15.128443729360143 11 4 3
3.048527389475848 -2.7455855423173383 -15.173465222998605 14 5 4
3.0467542570869837 -2.750842558919005 -15.21729298836783 16 6 5
3.0455378072660295 -2.7562596082570927 -15.260468867977998 15 6 5
3.043069365144503 -2.7613846028106495 -15.305602181138717 12 4 2
3.0531747760443038 -2.7696614267254054 -15.332660242916361 12 6 2
3.111226836471598 -2.789854196056031 -15.290050747268316 11 5 3
3.123481149061134 -2.79865175943427 -15.313889994750117 11 3 3
3.08324875801825 -2.794478410404829 -15.414524658428954 11 4 2
3.111285674459335 -2.8072093567780345 -15.415511140677808 13 5 3
3.133366665124006 -2.8184619595298694 -15.425165135150452 17 6 5
3.1835525407028555 -2.83660863676158 -15.393325470454583 18 7 6
3.2166115689407366 -2.8505220492438537 -15.386539370229332 19 9 8
3.2714176650429057 -2.869730677683718 -15.347361683419471 16 8 7
3.296382963567786 -2.8816208855042773 -15.35225117517918 17 10 11
3.3149796586750186 -2.891952794955044 -15.366571476981667 12 6 8
3.3359381292832513 -2.902855553508335 -15.377343419329897 12 7 9
3.349050630716693 -2.9118545453797453 -15.399849883420112 19 15 17
3.3634313602392707 -2.9211640282560607 -15.420479588149163 19 16 19
3.3468818136644245 -2.9230271710259 -15.487793696609284 15 14 16
3.28450437259929 -2.9139199188499862 -15.624730236926244 14 13 16
3.2629857048184565 -2.914698696984826 -15.700354840813743 16 15 18
3.2429235279455977 -2.915871595585822 -15.77409586800433 18 17 21
3.228672997062974 -2.9184747384499117 -15.839290390850966 20 19 24
3.218675007546958 -2.9221270387548355 -15.898250085613313 20 19 24
3.2361896261069223 -2.9323394554114715 -15.915224548220788 25 24 29
3.242832237786372 -2.939978681272636 -15.948928619700627 27 27 30
3.2843154610902623 -2.9558544367365926 -15.928951498663556 28 28 30
3.287846188350379 -2.9627655104638135 -15.967504668614572 29 30 33
3.3195045544129114 -2.9762981295978044 -15.962517059158646 30 32 38
3.3258992686866957 -2.9838961565254154 -15.996729098482232 46 47 52
3.345238162039406 -2.994531065316146 -16.010829234102722 68 67 71
3.3753916999333287 -3.0076828185118893 -16.007978374099697 79 79 81
3.4086795520380013 -3.021546759421946 -16.00008988334195 74 74 78
3.46035510263673 -3.0396516063359678 -15.96310242210379 18 17 23
3.495532852839231 -3.0539006165043956 -15.951855231958255 24 23 29
3.538007265950842 -3.069808675154824 -15.928888290849724 42 41 47
3.585940761164725 -3.0869395362865686 -15.89701962327172 43 44 49
3.5944729425947184 -3.09499984226765 -15.92762678271388 46 47 52
3.630753171155889 -3.1094136195775985 -15.913986865234646 45 46 51
3.5877722336767803 -3.105735200729847 -16.027144068760816 47 47 53
