ply
format ascii 1.0
element vertex 849
property float x
property float y
property float z
property float nx
property float ny
property float nz
property uchar diffuse_red
property uchar diffuse_green
property uchar diffuse_blue
property uchar class
property uchar detection
end_header
2.3335 -1.2935 -13.6782 0.309 0.265 0.913 163 89 58 0 0
2.3556 -1.2892 -13.6936 0.469 0.485 0.738 176 115 85 0 0
2.3800 -1.2835 -13.7065 0.515 0.465 0.720 151 88 67 0 0
2.4006 -1.2799 -13.7236 0.515 0.465 0.720 143 85 71 0 0
2.4218 -1.2760 -13.7400 0.415 0.465 0.782 162 104 90 0 0
2.5784 -1.2197 -13.7224 0.149 0.348 0.926 115 38 23 0 0
3.3661 -1.0022 -13.9658 0.105 0.109 0.988 126 48 18 0 0
3.5337 -0.9869 -14.1742 0.784 0.549 0.291 63 7 0 0 0
3.5692 -1.0085 -14.3435 0.812 0.503 0.296 70 12 3 0 0
3.6726 -1.0692 -14.8256 0.747 -0.261 0.611 50 8 1 0 0
3.6951 -1.0734 -14.8853 0.962 0.252 0.102 49 8 0 0 0
4.3746 -0.8964 -15.1488 -0.144 -0.750 0.645 27 5 3 0 0
4.4329 -0.8685 -15.1071 -0.120 -0.779 0.615 36 6 3 0 0
4.7978 -0.7456 -15.1083 0.350 0.608 0.712 89 35 22 0 0
4.8438 -0.7345 -15.1307 0.465 0.482 0.743 86 33 19 0 0
5.0929 -0.8153 -15.9622 0.857 -0.486 -0.172 121 110 108 0 0
0.5701 -2.0276 -14.2230 -0.275 -0.553 0.787 204 204 207 0 0
1.5246 -1.5963 -13.6801 0.974 -0.103 0.200 113 42 24 0 0
1.9507 -1.4570 -13.7049 0.275 0.231 0.933 127 62 36 0 0
1.9785 -1.4496 -13.7149 0.275 0.231 0.933 170 110 79 0 0
2.0312 -1.4363 -13.7377 0.383 0.184 0.905 158 88 70 0 0
2.0569 -1.4301 -13.7499 0.383 0.184 0.905 131 57 34 0 0
2.3712 -1.3098 -13.6806 0.466 0.584 0.665 169 102 68 0 0
2.3935 -1.3053 -13.6958 0.517 0.589 0.621 164 103 73 0 0
2.4127 -1.3025 -13.7144 0.517 0.589 0.621 146 90 69 0 0
2.4338 -1.2987 -13.7311 0.315 0.644 0.697 158 103 82 0 0
2.4588 -1.2927 -13.7431 0.188 0.437 0.880 148 89 74 0 0
2.5994 -1.2370 -13.7027 0.277 0.226 0.934 118 40 21 0 0
2.6262 -1.2299 -13.7124 0.277 0.226 0.934 109 37 23 0 0
2.9216 -1.1418 -13.7721 0.778 0.151 0.610 155 96 92 0 0
3.6566 -1.0548 -14.5837 0.622 0.722 0.302 36 5 5 0 0
3.6701 -1.0555 -14.6098 0.622 0.722 0.302 43 7 4 0 0
3.6883 -1.0533 -14.6296 0.650 0.629 0.427 50 11 3 0 0
3.7130 -1.0471 -14.6404 0.882 0.113 0.456 51 12 3 0 0
3.6612 -1.0878 -14.7568 0.723 0.493 0.484 49 10 1 0 0
3.6740 -1.0980 -14.8298 0.809 -0.100 0.580 47 8 1 0 0
3.7599 -1.0722 -14.8462 0.602 0.741 0.297 47 7 0 0 0
4.2742 -0.9809 -15.2610 -0.124 -0.735 0.667 40 10 6 0 0
2.3182 -1.3613 -13.7049 0.349 0.217 0.912 135 53 25 0 0
2.4479 -1.3202 -13.7196 0.320 0.580 0.749 152 98 76 0 0
3.4426 -1.0312 -13.9630 0.632 0.583 0.511 108 25 2 0 0
3.6191 -1.0366 -14.2884 0.858 0.262 0.441 74 16 5 0 0
3.6600 -1.0733 -14.5406 0.738 0.639 0.214 43 7 5 0 0
3.6722 -1.0747 -14.5683 0.622 0.722 0.302 44 8 3 0 0
3.6862 -1.0751 -14.5938 0.646 0.671 0.364 40 4 1 0 0
3.7013 -1.0748 -14.6177 0.650 0.629 0.427 45 8 2 0 0
3.7168 -1.0742 -14.6411 0.882 0.113 0.456 48 9 2 0 0
3.7020 -1.1287 -14.8880 0.914 0.333 0.230 45 6 1 0 0
3.7282 -1.1216 -14.8970 0.914 -0.299 0.273 46 6 1 0 0
3.7345 -1.1269 -14.9340 0.943 -0.184 0.277 46 5 1 0 0
4.7668 -0.8728 -15.4147 0.946 0.251 0.205 84 31 17 0 0
2.3749 -1.3750 -13.7265 0.281 -0.067 0.957 159 86 49 0 0
2.4314 -1.3509 -13.7025 0.557 0.366 0.745 171 108 83 0 0
2.4616 -1.3419 -13.7086 0.320 0.580 0.749 146 90 70 0 0
3.5930 -1.0728 -14.2853 0.849 -0.078 0.523 73 15 5 0 0
3.7255 -1.0982 -14.6351 0.888 0.277 0.368 45 6 1 0 0
4.6103 -0.9080 -15.1862 0.824 -0.440 0.355 102 52 37 0 0
4.9126 -0.9045 -15.6794 0.370 0.428 0.825 92 63 54 0 0
0.8582 -1.9991 -14.1060 -0.276 -0.538 0.797 203 203 205 0 0
1.4593 -1.7322 -13.8033 0.301 -0.664 0.685 112 40 25 0 0
1.8405 -1.5763 -13.6772 0.478 0.125 0.870 106 39 25 0 0
2.1096 -1.4983 -13.7457 0.449 0.359 0.819 130 76 55 0 0
2.3768 -1.4035 -13.7290 0.281 -0.067 0.957 141 59 27 0 0
2.4484 -1.3707 -13.6879 0.230 0.485 0.844 180 112 81 0 0
2.4723 -1.3652 -13.7011 0.366 0.469 0.804 158 102 76 0 0
2.4954 -1.3602 -13.7152 0.361 0.507 0.783 143 85 67 0 0
2.5207 -1.3539 -13.7268 0.385 0.582 0.716 157 101 85 0 0
3.4444 -1.0793 -13.9293 0.742 0.453 0.495 114 34 11 0 0
3.4787 -1.0757 -13.9696 0.830 0.380 0.409 108 26 2 0 0
3.4956 -1.0742 -13.9901 0.718 0.362 0.594 122 56 17 0 0
3.5121 -1.0727 -14.0110 0.718 0.362 0.594 108 47 17 0 0
3.5287 -1.0713 -14.0320 0.718 0.362 0.594 121 49 12 0 0
3.5453 -1.0699 -14.0529 0.718 0.362 0.594 115 40 4 0 0
3.6997 -1.1621 -14.7670 0.878 0.328 0.349 47 7 1 0 0
3.7450 -1.1707 -14.8858 0.925 0.339 0.172 47 7 2 0 0
4.6290 -0.9348 -15.2119 0.292 -0.829 0.476 100 51 36 0 0
4.7994 -0.9199 -15.4256 0.785 0.282 0.552 87 38 24 0 0
4.8418 -0.9014 -15.4057 0.279 0.026 0.960 87 42 30 0 0
4.8808 -0.9152 -15.5395 0.611 -0.443 0.657 91 56 47 0 0
5.0043 -0.8516 -15.4339 0.593 -0.356 0.722 89 59 50 0 0
4.9740 -0.9027 -15.6345 0.257 0.241 0.936 95 69 61 0 0
5.0238 -0.8788 -15.6009 0.697 -0.420 0.582 97 72 67 0 0
5.5157 -0.9188 -16.6259 0.470 0.674 0.569 194 194 195 0 0
5.5350 -0.9160 -16.6450 0.470 0.674 0.569 196 196 198 0 0
5.5754 -0.8979 -16.6235 0.295 -0.000 0.955 198 198 200 0 0
0.9115 -2.0097 -14.0967 -0.294 -0.518 0.803 202 203 206 0 0
1.4402 -1.7736 -13.8281 -0.223 -0.069 0.972 111 41 26 0 0
1.4847 -1.7570 -13.8215 -0.223 -0.100 0.970 113 41 24 0 0
1.5234 -1.7520 -13.8618 0.288 -0.663 0.691 114 43 25 0 0
1.8457 -1.6035 -13.6761 0.478 0.125 0.870 112 44 29 0 0
2.4681 -1.3972 -13.7107 0.488 -0.074 0.870 171 105 78 0 0
2.4922 -1.3916 -13.7238 0.488 -0.074 0.870 166 108 84 0 0
2.5288 -1.3787 -13.7223 0.503 0.221 0.836 150 94 77 0 0
2.9977 -1.2303 -13.7826 0.872 0.411 0.266 149 73 40 0 0
3.4499 -1.1048 -13.9276 0.790 0.086 0.607 119 38 15 0 0
3.4842 -1.1013 -13.9680 0.618 -0.022 0.786 116 34 7 0 0
3.5046 -1.0976 -13.9839 0.618 -0.022 0.786 133 69 25 0 0
3.5556 -1.0925 -14.0450 0.954 -0.003 0.300 130 54 15 0 0
3.6486 -1.1325 -14.3969 0.795 0.548 0.261 73 20 5 0 0
4.1448 -1.2046 -15.5834 0.550 -0.201 0.811 10 4 1 0 0
5.0158 -0.9036 -15.5717 0.411 0.078 0.908 96 73 68 0 0
5.0063 -0.9204 -15.6381 0.725 0.020 0.689 98 76 71 0 0
5.5268 -0.9412 -16.6138 0.482 0.467 0.742 195 195 196 0 0
5.5499 -0.9357 -16.6256 0.331 0.391 0.859 198 198 200 0 0
1.5171 -1.7778 -13.8321 -0.028 -0.324 0.946 113 42 24 0 0
2.4734 -1.4237 -13.7094 0.388 0.265 0.883 159 82 53 0 0
2.5175 -1.4064 -13.6994 0.653 0.386 0.652 171 107 78 0 0
2.5373 -1.4033 -13.7172 0.568 0.309 0.763 151 93 70 0 0
2.5502 -1.4042 -13.7432 0.353 0.272 0.895 146 94 81 0 0
2.8267 -1.3012 -13.7051 0.299 0.395 0.869 153 83 42 0 0
2.8551 -1.2929 -13.7123 0.400 0.270 0.876 140 64 25 0 0
2.9556 -1.2674 -13.7561 0.697 -0.020 0.717 180 110 81 0 0
2.9798 -1.2615 -13.7680 0.749 0.515 0.417 191 127 89 0 0
3.0211 -1.2540 -13.8006 0.826 0.322 0.462 148 69 45 0 0
3.4667 -1.1235 -13.9115 0.820 0.342 0.458 119 40 16 0 0
3.5012 -1.1198 -13.9515 0.603 0.257 0.755 119 35 9 0 0
3.6604 -1.1544 -14.3868 0.795 0.548 0.261 70 17 5 0 0
3.7410 -1.1770 -14.6317 0.801 0.541 0.257 43 6 1 0 0
3.7481 -1.1818 -14.6667 0.977 0.200 0.068 47 8 1 0 0
3.8272 -1.2543 -15.1522 0.968 0.207 0.141 38 11 3 0 0
4.1317 -1.2336 -15.5616 0.725 0.215 0.654 12 5 3 0 0
4.7484 -0.9832 -15.3754 0.693 0.721 0.001 88 40 28 0 0
4.8141 -0.9791 -15.4655 0.706 0.459 0.539 91 51 43 0 0
4.8472 -0.9770 -15.5104 0.888 0.386 0.252 90 57 49 0 0
4.8593 -0.9789 -15.5401 0.887 0.225 0.403 90 60 52 0 0
4.8627 -0.9868 -15.5844 0.609 -0.205 0.766 92 62 55 0 0
4.8946 -0.9856 -15.6316 0.680 -0.059 0.731 95 68 62 0 0
4.9877 -0.9733 -15.7279 0.732 -0.488 0.475 103 84 80 0 0
4.9836 -0.9866 -15.7858 0.364 -0.107 0.925 102 85 83 0 0
5.5195 -0.9656 -16.5809 0.554 -0.012 0.832 195 195 195 0 0
1.0343 -2.0213 -14.0603 -0.264 -0.558 0.787 201 200 201 0 0
2.1237 -1.5800 -13.7439 0.483 0.476 0.735 148 82 58 0 0
2.4797 -1.4496 -13.7069 0.298 0.324 0.898 135 54 25 0 0
2.5264 -1.4307 -13.6939 0.653 0.386 0.652 171 97 68 0 0
2.5508 -1.4249 -13.7064 0.714 0.219 0.664 161 97 68 0 0
2.5698 -1.4222 -13.7252 0.528 0.452 0.719 139 84 63 0 0
2.5804 -1.4245 -13.7538 0.306 0.614 0.728 159 101 86 0 0
2.6118 -1.4145 -13.7582 0.515 0.383 0.767 148 89 73 0 0
2.8277 -1.3298 -13.7088 0.319 -0.127 0.939 113 42 22 0 0
3.0520 -1.2646 -13.7679 0.539 -0.109 0.835 145 68 45 0 0
3.0730 -1.2606 -13.7837 0.425 0.395 0.814 143 72 57 0 0
3.1769 -1.2241 -13.7803 0.114 0.179 0.977 151 95 79 0 0
3.5076 -1.1447 -13.9486 0.611 0.347 0.712 115 31 4 0 0
3.6888 -1.1842 -14.4422 0.696 0.615 0.371 81 37 24 0 0
3.6977 -1.1878 -14.4743 0.745 0.590 0.311 65 24 13 0 0
3.7290 -1.1956 -14.5648 0.982 0.190 0.023 37 5 3 0 0
3.7309 -1.2036 -14.6068 0.986 0.162 0.032 43 6 2 0 0
3.7437 -1.2048 -14.6340 0.988 0.097 0.118 48 9 3 0 0
3.7534 -1.2080 -14.6655 0.977 0.200 0.068 52 9 2 0 0
4.1434 -1.2563 -15.5507 0.413 0.114 0.904 15 6 6 0 0
4.1668 -1.2509 -15.5637 0.302 0.406 0.863 12 5 6 0 0
4.7756 -0.9943 -15.3388 0.590 -0.494 0.638 88 53 44 0 0
4.7886 -0.9956 -15.3668 0.800 0.422 0.427 90 51 42 0 0
4.8696 -0.9913 -15.4809 0.889 0.186 0.419 95 60 51 0 0
4.8911 -0.9970 -15.5449 0.879 0.398 0.265 97 67 59 0 0
4.9008 -1.0007 -15.5788 0.918 0.337 0.210 98 68 61 0 0
4.9101 -1.0046 -15.6134 0.918 0.337 0.210 98 72 66 0 0
4.9658 -1.0079 -15.7219 0.665 0.301 0.683 105 86 82 0 0
4.9864 -1.0040 -15.7379 0.679 0.076 0.730 101 84 81 0 0
5.0013 -1.0042 -15.7635 -0.066 0.380 0.923 106 92 91 0 0
5.4077 -1.0554 -16.6902 0.662 0.671 0.332 192 193 193 0 0
5.5229 -0.9936 -16.5835 0.554 -0.012 0.832 196 196 198 0 0
5.5486 -0.9861 -16.5902 0.670 -0.231 0.706 192 192 194 0 0
5.5717 -0.9806 -16.6020 0.515 -0.217 0.829 199 199 201 0 0
5.6312 -0.9595 -16.5996 0.351 -0.573 0.741 202 202 204 0 0
5.5920 -1.0120 -16.7883 0.599 0.387 0.700 204 204 206 0 0
1.0900 -2.0301 -14.0478 -0.264 -0.558 0.787 200 199 201 0 0
2.1510 -1.6027 -13.7588 0.705 0.249 0.665 150 77 54 0 0
2.1692 -1.6007 -13.7793 0.727 0.321 0.607 171 101 79 0 0
2.1988 -1.5919 -13.7867 0.697 0.048 0.715 149 74 54 0 0
2.5779 -1.4470 -13.7206 0.677 0.292 0.675 150 94 67 0 0
2.5990 -1.4431 -13.7370 0.750 0.376 0.544 139 81 65 0 0
2.6148 -1.4423 -13.7595 0.750 0.376 0.544 170 113 102 0 0
2.6390 -1.4365 -13.7722 0.506 0.219 0.834 125 66 52 0 0
2.8441 -1.3493 -13.6942 0.468 0.255 0.846 111 37 22 0 0
2.8910 -1.3385 -13.7203 0.552 0.210 0.807 131 55 24 0 0
2.9345 -1.3297 -13.7504 0.491 0.059 0.869 165 85 37 0 0
3.0142 -1.3078 -13.7777 0.318 0.200 0.927 154 76 51 0 0
3.0390 -1.3015 -13.7888 0.438 0.093 0.894 169 99 83 0 0
3.0652 -1.2944 -13.7983 0.581 0.140 0.802 163 97 79 0 0
3.5013 -1.1774 -13.9620 0.298 0.310 0.903 115 33 6 0 0
3.7172 -1.2141 -14.4979 0.877 0.445 0.181 42 6 0 0 0
3.7281 -1.2164 -14.5274 0.986 0.153 0.065 39 6 2 0 0
3.7466 -1.2325 -14.6359 0.988 0.097 0.118 65 12 2 0 0
3.7427 -1.2444 -14.6864 0.976 0.162 0.147 71 15 1 0 0
4.1254 -1.2987 -15.5853 -0.125 0.206 0.971 15 7 8 0 0
4.2520 -1.2448 -15.5373 -0.086 0.066 0.994 9 3 3 0 0
4.7980 -1.0187 -15.3587 0.832 0.440 0.336 85 62 55 0 0
4.8807 -1.0235 -15.5197 0.617 0.752 0.231 97 66 56 0 0
4.8998 -1.0207 -15.5380 0.879 0.398 0.265 102 73 65 0 0
4.9125 -1.0224 -15.5669 0.904 0.373 0.211 100 72 66 0 0
4.9138 -1.0319 -15.6149 0.972 0.127 0.197 101 76 71 0 0
4.9219 -1.0367 -15.6516 0.972 0.127 0.197 102 80 76 0 0
4.9300 -1.0415 -15.6885 0.972 0.127 0.197 103 84 80 0 0
5.4128 -1.0824 -16.6897 0.965 0.070 0.253 193 193 195 0 0
5.5234 -1.0238 -16.5917 0.602 -0.153 0.784 197 197 199 0 0
5.5445 -1.0197 -16.6071 0.602 -0.153 0.784 196 196 198 0 0
1.9698 -1.6782 -13.6799 0.641 0.460 0.614 104 43 27 0 0
2.2620 -1.5936 -13.7609 0.351 0.235 0.907 136 63 41 0 0
2.9416 -1.3546 -13.7467 0.410 0.373 0.832 158 81 33 0 0
2.9672 -1.3479 -13.7571 0.276 0.197 0.941 148 73 45 0 0
3.0852 -1.3201 -13.8203 0.914 0.254 0.317 159 82 57 0 0
3.2445 -1.2671 -13.8314 0.778 0.404 0.481 157 90 69 0 0
3.5371 -1.1668 -13.8375 0.703 0.297 0.646 138 66 38 0 0
3.5150 -1.1979 -13.9498 0.306 0.472 0.827 111 31 7 0 0
3.6975 -1.2282 -14.3980 0.895 0.340 0.290 60 11 6 0 0
3.7078 -1.2309 -14.4281 0.943 0.230 0.242 55 10 4 0 0
3.7169 -1.2344 -14.4599 0.943 0.230 0.242 51 8 2 0 0
3.7220 -1.2404 -14.4973 0.948 0.244 0.205 52 9 2 0 0
3.7329 -1.2428 -14.5267 0.982 0.067 0.175 54 11 3 0 0
3.7434 -1.2548 -14.6015 0.991 0.078 0.111 70 16 4 0 0
3.7397 -1.2759 -14.6966 0.863 0.480 0.158 85 34 13 0 0
3.8230 -1.2701 -14.8070 0.524 0.778 0.345 73 41 29 0 0
3.9058 -1.3530 -15.3415 0.583 0.294 0.757 64 12 3 0 0
3.9383 -1.3820 -15.5341 0.823 0.106 0.559 94 50 34 0 0
4.8339 -1.0339 -15.3568 0.648 0.618 0.445 45 33 31 0 0
4.8965 -1.0423 -15.5011 0.617 0.752 0.231 93 68 63 0 0
4.9370 -1.0560 -15.6339 0.529 0.800 0.283 98 80 76 0 0
5.4309 -1.0998 -16.6645 0.742 0.399 0.539 194 194 196 0 0
1.9551 -1.7083 -13.6602 0.428 0.340 0.837 112 46 25 0 0
1.9817 -1.7014 -13.6714 0.686 0.505 0.524 112 43 23 0 0
2.1558 -1.6514 -13.7220 0.287 0.387 0.876 160 87 42 0 0
2.5729 -1.5004 -13.6952 0.433 0.688 0.582 151 68 30 0 0
2.9706 -1.3750 -13.7580 0.500 0.188 0.845 125 50 24 0 0
3.0962 -1.3426 -13.8120 0.579 0.204 0.790 143 69 42 0 0
3.1168 -1.3388 -13.8281 0.579 0.204 0.790 138 65 43 0 0
3.2292 -1.3054 -13.8555 0.105 -0.105 0.989 150 83 61 0 0
3.5441 -1.1912 -13.8338 0.703 0.297 0.646 143 71 48 0 0
3.5203 -1.2235 -13.9484 0.200 0.493 0.847 108 26 6 0 0
3.6257 -1.2386 -14.1949 0.909 0.288 0.303 97 29 7 0 0
3.6344 -1.2422 -14.2266 0.891 0.433 0.137 80 20 7 0 0
3.7264 -1.2671 -14.4972 0.970 0.075 0.231 72 15 4 0 0
3.8288 -1.2865 -14.7595 0.801 0.538 0.262 59 24 18 0 0
3.8968 -1.4095 -15.4575 0.639 0.446 0.626 68 28 21 0 0
3.9113 -1.4101 -15.4843 0.728 0.438 0.527 77 40 31 0 0
3.9346 -1.4048 -15.4980 0.832 0.282 0.478 87 51 40 0 0
3.9436 -1.4091 -15.5330 0.865 0.184 0.467 59 27 19 0 0
4.0738 -1.3839 -15.6292 0.253 -0.466 0.848 14 5 6 0 0
4.7371 -1.3822 -16.7204 0.908 0.403 0.114 159 159 161 0 0
4.9792 -1.2997 -16.7295 0.053 0.096 0.994 180 180 183 0 0
5.4576 -1.1225 -16.6790 0.839 -0.083 0.538 198 198 200 0 0
2.1398 -1.6821 -13.7038 0.248 0.304 0.920 146 74 29 0 0
2.1645 -1.6762 -13.7168 0.346 0.198 0.917 172 92 35 0 0
2.5795 -1.5260 -13.6924 0.198 0.569 0.798 141 63 26 0 0
2.6190 -1.5111 -13.6873 0.592 0.717 0.368 167 88 51 0 0
3.1021 -1.3682 -13.8098 0.579 0.204 0.790 148 72 45 0 0
3.1227 -1.3644 -13.8260 0.681 -0.106 0.724 153 79 56 0 0
3.5588 -1.2108 -13.8203 0.382 0.574 0.724 155 87 68 0 0
3.7110 -1.2876 -14.4354 0.934 0.238 0.267 73 20 5 0 0
3.7207 -1.2908 -14.4665 0.934 0.238 0.267 80 24 11 0 0
3.7304 -1.2940 -14.4976 0.934 0.238 0.267 84 32 15 0 0
3.8389 -1.3097 -14.7514 0.724 0.565 0.397 58 21 9 0 0
3.8532 -1.3100 -14.7767 0.415 0.677 0.607 81 42 22 0 0
3.8723 -1.3073 -14.7954 0.480 0.726 0.493 92 46 24 0 0
3.8300 -1.3445 -14.9012 0.975 0.168 0.147 113 73 47 0 0
3.8347 -1.3511 -14.9406 0.996 0.049 0.072 96 51 27 0 0
3.9041 -1.4251 -15.4054 0.783 -0.079 0.617 74 35 26 0 0
3.9064 -1.4337 -15.4500 0.639 0.446 0.626 75 41 32 0 0
5.0007 -1.3153 -16.6994 0.157 0.518 0.841 183 183 186 0 0
5.0591 -1.2843 -16.6490 -0.085 0.370 0.925 183 183 185 0 0
5.4419 -1.1532 -16.6617 0.679 -0.365 0.637 197 197 199 0 0
5.4788 -1.1492 -16.7039 0.678 -0.081 0.731 199 199 201 0 0
5.4985 -1.1462 -16.7225 0.800 -0.195 0.567 201 201 203 0 0
2.0352 -1.7476 -13.7027 0.085 -0.184 0.979 105 42 25 0 0
2.4371 -1.6144 -13.7390 0.154 -0.033 0.987 125 50 25 0 0
2.5606 -1.5669 -13.7191 0.367 0.553 0.748 130 59 29 0 0
2.5832 -1.5620 -13.7338 0.367 0.553 0.748 147 63 29 0 0
3.0184 -1.4220 -13.7928 0.458 0.266 0.848 168 87 44 0 0
3.5611 -1.2559 -13.9066 0.773 0.197 0.603 115 31 9 0 0
3.5773 -1.2547 -13.9278 0.773 0.197 0.603 101 22 4 0 0
3.7211 -1.2918 -14.3396 0.843 0.509 0.173 83 26 11 0 0
3.7543 -1.3365 -14.6045 0.747 0.655 0.119 82 48 38 0 0
3.7730 -1.3436 -14.6685 0.787 0.598 0.152 56 19 11 0 0
3.8506 -1.3318 -14.7412 0.724 0.565 0.397 95 48 24 0 0
3.8657 -1.3316 -14.7653 0.450 0.502 0.739 95 45 17 0 0
3.8320 -1.3633 -14.8587 0.938 0.239 0.253 92 39 15 0 0
3.8346 -1.3714 -14.9010 0.975 0.168 0.147 102 51 31 0 0
3.8967 -1.4606 -15.4231 0.468 -0.076 0.881 55 16 9 0 0
5.0066 -1.3541 -16.7528 0.408 -0.103 0.907 184 184 186 0 0
5.4861 -1.1745 -16.6991 0.829 0.111 0.548 200 200 202 0 0
5.5040 -1.1729 -16.7211 0.760 0.169 0.628 202 202 204 0 0
2.0680 -1.7585 -13.6711 0.291 0.357 0.888 109 41 25 0 0
2.3906 -1.6631 -13.7561 0.296 -0.010 0.955 134 60 36 0 0
2.4379 -1.6437 -13.7428 0.128 -0.204 0.971 131 55 28 0 0
2.5016 -1.6143 -13.7104 0.014 -0.189 0.982 123 51 25 0 0
2.5843 -1.5910 -13.7374 0.133 0.423 0.896 136 61 31 0 0
3.0292 -1.4446 -13.7846 0.466 0.211 0.859 161 81 34 0 0
3.4052 -1.3283 -13.8591 0.468 0.140 0.873 153 77 54 0 0
3.5724 -1.2867 -13.9395 0.505 0.254 0.825 109 25 4 0 0
3.6420 -1.2791 -14.0186 0.750 0.478 0.456 106 35 1 0 0
3.6756 -1.2944 -14.1456 0.934 0.219 0.281 112 52 11 0 0
3.6852 -1.2975 -14.1760 0.915 0.321 0.245 98 35 9 0 0
3.6931 -1.3017 -14.2086 0.946 0.273 0.176 98 42 24 0 0
3.7655 -1.3303 -14.4613 0.777 0.608 0.162 85 54 42 0 0
3.7741 -1.3342 -14.4939 0.747 0.652 0.132 76 42 34 0 0
3.7824 -1.3384 -14.5271 0.779 0.620 0.095 66 30 23 0 0
3.8141 -1.3756 -14.7531 0.863 0.450 0.230 96 46 16 0 0
3.8248 -1.3979 -14.8752 0.956 0.200 0.215 91 39 19 0 0
3.8058 -1.4802 -15.2287 0.909 -0.411 0.076 53 10 4 0 0
3.8062 -1.5002 -15.3233 0.899 -0.423 0.115 51 10 3 0 0
3.8038 -1.5120 -15.3745 0.800 -0.566 0.199 53 12 5 0 0
4.0494 -1.4926 -15.6878 0.689 -0.033 0.724 22 14 13 0 0
4.0722 -1.4877 -15.7023 0.023 -0.500 0.866 20 14 13 0 0
2.5678 -1.6218 -13.7204 0.133 0.423 0.896 112 49 31 0 0
2.5961 -1.6136 -13.7285 0.133 0.423 0.896 112 50 26 0 0
2.6844 -1.5866 -13.7483 0.420 0.433 0.797 180 113 83 0 0
2.8935 -1.5126 -13.7470 0.025 -0.100 0.995 116 36 17 0 0
3.5673 -1.3098 -13.9094 0.601 0.495 0.628 125 36 9 0 0
3.5734 -1.3150 -13.9437 0.500 0.100 0.860 127 38 10 0 0
3.6580 -1.3070 -14.0457 0.871 0.215 0.442 110 42 6 0 0
3.6930 -1.3217 -14.1713 0.851 0.476 0.223 92 29 7 0 0
3.8124 -1.3967 -14.7162 0.940 0.299 0.165 89 34 14 0 0
3.8017 -1.5134 -15.2413 0.940 -0.336 0.063 69 27 19 0 0
4.0462 -1.5257 -15.6998 0.923 0.167 0.346 14 9 7 0 0
4.3005 -1.5125 -16.0559 0.341 -0.354 0.871 57 57 59 0 0
4.7374 -1.5084 -16.7540 0.223 0.282 0.933 166 167 171 0 0
1.1765 -2.2459 -14.1970 -0.281 -0.600 0.749 205 205 207 0 0
2.2886 -1.7488 -13.7183 0.242 0.031 0.970 169 91 37 0 0
2.3994 -1.7176 -13.7556 0.328 0.236 0.915 157 79 59 0 0
2.6291 -1.6232 -13.6949 0.018 0.185 0.983 104 43 25 0 0
2.6503 -1.6192 -13.7110 0.304 0.597 0.743 125 54 29 0 0
2.7997 -1.5815 -13.7815 0.114 0.337 0.934 163 108 95 0 0
2.8952 -1.5409 -13.7499 0.025 -0.100 0.995 118 42 22 0 0
3.0813 -1.4710 -13.7314 0.419 0.344 0.841 115 49 25 0 0
3.1811 -1.4630 -13.8578 0.799 0.236 0.553 149 79 47 0 0
3.3796 -1.3843 -13.8185 0.456 0.044 0.889 147 79 56 0 0
3.4011 -1.3798 -13.8331 0.346 0.031 0.938 148 77 53 0 0
3.4268 -1.3727 -13.8423 0.397 0.130 0.909 145 71 45 0 0
3.5775 -1.3322 -13.9015 0.601 0.495 0.628 143 51 20 0 0
3.9434 -1.5314 -15.4222 0.934 0.101 0.344 53 15 4 0 0
2.4109 -1.7406 -13.7472 0.502 0.038 0.864 175 103 85 0 0
2.4360 -1.7343 -13.7594 0.757 -0.081 0.648 154 81 61 0 0
2.5235 -1.7080 -13.7815 0.102 -0.329 0.939 123 52 26 0 0
2.6340 -1.6498 -13.6939 0.042 0.199 0.979 113 48 30 0 0
2.6689 -1.6375 -13.6942 0.316 0.258 0.913 115 46 24 0 0
2.7278 -1.6283 -13.7481 0.362 0.403 0.841 175 108 73 0 0
2.7578 -1.6188 -13.7537 0.220 0.336 0.916 153 88 61 0 0
2.7840 -1.6117 -13.7638 0.260 0.330 0.908 143 80 60 0 0
2.9496 -1.5458 -13.7309 -0.062 -0.062 0.996 114 40 19 0 0
3.0655 -1.5010 -13.7144 0.447 0.134 0.884 105 38 23 0 0
3.0890 -1.4954 -13.7271 0.401 0.424 0.812 112 49 28 0 0
3.1560 -1.4899 -13.8107 0.785 0.303 0.540 178 102 71 0 0
4.4284 -1.5290 -16.0696 -0.064 0.067 0.996 28 26 26 0 0
2.1650 -1.8564 -13.7445 0.305 0.151 0.940 105 51 34 0 0
2.4541 -1.7622 -13.7844 0.690 0.069 0.721 147 73 52 0 0
2.4860 -1.7518 -13.7887 0.236 -0.026 0.971 125 51 24 0 0
2.5177 -1.7414 -13.7931 0.021 -0.221 0.975 123 49 24 0 0
2.7235 -1.6426 -13.6760 0.087 0.140 0.986 117 45 22 0 0
2.7478 -1.6455 -13.7293 0.601 0.508 0.617 160 82 50 0 0
2.7671 -1.6427 -13.7477 0.260 0.330 0.908 176 111 81 0 0
2.8220 -1.6269 -13.7649 0.141 0.270 0.952 141 79 60 0 0
2.8509 -1.6181 -13.7717 0.141 0.270 0.952 174 115 97 0 0
3.6109 -1.3595 -13.8272 0.403 -0.607 0.685 172 103 80 0 0
3.6430 -1.3666 -13.9119 0.640 0.479 0.601 133 45 7 0 0
3.6901 -1.3735 -14.0201 0.815 0.145 0.561 122 46 12 0 0
3.7432 -1.3956 -14.2077 0.859 0.473 0.196 65 32 23 0 0
3.8404 -1.3991 -14.3824 0.816 0.555 0.161 90 32 10 0 0
3.8107 -1.5374 -14.9666 0.952 -0.120 0.281 71 37 28 0 0
3.8252 -1.5379 -14.9923 0.886 -0.023 0.464 72 42 33 0 0
2.1367 -1.8947 -13.7400 0.412 -0.200 0.889 112 46 30 0 0
2.1955 -1.8682 -13.7148 0.620 0.380 0.686 104 46 31 0 0
2.2158 -1.8649 -13.7328 0.519 0.471 0.713 118 61 38 0 0
2.3642 -1.8108 -13.7282 0.335 -0.014 0.942 148 73 33 0 0
2.3916 -1.8031 -13.7378 0.335 -0.014 0.942 177 118 69 0 0
2.4112 -1.8002 -13.7564 0.491 0.163 0.856 172 119 81 0 0
2.4554 -1.7913 -13.7877 0.702 0.375 0.605 159 91 71 0 0
2.4710 -1.7909 -13.8109 0.407 0.437 0.802 131 57 36 0 0
2.7127 -1.6787 -13.6935 0.001 -0.113 0.994 110 43 27 0 0
2.7394 -1.6713 -13.7032 0.557 0.444 0.702 130 52 30 0 0
2.7600 -1.6676 -13.7199 0.624 0.543 0.561 143 59 30 0 0
2.7825 -1.6627 -13.7344 0.452 0.398 0.798 175 104 75 0 0
2.8032 -1.6590 -13.7510 0.455 0.274 0.847 162 98 70 0 0
2.8299 -1.6516 -13.7605 0.323 0.375 0.869 150 90 65 0 0
3.5961 -1.3978 -13.8516 0.342 -0.635 0.693 174 106 82 0 0
3.7759 -1.5807 -14.9761 0.972 -0.141 0.190 69 38 30 0 0
3.8432 -1.5458 -14.9266 0.581 0.686 0.437 68 36 29 0 0
3.8402 -1.5580 -14.9773 0.860 0.313 0.404 76 44 37 0 0
3.8489 -1.5623 -15.0112 0.488 0.269 0.831 79 45 39 0 0
3.8735 -1.5561 -15.0226 0.465 0.715 0.522 79 44 39 0 0
3.9137 -1.5597 -15.1048 0.698 0.642 0.317 79 45 38 0 0
3.9231 -1.5637 -15.1382 0.800 0.582 0.148 81 44 37 0 0
3.9815 -1.5973 -15.3858 0.839 0.505 0.204 26 10 7 0 0
3.9336 -1.7497 -16.0017 0.654 0.230 0.721 6 4 5 0 0
3.9539 -1.7468 -16.0210 0.654 0.230 0.721 4 2 4 0 0
3.9783 -1.7521 -16.0848 0.778 0.037 0.628 32 30 33 0 0
4.2840 -1.6377 -16.0614 0.306 0.205 0.929 27 26 29 0 0
4.3241 -1.6204 -16.0482 0.118 0.568 0.814 31 29 34 0 0
4.5075 -1.5686 -16.1104 0.079 0.919 0.386 37 36 34 0 0
2.1352 -1.9258 -13.7463 0.477 -0.195 0.857 113 47 31 0 0
2.4269 -1.8206 -13.7432 0.279 0.103 0.955 158 96 56 0 0
2.4811 -1.8146 -13.8041 0.490 0.695 0.526 146 73 49 0 0
2.7445 -1.6977 -13.7020 0.425 0.269 0.864 114 46 26 0 0
2.7691 -1.6915 -13.7140 0.557 0.444 0.702 134 57 30 0 0
2.7903 -1.6875 -13.7301 0.411 0.242 0.879 147 67 36 0 0
2.8142 -1.6817 -13.7429 0.411 0.242 0.879 170 103 73 0 0
3.1652 -1.5626 -13.7732 0.443 0.485 0.754 114 41 24 0 0
3.2611 -1.5296 -13.7792 0.483 0.431 0.762 180 106 75 0 0
3.2820 -1.5255 -13.7948 0.483 0.431 0.762 173 87 48 0 0
3.4569 -1.4696 -13.8254 0.120 0.406 0.906 145 68 46 0 0
3.4928 -1.4652 -13.8634 0.579 0.614 0.537 160 84 57 0 0
3.5874 -1.4416 -13.9104 0.399 0.189 0.897 153 74 43 0 0
3.7286 -1.6120 -14.9105 0.993 0.108 0.052 72 42 34 0 0
3.7501 -1.6078 -14.9264 0.777 0.592 0.214 70 40 32 0 0
3.7737 -1.6022 -14.9392 0.552 0.793 0.258 73 43 35 0 0
3.9936 -1.6196 -15.3746 0.756 0.604 0.253 7 4 3 0 0
3.9410 -1.7761 -15.9976 0.630 0.243 0.738 6 4 5 0 0
3.9604 -1.7737 -16.0182 0.661 0.247 0.708 6 4 6 0 0
4.2909 -1.6640 -16.0579 0.306 0.205 0.929 28 27 29 0 0
4.4500 -1.7592 -16.7466 -0.603 0.028 0.797 90 90 86 0 0
2.5130 -1.8249 -13.7720 0.305 0.435 0.847 171 98 80 0 0
2.7364 -1.7323 -13.7165 0.104 0.072 0.992 112 48 29 0 0
3.1716 -1.5878 -13.7704 0.531 0.148 0.834 118 42 23 0 0
3.2708 -1.5526 -13.7724 0.483 0.431 0.762 177 95 59 0 0
3.2917 -1.5485 -13.7879 0.483 0.431 0.762 170 83 41 0 0
3.3644 -1.5393 -13.8639 0.079 0.293 0.953 130 66 47 0 0
3.3832 -1.5365 -13.8821 0.205 0.043 0.978 141 66 43 0 0
3.5902 -1.4688 -13.9122 0.603 0.188 0.775 145 66 34 0 0
3.8977 -1.5794 -14.9077 0.716 0.467 0.519 81 49 42 0 0
3.9179 -1.5761 -14.9251 0.892 0.393 0.222 82 51 42 0 0
3.9468 -1.6933 -15.4997 0.969 0.127 0.212 3 3 4 0 0
2.7609 -1.7558 -13.7335 0.224 0.135 0.965 110 46 25 0 0
2.9182 -1.7033 -13.7524 0.647 0.324 0.690 154 86 64 0 0
2.9738 -1.6867 -13.7681 -0.242 -0.067 0.968 162 107 89 0 0
3.2793 -1.5763 -13.7669 0.796 0.013 0.605 168 78 36 0 0
3.2962 -1.5748 -13.7875 0.780 0.051 0.624 158 77 34 0 0
3.3453 -1.5620 -13.8094 0.671 0.395 0.628 123 62 44 0 0
3.5872 -1.4998 -13.9214 0.654 -0.024 0.756 145 67 28 0 0
3.6037 -1.4985 -13.9424 0.800 -0.032 0.599 140 66 21 0 0
3.8513 -1.4508 -14.1285 0.808 0.151 0.570 95 27 4 0 0
3.8644 -1.4518 -14.1542 0.671 -0.105 0.734 91 32 12 0 0
3.8818 -1.4499 -14.1739 0.662 -0.191 0.725 87 36 17 0 0
3.9014 -1.5864 -14.8166 0.889 0.455 0.053 78 48 41 0 0
3.9187 -1.5850 -14.8380 0.970 0.236 0.060 79 49 41 0 0
4.7046 -1.7436 -16.8166 -0.566 -0.128 0.814 169 169 169 0 0
5.1846 -1.5261 -16.6182 -0.319 -0.173 0.932 195 195 197 0 0
2.4799 -1.8869 -13.7377 0.451 0.431 0.782 154 91 54 0 0
2.9196 -1.7319 -13.7556 0.665 0.319 0.675 158 94 68 0 0
3.2976 -1.6030 -13.7909 0.445 0.263 0.856 147 78 49 0 0
3.5409 -1.5305 -13.8599 0.710 0.304 0.635 161 80 53 0 0
3.7795 -1.4791 -14.0152 0.581 0.231 0.780 137 75 25 0 0
3.8720 -1.4662 -14.1064 0.892 0.148 0.426 92 28 4 0 0
3.9513 -1.6978 -15.2657 0.755 -0.105 0.647 24 19 20 0 0
4.3035 -1.7489 -16.0604 0.415 -0.446 0.793 32 31 34 0 0
4.7742 -1.7852 -16.9804 -0.292 0.754 0.589 188 188 188 0 0
5.1787 -1.5496 -16.5827 0.032 -0.274 0.961 195 195 196 0 0
2.3534 -1.9585 -13.7234 0.267 -0.133 0.954 98 41 32 0 0
2.8141 -1.7909 -13.7216 0.391 0.320 0.863 113 46 30 0 0
2.8379 -1.7851 -13.7345 0.391 0.320 0.863 119 49 29 0 0
2.8867 -1.7729 -13.7587 0.627 0.225 0.746 158 76 46 0 0
2.9278 -1.7562 -13.7508 0.794 0.290 0.534 165 102 71 0 0
2.9382 -1.7590 -13.7796 0.648 -0.051 0.760 154 94 68 0 0
3.3047 -1.6277 -13.7872 0.413 0.178 0.893 121 66 52 0 0
3.3221 -1.6259 -13.8072 0.500 0.339 0.797 109 60 50 0 0
3.7956 -1.5071 -14.0422 0.818 0.067 0.571 117 63 22 0 0
3.8601 -1.4934 -14.0849 0.877 0.068 0.475 101 35 8 0 0
3.8700 -1.4965 -14.1147 0.939 -0.085 0.335 93 31 9 0 0
3.8708 -1.5058 -14.1570 0.747 0.050 0.663 83 29 13 0 0
3.8871 -1.5047 -14.1783 0.742 -0.023 0.670 79 33 19 0 0
3.9057 -1.5021 -14.1966 0.614 0.153 0.774 79 37 24 0 0
3.9316 -1.7313 -15.2537 0.505 -0.422 0.753 21 16 22 0 0
4.3414 -1.7760 -16.1100 0.680 -0.492 0.544 33 31 37 0 0
2.3534 -1.9885 -13.7281 0.193 -0.162 0.968 103 41 28 0 0
2.8643 -1.7980 -13.7080 0.008 -0.194 0.981 101 41 25 0 0
2.8711 -1.8031 -13.7411 0.636 0.535 0.557 130 57 32 0 0
2.8870 -1.8023 -13.7634 0.602 0.583 0.546 147 59 31 0 0
2.9153 -1.7937 -13.7709 0.600 0.337 0.725 177 104 74 0 0
2.9486 -1.7819 -13.7722 0.801 0.324 0.504 158 94 66 0 0
3.8369 -1.5478 -14.1652 0.673 0.633 0.383 89 29 11 0 0
3.8471 -1.5508 -14.1948 0.762 0.644 0.063 79 26 11 0 0
3.8917 -1.6314 -14.6211 0.809 0.513 0.288 93 59 48 0 0
3.9034 -1.6336 -14.6500 0.809 0.513 0.288 91 58 47 0 0
3.9105 -1.6391 -14.6854 0.849 0.432 0.304 91 58 49 0 0
4.0944 -1.8818 -16.0495 0.769 0.218 0.601 7 5 8 0 0
4.1591 -1.8700 -16.1010 -0.300 0.263 0.917 26 26 28 0 0
4.2329 -1.8397 -16.0860 -0.178 0.438 0.881 29 29 31 0 0
4.2642 -1.8286 -16.0873 -0.084 0.447 0.891 17 17 19 0 0
4.6673 -1.8057 -16.6328 -0.239 0.624 0.744 137 137 135 0 0
4.7945 -1.7961 -16.7943 -0.085 0.502 0.861 181 180 183 0 0
4.7711 -1.8393 -16.9474 -0.350 0.619 0.703 187 187 189 0 0
5.3836 -1.5397 -16.6094 -0.555 0.315 0.770 202 202 202 0 0
1.9726 -2.1899 -13.8741 -0.232 -0.529 0.817 101 58 49 0 0
2.7826 -1.8608 -13.7276 -0.016 0.380 0.925 118 46 25 0 0
2.8507 -1.8363 -13.7292 0.339 0.463 0.819 110 50 32 0 0
2.8717 -1.8323 -13.7454 0.386 0.402 0.831 110 45 25 0 0
2.9017 -1.8225 -13.7507 0.537 0.531 0.655 140 60 34 0 0
2.9175 -1.8219 -13.7732 0.816 0.375 0.439 154 72 42 0 0
2.9803 -1.8006 -13.7803 0.193 -0.451 0.871 162 100 73 0 0
3.2879 -1.6780 -13.7354 0.587 0.448 0.674 108 37 16 0 0
3.3325 -1.6776 -13.8046 0.436 0.508 0.743 125 62 44 0 0
3.3513 -1.6748 -13.8228 0.399 -0.039 0.916 126 50 26 0 0
3.7252 -1.5732 -13.9755 0.618 0.206 0.759 157 84 53 0 0
3.9143 -1.6560 -14.6408 0.809 0.513 0.288 94 63 55 0 0
4.0181 -1.7646 -15.2826 -0.319 -0.318 0.893 24 22 21 0 0
4.0981 -1.9107 -16.0512 0.694 0.009 0.720 5 4 6 0 0
4.2781 -1.8499 -16.0726 0.064 0.639 0.766 25 25 27 0 0
4.3032 -1.8433 -16.0838 0.108 0.706 0.700 19 19 21 0 0
4.6932 -1.8179 -16.5962 -0.370 0.296 0.881 138 139 136 0 0
4.7268 -1.8047 -16.5923 0.786 0.553 0.275 148 148 146 0 0
4.8350 -1.7969 -16.7311 -0.321 0.225 0.920 181 180 183 0 0
5.3594 -1.5774 -16.6080 -0.594 0.300 0.747 201 201 201 0 0
5.3851 -1.5697 -16.6157 -0.592 0.206 0.780 202 202 202 0 0
2.8822 -1.8552 -13.7378 0.478 0.450 0.754 103 41 25 0 0
2.9045 -1.8504 -13.7524 0.547 0.402 0.734 121 48 26 0 0
3.7517 -1.5944 -13.9888 0.773 -0.033 0.633 119 36 12 0 0
3.7713 -1.5910 -14.0056 0.578 0.305 0.757 101 23 8 0 0
3.7900 -1.5883 -14.0235 0.773 0.343 0.534 93 15 1 0 0
3.9663 -1.8208 -15.3182 -0.201 -0.296 0.934 52 50 52 0 0
4.0059 -1.8038 -15.3074 -0.235 -0.334 0.913 61 59 59 0 0
4.5746 -1.9152 -16.7008 -0.482 0.219 0.848 121 117 115 0 0
4.7604 -1.8108 -16.5422 0.934 -0.328 0.142 148 148 147 0 0
5.3186 -1.6282 -16.6372 -0.571 0.330 0.752 201 201 201 0 0
2.9258 -1.8663 -13.7318 0.413 0.684 0.601 106 38 21 0 0
2.9470 -1.8622 -13.7478 0.406 0.798 0.446 128 52 26 0 0
3.2625 -1.7531 -13.7772 0.795 -0.238 0.558 126 42 16 0 0
3.3229 -1.7328 -13.7853 0.601 0.403 0.690 136 54 29 0 0
3.7530 -1.6226 -13.9926 0.709 -0.228 0.668 111 32 12 0 0
3.9168 -1.7139 -14.6495 0.946 -0.325 -0.012 37 25 27 0 0
3.9885 -1.8358 -15.2922 -0.307 0.658 0.688 45 43 46 0 0
4.0213 -1.8795 -15.5337 0.869 0.467 0.162 10 8 9 0 0
4.0235 -1.8892 -15.5794 0.692 0.013 0.722 9 7 8 0 0
4.0844 -1.9488 -15.9348 0.713 -0.217 0.667 8 6 9 0 0
4.0870 -1.9586 -15.9815 0.713 0.010 0.701 6 4 7 0 0
4.5845 -1.8285 -16.2098 0.748 0.644 0.160 51 49 46 0 0
4.6068 -1.8482 -16.3308 0.584 0.810 -0.055 64 65 61 0 0
4.6111 -1.9194 -16.6462 -0.404 -0.014 0.915 124 119 118 0 0
4.7435 -1.8934 -16.7444 -0.270 0.301 0.915 167 165 166 0 0
4.8143 -1.8640 -16.7298 -0.401 0.268 0.876 176 175 176 0 0
3.1228 -1.8353 -13.7883 0.008 -0.062 0.998 136 76 60 0 0
3.3147 -1.7675 -13.8008 0.490 0.518 0.701 140 52 25 0 0
3.3851 -1.7404 -13.7960 0.393 0.467 0.792 145 63 32 0 0
3.6756 -1.6940 -14.0575 0.738 0.445 0.507 99 34 20 0 0
3.8631 -1.6369 -14.1093 0.643 -0.093 0.760 78 18 6 0 0
3.8829 -1.6335 -14.1259 0.722 -0.007 0.692 82 20 3 0 0
3.8989 -1.6326 -14.1476 0.811 -0.045 0.583 92 33 9 0 0
3.9128 -1.6332 -14.1722 0.922 0.121 0.367 100 47 23 0 0
3.6782 -1.9861 -15.3216 0.725 -0.227 0.651 41 38 39 0 0
3.7015 -1.9808 -15.3357 0.662 -0.205 0.721 24 23 25 0 0
4.0573 -1.8509 -15.3407 0.694 0.710 -0.120 28 26 28 0 0
4.0594 -1.8606 -15.3859 0.694 0.710 -0.120 13 11 13 0 0
4.0454 -1.9045 -15.5532 0.630 -0.345 0.696 12 10 12 0 0
4.0599 -1.9864 -15.9296 0.631 -0.313 0.710 9 7 9 0 0
4.0894 -1.9884 -15.9851 0.473 0.062 0.879 7 5 8 0 0
4.8195 -1.8411 -16.5101 0.867 -0.443 0.230 158 158 156 0 0
4.8138 -1.8582 -16.5747 0.684 -0.409 0.604 164 163 161 0 0
3.2190 -1.8307 -13.7998 0.034 -0.184 0.982 141 70 45 0 0
3.9231 -1.6656 -14.2077 0.991 -0.028 0.135 105 70 60 0 0
3.6758 -2.0189 -15.3316 0.607 -0.115 0.787 30 28 31 0 0
3.7546 -1.9966 -15.3612 0.275 -0.207 0.939 24 22 25 0 0
3.9330 -1.9145 -15.2918 0.231 -0.250 0.940 40 39 42 0 0
3.9901 -1.8961 -15.3033 -0.032 -0.210 0.977 45 45 47 0 0
4.0640 -1.8656 -15.2893 -0.002 -0.064 0.998 54 52 55 0 0
4.0820 -1.8638 -15.3104 0.623 -0.076 0.779 66 64 65 0 0
4.1034 -1.8597 -15.3266 0.581 -0.078 0.810 19 17 18 0 0
4.1070 -1.8683 -15.3695 0.958 0.278 0.072 14 12 13 0 0
4.1574 -1.8546 -15.3903 0.997 0.059 0.054 21 19 22 0 0
4.4127 -1.8997 -15.9887 0.383 0.431 0.817 33 33 35 0 0
4.8900 -1.8816 -16.6678 -0.103 0.740 0.665 185 185 186 0 0
2.7852 -2.0079 -13.7492 0.124 0.125 0.984 146 76 56 0 0
3.1650 -1.8763 -13.7883 0.069 0.419 0.905 143 86 67 0 0
3.2164 -1.8619 -13.8082 0.195 0.074 0.978 143 78 52 0 0
3.4193 -1.7860 -13.8053 0.178 0.121 0.977 162 110 73 0 0
3.7469 -1.7142 -14.0174 0.716 0.299 0.631 88 20 3 0 0
3.8015 -1.7072 -14.0738 0.771 -0.159 0.617 78 13 4 0 0
3.9137 -1.7116 -14.2701 0.998 -0.054 -0.026 72 58 55 0 0
3.6573 -2.0519 -15.3170 0.492 -0.220 0.842 35 33 35 0 0
3.6797 -2.0472 -15.3326 0.531 0.038 0.846 21 19 22 0 0
3.7057 -2.0400 -15.3429 0.590 -0.020 0.807 19 17 20 0 0
3.8335 -1.9827 -15.3007 -0.010 0.045 0.999 36 34 37 0 0
3.8668 -1.9702 -15.2999 0.108 -0.157 0.982 42 42 44 0 0
3.8943 -1.9618 -15.3075 0.306 -0.488 0.817 46 46 48 0 0
4.4204 -1.9253 -15.9839 0.320 0.344 0.883 36 36 38 0 0
4.4453 -1.9186 -15.9948 0.574 0.288 0.766 36 36 38 0 0
4.4887 -1.8980 -15.9757 0.380 -0.436 0.816 38 38 40 0 0
4.9502 -1.9048 -16.7348 -0.043 0.366 0.930 195 195 197 0 0
2.3039 -2.2415 -13.8596 -0.109 -0.355 0.928 109 46 33 0 0
3.1928 -1.8971 -13.8008 0.365 0.043 0.930 163 101 77 0 0
3.3186 -1.8529 -13.8115 0.332 -0.183 0.926 162 88 48 0 0
3.8394 -1.7308 -14.1150 0.600 -0.114 0.792 66 7 1 0 0
3.8602 -1.7266 -14.1303 0.600 -0.114 0.792 72 21 8 0 0
3.8943 -1.7338 -14.2148 0.873 0.064 0.484 75 57 59 0 0
3.7023 -2.0735 -15.3544 0.542 -0.229 0.809 26 25 27 0 0
3.9124 -1.9797 -15.2875 0.249 0.057 0.967 50 51 53 0 0
4.0468 -1.9394 -15.3285 0.653 -0.570 0.499 59 58 60 0 0
4.4036 -1.9571 -15.9673 0.228 0.355 0.907 55 55 57 0 0
4.4309 -1.9487 -15.9745 0.517 0.322 0.793 43 43 45 0 0
4.7533 -1.9754 -16.5968 0.508 -0.304 0.806 159 158 156 0 0
4.8011 -1.9508 -16.5677 0.373 -0.480 0.794 167 166 164 0 0
4.9087 -1.9176 -16.5968 0.726 -0.057 0.686 184 183 183 0 0
4.9908 -1.9044 -16.6705 -0.281 0.467 0.839 194 194 196 0 0
2.2404 -2.3030 -13.8955 -0.134 -0.390 0.911 105 49 37 0 0
2.9303 -2.0117 -13.7515 0.167 0.128 0.978 118 47 28 0 0
3.1978 -1.9234 -13.7998 0.377 0.448 0.811 130 67 40 0 0
3.5933 -1.7969 -13.8885 0.732 -0.009 0.681 134 59 39 0 0
3.7729 -1.7752 -14.0800 0.463 -0.143 0.875 85 16 5 0 0
3.8973 -1.7612 -14.2165 0.873 0.064 0.484 66 53 55 0 0
3.8828 -2.0206 -15.2899 -0.130 0.222 0.966 50 50 52 0 0
3.9094 -2.0127 -15.2986 -0.009 0.279 0.960 51 51 53 0 0
3.9377 -2.0037 -15.3049 0.113 0.328 0.938 50 48 51 0 0
4.4106 -1.9833 -15.9637 0.435 0.212 0.875 38 37 41 0 0
4.6878 -1.9066 -16.0764 0.525 -0.069 0.848 69 66 64 0 0
4.7107 -1.9013 -16.0901 0.525 -0.069 0.848 92 88 85 0 0
4.9136 -1.9455 -16.5966 0.867 -0.061 0.494 186 185 186 0 0
4.9319 -1.9440 -16.6191 0.861 -0.123 0.494 189 189 190 0 0
3.0247 -2.0086 -13.7670 0.206 -0.056 0.977 114 45 26 0 0
3.0546 -1.9987 -13.7723 0.212 -0.110 0.971 111 46 29 0 0
3.5743 -1.8290 -13.8760 0.589 0.012 0.808 134 53 30 0 0
3.5939 -1.8257 -13.8930 0.799 0.494 0.343 117 43 27 0 0
3.8825 -1.7905 -14.1988 0.847 -0.405 0.345 73 59 56 0 0
4.2559 -2.0828 -16.0146 0.084 0.098 0.992 24 23 28 0 0
4.4014 -2.0094 -15.9348 0.565 0.405 0.719 34 34 36 0 0
4.6988 -1.9294 -16.0659 0.370 -0.038 0.928 90 89 86 0 0
4.9116 -1.9659 -16.5539 0.817 -0.408 0.408 184 182 183 0 0
4.9147 -1.9765 -16.6033 0.867 -0.001 0.498 188 188 188 0 0
3.1770 -1.9864 -13.7941 0.279 -0.145 0.949 160 94 60 0 0
3.2964 -1.9462 -13.8131 0.378 -0.171 0.910 132 82 53 0 0
3.5382 -1.8627 -13.8434 0.535 -0.121 0.836 144 60 19 0 0
3.7492 -1.8401 -14.0797 0.297 -0.104 0.949 89 17 3 0 0
4.3780 -2.0463 -15.9289 0.311 0.162 0.936 34 34 36 0 0
4.8894 -2.0154 -16.6019 0.757 -0.274 0.593 186 184 185 0 0
3.8011 -1.8437 -14.0594 0.725 -0.335 0.602 86 16 4 0 0
3.8097 -1.8481 -14.0911 0.608 0.010 0.794 77 23 11 0 0
4.4171 -2.0602 -15.9247 0.807 -0.294 0.512 35 35 37 0 0
4.6619 -1.9956 -16.0391 0.592 -0.411 0.693 88 87 85 0 0
4.6247 -2.1660 -16.6899 -0.223 -0.029 0.974 157 157 155 0 0
4.7617 -2.0967 -16.6160 0.582 -0.530 0.617 170 170 168 0 0
2.8850 -2.1511 -13.7845 0.494 0.050 0.868 116 64 47 0 0
3.6737 -1.8996 -13.9758 0.659 0.749 0.066 118 52 36 0 0
3.6953 -1.9053 -14.0331 0.683 0.669 0.293 105 30 9 0 0
3.7199 -1.8986 -14.0436 0.734 0.452 0.506 100 24 3 0 0
4.2169 -2.1827 -15.9967 0.311 0.345 0.886 30 30 32 0 0
4.4971 -2.0797 -16.0080 0.704 0.053 0.709 45 45 47 0 0
2.6848 -2.2440 -13.7370 0.080 -0.141 0.987 99 44 37 0 0
2.8981 -2.1722 -13.7738 0.453 -0.115 0.884 119 71 59 0 0
3.0214 -2.1298 -13.7914 0.143 -0.181 0.973 128 49 22 0 0
3.0577 -2.1154 -13.7888 0.260 -0.125 0.957 139 59 23 0 0
3.0867 -2.1060 -13.7951 0.357 -0.001 0.934 141 61 27 0 0
3.7058 -1.9275 -14.0249 0.887 -0.165 0.432 107 31 9 0 0
3.6258 -2.2820 -15.3606 0.382 0.089 0.920 51 51 53 0 0
4.1897 -2.2228 -15.9962 0.217 0.204 0.955 32 32 34 0 0
4.6944 -2.1882 -16.6407 0.835 -0.436 0.335 170 169 167 0 0
2.7985 -2.2285 -13.7318 0.482 0.264 0.836 150 88 57 0 0
2.8432 -2.2188 -13.7615 0.450 0.103 0.887 110 52 32 0 0
2.8701 -2.2108 -13.7709 0.481 -0.024 0.876 108 57 44 0 0
3.0192 -2.1611 -13.7992 0.113 -0.110 0.988 131 48 22 0 0
3.7163 -1.9495 -14.0165 0.916 -0.215 0.340 107 29 7 0 0
3.6316 -2.3091 -15.3588 0.260 0.236 0.936 50 50 52 0 0
4.6574 -2.0805 -16.0180 0.290 0.072 0.954 112 111 106 0 0
4.6931 -2.2349 -16.7064 0.816 -0.312 0.487 177 177 176 0 0
4.7230 -2.2243 -16.7093 0.162 -0.024 0.986 181 181 180 0 0
0.8592 -3.3867 -15.3269 0.908 0.404 0.108 205 206 207 0 0
2.4292 -2.4545 -13.9628 0.518 -0.114 0.848 104 46 39 0 0
2.8455 -2.2472 -13.7637 0.709 0.417 0.569 94 41 30 0 0
2.8744 -2.2379 -13.7707 0.734 0.090 0.673 94 42 33 0 0
2.8975 -2.2325 -13.7846 0.462 0.183 0.868 95 44 35 0 0
3.0206 -2.1900 -13.8025 0.113 -0.110 0.988 137 51 21 0 0
3.5654 -2.3655 -15.3643 0.456 0.142 0.879 46 45 50 0 0
4.5548 -2.1545 -16.0401 0.177 -0.228 0.957 98 97 95 0 0
4.5902 -2.1394 -16.0335 0.143 -0.181 0.973 106 105 103 0 0
4.6607 -2.2800 -16.7163 -0.452 0.348 0.821 177 177 175 0 0
0.8703 -3.4136 -15.3196 0.908 0.404 0.108 196 194 194 0 0
2.4270 -2.4867 -13.9703 0.628 0.588 0.510 110 64 59 0 0
2.4965 -2.4505 -13.9310 0.003 -0.517 0.856 102 48 39 0 0
4.0699 -2.3601 -16.0026 0.062 0.040 0.997 30 29 33 0 0
2.4568 -2.5078 -13.9825 0.628 0.588 0.510 104 63 54 0 0
2.9394 -2.2846 -13.8276 -0.000 -0.113 0.994 128 48 21 0 0
2.9728 -2.2721 -13.8289 0.010 -0.084 0.996 147 60 22 0 0
4.2796 -2.2931 -15.9346 0.709 0.405 0.578 38 38 40 0 0
4.5331 -2.2219 -16.0394 0.073 -0.166 0.983 107 106 104 0 0
2.5233 -2.5041 -13.9516 -0.157 -0.491 0.857 104 57 52 0 0
2.9603 -2.3003 -13.8074 0.244 -0.386 0.890 143 57 25 0 0
3.7465 -2.5582 -16.0572 -0.305 0.364 0.880 47 47 48 0 0
3.7228 -2.5960 -16.0495 -0.338 0.307 0.889 44 43 45 0 0
3.7634 -2.5776 -16.0387 -0.402 0.284 0.871 33 33 35 0 0
2.7902 -2.4461 -13.8968 0.227 -0.352 0.908 120 48 28 0 0
3.4973 -2.5022 -15.2074 0.859 0.116 0.499 50 50 53 0 0
3.5200 -2.5093 -15.2704 0.741 0.239 0.627 49 49 52 0 0
3.5381 -2.5078 -15.2924 0.741 0.239 0.627 50 50 52 0 0
3.7400 -2.6153 -16.0306 -0.380 0.361 0.852 29 29 31 0 0
3.7805 -2.5970 -16.0200 -0.376 0.360 0.854 13 13 15 0 0
3.9033 -2.5534 -16.0356 0.148 -0.169 0.974 32 31 35 0 0
1.0636 -3.4664 -15.1727 0.487 0.874 0.009 112 80 72 0 0
2.7658 -2.4827 -13.8892 -0.013 -0.256 0.967 117 48 28 0 0
2.8038 -2.4671 -13.8856 0.130 -0.257 0.958 128 49 21 0 0
2.9786 -2.4097 -13.9265 0.267 -0.371 0.890 92 46 22 0 0
3.6312 -2.2178 -14.1683 0.992 0.098 0.079 50 33 31 0 0
3.8701 -2.5986 -16.0430 0.381 -0.159 0.911 33 32 37 0 0
3.9031 -2.5858 -16.0432 0.125 -0.150 0.981 35 34 40 0 0
2.8672 -2.4535 -13.8146 0.551 -0.638 0.538 138 57 22 0 0
2.8062 -2.5065 -13.9299 0.296 -0.421 0.857 146 73 30 0 0
2.9614 -2.4519 -13.9528 0.273 -0.370 0.888 152 98 58 0 0
3.4644 -2.5897 -15.2665 0.399 -0.272 0.875 52 51 56 0 0
3.5101 -2.5677 -15.2497 0.708 0.142 0.692 51 50 55 0 0
3.7984 -2.6479 -16.0073 -0.135 0.291 0.947 15 15 17 0 0
3.8178 -2.6458 -16.0285 0.333 0.035 0.942 28 27 30 0 0
3.8447 -2.6378 -16.0383 0.405 -0.084 0.911 37 36 41 0 0
3.8711 -2.6302 -16.0489 0.381 -0.159 0.911 36 35 41 0 0
2.8471 -2.5084 -13.8858 0.101 -0.360 0.927 143 96 53 0 0
2.8266 -2.5334 -13.9526 0.350 -0.526 0.775 111 79 51 0 0
2.8620 -2.5194 -13.9520 0.194 -0.412 0.890 80 42 26 0 0
2.9248 -2.4971 -13.9603 0.273 -0.370 0.888 153 96 57 0 0
2.9554 -2.4864 -13.9653 0.273 -0.370 0.888 162 92 44 0 0
3.8198 -2.6766 -16.0328 0.425 0.111 0.899 37 36 40 0 0
3.8486 -2.6672 -16.0398 0.363 0.342 0.867 39 38 43 0 0
2.8055 -2.5570 -13.8988 0.446 -0.575 0.686 148 96 65 0 0
2.8857 -2.5441 -13.9707 0.180 -0.329 0.927 153 96 58 0 0
2.9188 -2.5317 -13.9729 0.273 -0.370 0.888 165 93 44 0 0
2.9557 -2.5166 -13.9701 0.296 -0.150 0.943 149 66 26 0 0
3.4860 -2.6492 -15.2967 0.401 -0.253 0.880 56 56 58 0 0
3.7988 -2.7125 -16.0212 0.310 -0.009 0.951 37 36 41 0 0
3.8267 -2.7037 -16.0295 0.333 0.035 0.942 39 38 44 0 0
4.4073 -2.6711 -16.7883 0.530 -0.493 0.690 183 183 183 0 0
2.8809 -2.5780 -13.9818 0.180 -0.329 0.927 157 89 44 0 0
2.9234 -2.5589 -13.9725 0.623 -0.005 0.782 145 67 26 0 0
2.9444 -2.5550 -13.9892 0.623 -0.005 0.782 128 50 21 0 0
3.2173 -2.3942 -13.7801 0.543 -0.316 0.778 103 45 30 0 0
3.7400 -2.7648 -16.0160 0.189 -0.268 0.945 36 35 41 0 0
3.8063 -2.7390 -16.0170 0.119 -0.154 0.981 40 39 45 0 0
4.2130 -2.5880 -16.0497 0.402 -0.357 0.843 99 96 94 0 0
1.7770 -3.2367 -14.7378 -0.101 -0.588 0.802 105 53 40 0 0
2.8296 -2.6119 -13.9221 0.202 -0.301 0.932 75 28 13 0 0
2.9283 -2.5859 -13.9717 0.530 0.190 0.827 127 50 19 0 0
2.9457 -2.5846 -13.9928 0.899 0.160 0.408 118 47 22 0 0
3.5231 -2.7342 -15.4493 0.546 -0.343 0.765 27 28 32 0 0
3.7071 -2.8100 -16.0223 0.189 -0.268 0.945 36 35 39 0 0
3.7387 -2.7984 -16.0253 0.189 -0.268 0.945 40 39 44 0 0
4.2112 -2.6216 -16.0601 0.346 -0.343 0.873 108 104 101 0 0
4.4761 -2.6657 -16.6331 0.684 0.099 0.722 186 186 188 0 0
4.4955 -2.6636 -16.6547 0.285 0.282 0.916 188 188 190 0 0
1.4186 -3.4605 -14.9345 -0.454 0.081 0.887 117 72 57 0 0
1.7522 -3.2867 -14.7720 -0.180 -0.513 0.839 105 53 39 0 0
2.7413 -2.6939 -13.9913 0.475 -0.692 0.544 89 30 15 0 0
2.9842 -3.0367 -15.6793 0.260 -0.484 0.835 4 2 5 0 0
3.0107 -3.0294 -15.6914 0.503 -0.666 0.551 15 13 16 0 0
3.0762 -2.9927 -15.6493 0.131 -0.606 0.785 41 39 44 0 0
3.6779 -2.8524 -16.0227 0.147 -0.177 0.973 36 35 40 0 0
3.7095 -2.8408 -16.0258 0.152 -0.201 0.968 40 39 45 0 0
3.7594 -2.8147 -16.0012 -0.050 0.056 0.997 42 41 47 0 0
3.7823 -2.8098 -16.0172 0.193 -0.101 0.976 43 42 49 0 0
4.2306 -2.6382 -16.0368 0.061 -0.102 0.993 115 112 109 0 0
4.3825 -2.7340 -16.6362 0.356 0.185 0.916 182 182 182 0 0
4.5117 -2.6687 -16.5810 0.299 0.628 0.718 188 188 190 0 0
4.4986 -2.6939 -16.6578 0.237 0.742 0.627 190 190 192 0 0
7.4430 -1.5335 -16.6601 0.257 -0.229 0.939 215 215 215 0 0
1.3952 -3.4984 -14.9215 -0.506 0.052 0.861 109 59 48 0 0
2.6860 -2.7750 -14.1057 -0.202 -0.588 0.783 83 23 8 0 0
3.1960 -2.6110 -14.2502 0.901 -0.430 -0.053 106 56 45 0 0
3.6092 -2.9127 -16.0315 0.091 -0.150 0.985 31 30 33 0 0
3.7104 -2.8728 -16.0318 0.055 -0.097 0.994 42 41 47 0 0
3.8782 -2.7928 -15.9799 0.578 0.475 0.663 44 43 49 0 0
3.8983 -2.7901 -16.0000 0.488 0.368 0.791 45 44 50 0 0
4.3717 -2.7617 -16.6081 -0.050 0.188 0.981 182 182 182 0 0
4.4191 -2.7506 -16.6372 0.284 0.430 0.857 188 188 189 0 0
4.4447 -2.7434 -16.6485 0.299 0.352 0.887 190 190 191 0 0
7.4319 -1.5589 -16.6361 0.638 -0.402 0.657 215 215 215 0 0
7.4406 -1.5663 -16.6776 0.066 -0.324 0.944 214 214 214 0 0
7.5448 -1.5234 -16.6712 0.044 -0.199 0.979 215 215 215 0 0
2.9690 -2.6483 -13.9375 0.188 -0.483 0.855 110 69 56 0 0
3.0979 -2.6449 -14.1197 0.325 0.688 0.649 107 48 29 0 0
3.1331 -2.6307 -14.1187 0.851 0.341 0.399 113 55 32 0 0
7.4245 -1.5969 -16.6658 0.468 -0.422 0.776 215 215 215 0 0
7.4454 -1.5917 -16.6772 0.104 -0.223 0.969 213 213 213 0 0
1.5390 -3.4764 -14.8117 -0.494 0.390 0.777 107 55 41 0 0
1.7012 -3.4214 -14.8476 -0.081 -0.361 0.929 105 52 38 0 0
2.9566 -2.6876 -13.9578 0.096 -0.440 0.893 72 23 16 0 0
3.1410 -2.6554 -14.1141 0.814 0.429 0.392 113 66 46 0 0
4.2350 -2.8848 -16.6354 0.718 -0.477 0.507 177 177 177 0 0
1.7284 -3.4471 -14.8661 -0.184 -0.250 0.951 105 52 38 0 0
2.8259 -2.8013 -14.0801 0.014 -0.701 0.713 76 14 4 0 0
2.9418 -2.7289 -13.9812 0.083 -0.549 0.832 70 13 6 0 0
3.1213 -2.6777 -14.0582 0.732 0.435 0.524 108 69 58 0 0
3.1373 -2.6773 -14.0810 0.732 0.435 0.524 120 86 76 0 0
3.1495 -2.6798 -14.1088 0.879 0.331 0.344 117 88 80 0 0
3.1621 -2.6820 -14.1360 0.984 -0.076 0.160 107 81 73 0 0
4.2301 -2.9077 -16.5975 0.579 -0.535 0.615 178 178 176 0 0
1.5276 -3.5628 -14.8802 -0.054 0.052 0.997 106 54 40 0 0
1.6378 -3.5207 -14.8874 0.049 -0.149 0.988 105 52 39 0 0
3.1307 -2.7013 -14.0518 0.732 0.435 0.524 118 90 83 0 0
3.1468 -2.7009 -14.0746 0.732 0.435 0.524 98 73 68 0 0
3.1601 -2.7025 -14.1008 0.736 0.594 0.324 86 61 55 0 0
3.1625 -2.7123 -14.1410 0.984 -0.005 0.176 92 66 60 0 0
3.4271 -3.1214 -16.0769 0.538 -0.500 0.679 29 28 34 0 0
3.4526 -3.1147 -16.0900 0.533 -0.422 0.734 33 32 38 0 0
3.9482 -2.9071 -16.0548 0.770 -0.522 0.368 104 100 99 0 0
7.4709 -1.6561 -16.6489 0.566 0.243 0.788 215 215 215 0 0
7.5193 -1.6383 -16.6548 0.261 0.346 0.901 213 213 213 0 0
7.5630 -1.6255 -16.6723 0.306 0.348 0.886 214 214 214 0 0
1.1083 -3.7958 -15.0031 -0.536 -0.030 0.844 203 204 204 0 0
1.5671 -3.5802 -14.8849 0.051 0.115 0.992 105 53 39 0 0
1.6226 -3.5648 -14.9105 0.228 -0.403 0.886 105 51 39 0 0
3.1537 -2.7263 -14.0712 0.787 0.469 0.401 45 21 18 0 0
2.7600 -3.2764 -15.5385 0.546 -0.559 0.624 28 26 31 0 0
2.8218 -3.3999 -16.0938 0.095 -0.635 0.766 76 68 63 0 0
3.0743 -3.2976 -16.0897 -0.021 0.083 0.996 43 42 45 0 0
3.4168 -3.1627 -16.0992 0.538 -0.500 0.679 37 36 42 0 0
3.4805 -3.1256 -16.0558 0.220 0.013 0.975 37 36 42 0 0
3.9491 -2.9390 -16.0609 0.723 -0.333 0.606 115 111 110 0 0
2.7486 -3.3311 -15.6084 0.825 -0.204 0.527 39 38 40 0 0
3.3169 -3.2209 -16.0498 -0.051 -0.355 0.933 38 38 43 0 0
3.4737 -3.1641 -16.0730 0.185 -0.218 0.958 38 37 43 0 0
3.6264 -3.0826 -15.9981 0.605 -0.268 0.750 39 38 44 0 0
3.8845 -2.9831 -16.0141 0.684 -0.634 0.361 117 114 112 0 0
1.1444 -3.8383 -14.9728 -0.461 -0.036 0.887 205 204 206 0 0
1.2232 -3.7947 -14.9289 -0.462 -0.055 0.885 196 190 188 0 0
3.1513 -2.8009 -14.1282 0.762 0.644 -0.063 22 5 5 0 0
2.6840 -3.5206 -16.0978 0.810 -0.269 0.521 54 27 24 0 0
2.7034 -3.5191 -16.1213 0.649 0.218 0.729 56 25 23 0 0
3.3076 -3.2617 -16.0705 -0.002 -0.410 0.912 40 41 46 0 0
3.3430 -3.2472 -16.0695 0.118 -0.420 0.900 39 39 45 0 0
3.3743 -3.2496 -16.1253 0.534 -0.513 0.671 39 38 44 0 0
3.4514 -3.2015 -16.0624 -0.023 -0.137 0.990 40 39 45 0 0
3.5998 -3.0959 -15.8930 0.083 -0.052 0.995 39 38 44 0 0
3.8637 -3.0606 -16.1567 0.652 -0.693 0.307 131 127 126 0 0
3.9152 -3.1313 -16.4959 0.442 -0.266 0.857 155 154 152 0 0
1.1510 -3.8675 -14.9706 -0.461 -0.036 0.887 207 205 207 0 0
3.1519 -2.8195 -14.0897 0.783 0.619 -0.055 21 4 5 0 0
2.6721 -3.5503 -16.0708 0.870 -0.149 0.470 55 25 17 0 0
2.6805 -3.5574 -16.1095 0.953 0.154 0.261 55 23 16 0 0
2.9614 -3.4056 -15.9687 -0.278 -0.146 0.949 93 83 80 0 0
3.1171 -3.3645 -16.0493 -0.196 0.085 0.977 37 34 40 0 0
3.1567 -3.3467 -16.0429 -0.196 0.085 0.977 39 38 43 0 0
3.1752 -3.3457 -16.0669 -0.041 0.630 0.775 42 41 47 0 0
3.2608 -3.3187 -16.0949 0.016 -0.288 0.957 40 42 47 0 0
3.3409 -3.2822 -16.0797 0.400 -0.154 0.904 40 41 46 0 0
3.3684 -3.2738 -16.0901 0.318 -0.230 0.920 39 39 45 0 0
3.4084 -3.2555 -16.0821 0.550 0.282 0.786 40 39 44 0 0
3.5578 -3.1627 -15.9626 0.578 -0.271 0.770 40 39 45 0 0
3.8764 -3.1683 -16.4590 0.388 -0.366 0.846 152 151 147 0 0
7.5303 -1.7313 -16.6107 -0.373 0.082 0.924 215 215 215 0 0
1.5609 -3.6937 -14.8232 0.500 -0.338 0.798 104 51 37 0 0
1.8526 -3.5560 -14.7522 -0.544 0.454 0.706 100 47 31 0 0
2.6620 -3.5649 -15.9913 0.875 -0.129 0.467 39 13 9 0 0
2.6677 -3.5741 -16.0334 0.759 -0.324 0.565 52 21 15 0 0
2.6773 -3.5802 -16.0703 0.949 0.282 0.139 55 22 15 0 0
2.7711 -3.5205 -15.9908 0.152 0.645 0.749 56 22 14 0 0
3.1381 -3.3813 -16.0261 -0.363 -0.301 0.882 37 33 35 0 0
3.1835 -3.3588 -16.0114 -0.311 -0.170 0.935 39 38 42 0 0
3.5625 -3.1780 -15.9121 0.291 0.007 0.957 43 42 48 0 0
3.6104 -3.1806 -15.9927 0.670 -0.064 0.739 44 43 49 0 0
3.7766 -3.1561 -16.1507 0.838 0.263 0.479 137 136 133 0 0
1.2400 -3.8965 -14.9707 -0.454 -0.361 0.815 204 198 198 0 0
1.8747 -3.5729 -14.7315 -0.507 0.493 0.707 100 47 31 0 0
3.1111 -3.4363 -16.0718 -0.377 -0.533 0.757 85 82 81 0 0
3.1945 -3.3835 -16.0024 -0.319 -0.410 0.854 39 37 40 0 0
3.7867 -3.1809 -16.1426 0.820 -0.028 0.572 147 146 142 0 0
3.8953 -3.1191 -16.0784 0.180 -0.182 0.967 148 147 146 0 0
1.6567 -3.7156 -14.8126 0.338 -0.539 0.772 103 46 31 0 0
2.2209 -3.5116 -14.9079 0.364 -0.460 0.810 93 40 23 0 0
2.8414 -3.5740 -16.0569 0.102 0.806 0.582 96 86 81 0 0
3.1730 -3.4342 -16.0404 -0.332 -0.565 0.755 64 62 62 0 0
