ply
format ascii 1.0
element vertex 857
property float x
property float y
property float z
property float nx
property float ny
property float nz
property uchar diffuse_red
property uchar diffuse_green
property uchar diffuse_blue
property uchar class
property uchar detection
end_header
-2.3278 4.8471 -14.2469 0.240 0.967 -0.091 106 65 59 0 0
-1.9364 5.0652 -14.9165 -0.320 0.125 0.939 103 65 51 0 0
-1.8804 5.0887 -14.8972 -0.401 0.199 0.894 102 62 49 0 0
-1.9021 5.1395 -15.8023 0.902 -0.395 0.172 20 10 11 0 0
-1.9712 5.1265 -16.0669 0.334 -0.018 0.943 34 33 34 0 0
-1.9408 5.1407 -16.0768 0.253 0.045 0.966 23 16 18 0 0
-1.7776 5.2153 -16.1120 0.888 0.248 0.386 37 20 16 0 0
-1.8693 5.1852 -16.2695 0.587 0.408 0.699 44 24 21 0 0
-1.7426 5.2342 -16.1622 0.738 0.604 0.301 40 20 17 0 0
-1.7254 5.2435 -16.1878 0.501 0.703 0.505 38 17 16 0 0
-1.6365 5.3294 -16.8853 0.218 0.923 0.317 177 177 177 0 0
-3.2880 4.2849 -12.6762 -0.348 0.355 0.868 194 190 187 0 0
-3.2339 4.3083 -12.6664 -0.272 0.272 0.923 142 132 128 0 0
-2.1323 4.8051 -12.7827 0.268 0.170 0.948 89 39 26 0 0
-2.1370 4.8180 -13.0110 0.640 0.748 0.176 98 60 52 0 0
-2.5186 4.7797 -15.0075 0.537 0.821 0.195 163 158 157 0 0
-2.5064 4.7899 -15.0807 0.434 0.886 0.166 189 189 187 0 0
-2.0214 4.9988 -14.9831 -0.091 -0.090 0.992 103 65 53 0 0
-1.6820 5.1529 -15.0332 0.631 0.656 0.415 61 29 26 0 0
-1.9667 5.0951 -16.0787 0.704 -0.411 0.579 36 33 32 0 0
-1.9447 5.1062 -16.0986 0.688 -0.380 0.618 23 14 13 0 0
-1.8413 5.1500 -16.0674 0.504 -0.031 0.863 19 6 5 0 0
-1.8157 5.1624 -16.0829 0.470 -0.058 0.880 22 8 6 0 0
-1.8360 5.1673 -16.2934 0.441 0.646 0.623 41 21 20 0 0
-1.6018 5.3084 -16.8598 -0.039 0.559 0.828 175 175 175 0 0
-2.2183 4.7323 -12.7272 0.482 0.756 0.443 91 24 11 0 0
-2.1962 4.8307 -14.0984 0.330 0.935 -0.127 117 79 71 0 0
-2.5079 4.7537 -15.0543 0.857 0.440 0.269 189 187 185 0 0
-2.4996 4.7596 -15.0886 0.803 0.567 0.182 179 176 173 0 0
-2.4410 4.7872 -15.1120 -0.141 0.748 0.648 121 102 98 0 0
-1.6267 5.1472 -15.0723 0.057 0.852 0.521 65 42 39 0 0
-1.8650 5.1053 -16.0669 0.396 -0.127 0.909 18 7 6 0 0
-1.8317 5.1356 -16.3059 0.680 0.272 0.681 35 15 14 0 0
-1.5259 5.3087 -16.8786 0.163 0.415 0.895 178 178 178 0 0
-2.6808 4.4804 -12.4986 0.289 0.092 0.953 105 53 42 0 0
-2.6452 4.4966 -12.5034 0.221 0.151 0.964 104 50 39 0 0
-2.1406 4.7607 -13.1146 0.767 0.638 0.077 92 50 39 0 0
-2.0987 4.8136 -13.6531 0.515 0.369 0.774 102 62 56 0 0
-2.1326 4.8208 -14.0064 0.330 0.935 -0.127 124 92 82 0 0
-2.4814 4.7308 -15.0409 0.916 0.337 0.220 187 182 179 0 0
-2.4747 4.7361 -15.0770 0.916 0.337 0.220 147 142 137 0 0
-2.4364 4.7533 -15.0790 0.863 0.263 0.431 99 83 75 0 0
-1.7870 5.0667 -15.4485 0.601 0.691 -0.401 14 5 6 0 0
-1.8095 5.0611 -15.5191 0.607 0.698 -0.381 12 3 4 0 0
-1.9663 5.0259 -16.0664 0.919 0.295 0.262 37 31 31 0 0
-1.9215 5.0484 -16.1056 0.934 0.288 0.212 33 20 20 0 0
-1.8404 5.0814 -16.0547 0.187 0.598 0.779 25 12 12 0 0
-1.7798 5.1155 -16.1670 0.764 -0.301 0.571 22 8 7 0 0
-1.7615 5.1252 -16.1914 0.719 -0.294 0.629 26 10 7 0 0
-1.5816 5.2518 -16.9206 0.198 0.115 0.973 173 173 173 0 0
-1.5129 5.2800 -16.8809 0.497 0.862 0.104 175 175 175 0 0
-2.4531 4.5504 -12.4887 0.613 -0.306 0.729 105 47 34 0 0
-2.1439 4.7170 -12.9415 0.772 0.590 0.237 99 57 45 0 0
-2.0445 4.8083 -13.6906 0.717 0.439 0.541 99 58 49 0 0
-2.4840 4.6969 -15.0589 0.880 0.077 0.468 172 165 162 0 0
-2.4125 4.7295 -15.0684 0.780 0.275 0.562 67 37 30 0 0
-1.8297 4.9854 -14.9880 -0.207 -0.246 0.947 100 53 41 0 0
-1.7475 5.0191 -14.9387 -0.428 0.096 0.899 104 55 41 0 0
-1.5644 5.1069 -15.0325 0.169 0.517 0.839 73 49 45 0 0
-1.7917 5.0353 -15.5147 0.728 0.551 -0.407 10 4 5 0 0
-1.8606 5.0150 -15.6849 0.328 0.609 0.723 14 5 7 0 0
-1.9095 5.0167 -16.0622 0.438 0.899 -0.011 39 30 30 0 0
-1.9060 5.0209 -16.1044 0.465 0.885 -0.014 39 27 27 0 0
-1.8192 5.0561 -16.0466 0.142 0.609 0.780 37 22 22 0 0
-1.4844 5.2570 -16.8632 0.514 0.797 0.318 174 174 174 0 0
-1.4647 5.2703 -16.9354 0.286 0.935 0.211 179 179 180 0 0
-2.7146 4.4013 -12.4779 0.451 0.248 0.858 105 52 38 0 0
-2.1103 4.6838 -12.6618 0.688 0.725 0.027 87 22 9 0 0
-2.0968 4.6959 -12.7599 0.724 0.395 0.565 82 25 16 0 0
-1.6077 5.0455 -14.8823 0.673 0.494 0.550 96 51 39 0 0
-1.8622 4.9788 -15.6584 0.141 0.989 0.042 11 2 5 0 0
-1.8368 4.9912 -15.6737 0.244 0.653 0.717 17 6 8 0 0
-1.8139 5.0026 -15.6920 0.244 0.653 0.717 31 17 17 0 0
-1.7930 5.0328 -16.0325 -0.137 0.795 0.591 40 26 25 0 0
-1.5090 5.2143 -16.9140 0.076 0.276 0.958 172 172 174 0 0
-1.5003 5.2205 -16.9518 0.472 0.674 0.568 176 176 178 0 0
-3.0650 4.2204 -12.6128 -0.203 0.346 0.916 103 53 43 0 0
-2.4459 4.4925 -12.5049 0.700 0.113 0.705 105 44 33 0 0
-2.3794 4.6738 -15.0198 0.666 0.516 0.538 48 16 11 0 0
-2.3531 4.6865 -15.0346 0.146 0.656 0.740 53 15 9 0 0
-2.0243 4.8441 -15.1941 0.562 0.735 0.379 96 47 32 0 0
-1.9479 4.8759 -15.1521 0.867 -0.381 0.322 98 48 33 0 0
-1.7969 4.9762 -15.6888 0.711 0.549 0.440 43 28 27 0 0
-1.7518 5.0152 -16.0003 -0.173 0.824 0.539 41 27 26 0 0
-1.6330 5.0909 -16.3686 0.618 0.477 0.625 44 23 21 0 0
-1.4361 5.2137 -16.9366 0.164 0.900 0.403 176 176 178 0 0
-3.1995 4.1222 -12.5193 -0.345 0.452 0.822 103 61 54 0 0
-3.1310 4.1540 -12.5339 -0.122 0.499 0.858 103 54 47 0 0
-2.4131 4.4794 -12.5597 0.740 0.003 0.672 107 44 32 0 0
-2.0290 4.6599 -12.6829 0.338 0.817 0.467 76 19 9 0 0
-2.0830 4.6698 -13.2615 0.980 0.200 0.005 81 39 23 0 0
-2.0490 4.7916 -15.0631 0.003 0.503 0.864 94 38 25 0 0
-2.0007 4.8205 -15.1834 0.562 0.735 0.379 93 39 24 0 0
-1.9586 4.8393 -15.1798 0.500 0.864 0.055 95 41 26 0 0
-1.5354 5.0172 -14.9602 0.534 0.822 0.196 75 40 31 0 0
-1.5290 5.0222 -14.9960 0.692 0.700 0.177 77 45 38 0 0
-1.7707 4.9533 -15.6747 0.629 0.299 0.717 40 24 21 0 0
-1.7333 4.9891 -15.9954 -0.129 0.911 0.392 43 28 27 0 0
-1.6533 5.0415 -16.2703 0.729 0.428 0.534 32 12 11 0 0
-1.4182 5.1867 -16.9327 0.376 0.668 0.642 174 174 176 0 0
-2.4545 4.4280 -12.5355 0.297 0.704 0.645 110 48 34 0 0
-2.4157 4.4457 -12.5369 0.403 0.455 0.794 111 49 34 0 0
-2.0243 4.6295 -12.6535 0.586 0.699 0.409 80 19 11 0 0
-2.0016 4.6406 -12.6689 0.338 0.817 0.467 77 20 10 0 0
-1.9622 4.6606 -12.7055 0.517 0.809 0.279 81 25 17 0 0
-2.0712 4.6238 -12.9209 0.866 0.314 0.389 100 58 48 0 0
-1.9514 4.7294 -13.8083 0.637 0.684 0.354 77 33 24 0 0
-2.5115 4.5314 -14.7617 0.749 0.643 -0.158 105 62 52 0 0
-1.9603 4.8034 -15.1538 0.393 0.764 0.512 92 34 20 0 0
-3.1657 4.0729 -12.5124 0.169 0.227 0.959 104 55 46 0 0
-2.4311 4.4069 -12.5257 0.206 0.739 0.641 111 49 36 0 0
-2.4111 4.4170 -12.5442 0.152 0.725 0.672 110 49 33 0 0
-2.3817 4.4308 -12.5543 0.188 0.512 0.838 109 48 30 0 0
-2.0106 4.6657 -13.7231 0.724 0.570 0.388 89 32 13 0 0
-2.5108 4.4987 -14.7758 0.502 0.860 -0.093 110 60 50 0 0
-1.4753 4.9791 -14.9660 0.742 0.665 -0.082 73 39 32 0 0
-1.4773 4.9809 -15.0114 0.878 0.448 0.169 75 45 39 0 0
-2.7048 4.2470 -12.4524 -0.057 0.582 0.811 110 51 37 0 0
-2.6656 4.2650 -12.4543 0.047 0.653 0.756 109 51 37 0 0
-2.6379 4.2782 -12.4662 0.122 0.700 0.704 110 52 37 0 0
-2.4289 4.3751 -12.4986 0.031 0.463 0.886 114 52 39 0 0
-2.3912 4.3944 -12.5377 0.248 0.496 0.832 111 49 33 0 0
-2.3784 4.4016 -12.5628 0.227 0.524 0.821 110 48 31 0 0
-1.9902 4.6425 -13.7158 0.821 0.411 0.396 103 49 22 0 0
-1.9132 4.7541 -15.0888 0.351 -0.263 0.899 91 33 19 0 0
-1.8210 4.7951 -15.0719 -0.018 0.997 0.078 92 33 19 0 0
-1.4657 4.9534 -15.0140 -0.201 0.684 0.701 78 46 38 0 0
-1.4329 4.9686 -15.0194 -0.291 0.592 0.752 76 49 46 0 0
-1.4944 4.9495 -15.1781 0.702 0.609 -0.369 27 17 18 0 0
-1.6113 4.9290 -15.7630 0.472 0.748 0.468 53 44 45 0 0
-1.6397 4.9231 -15.8885 0.594 0.752 0.287 51 39 38 0 0
-1.6324 4.9414 -16.1575 0.598 0.565 0.568 32 15 13 0 0
-2.6883 4.2208 -12.4125 -0.004 0.684 0.730 110 51 38 0 0
-2.6490 4.2409 -12.4507 0.479 0.608 0.633 112 53 37 0 0
-1.9699 4.5688 -12.7859 0.097 0.773 0.627 92 40 29 0 0
-1.9976 4.5637 -12.9246 0.936 0.242 -0.257 101 58 46 0 0
-1.9606 4.6251 -13.7388 0.590 0.596 0.545 107 52 23 0 0
-1.9966 4.6602 -14.6805 0.050 0.925 0.376 32 4 1 0 0
-2.0897 4.6422 -15.1270 -0.109 -0.277 0.955 88 32 17 0 0
-2.0340 4.6666 -15.1087 0.066 0.359 0.931 89 32 18 0 0
-1.7917 4.7741 -15.0547 -0.208 0.946 0.249 92 33 19 0 0
-1.6018 4.8972 -15.7232 0.600 0.697 0.393 55 46 47 0 0
-1.5898 4.9044 -15.7543 0.600 0.697 0.393 53 44 45 0 0
-1.5737 4.9132 -15.7805 0.632 0.553 0.543 53 44 45 0 0
-2.4146 4.3176 -12.4719 0.424 0.050 0.904 116 53 38 0 0
-2.3584 4.3445 -12.4943 -0.088 0.175 0.981 114 52 37 0 0
-2.3177 4.3631 -12.4940 -0.088 0.175 0.981 115 50 35 0 0
-1.9939 4.5366 -12.9710 0.823 0.535 -0.191 94 46 32 0 0
-2.0106 4.5319 -13.0249 0.764 0.645 0.005 70 32 19 0 0
-2.0103 4.5631 -13.6045 0.693 0.485 0.533 91 49 30 0 0
-1.8897 4.6727 -14.6214 0.151 0.010 0.989 37 8 4 0 0
-2.0008 4.6376 -14.9140 -0.177 0.858 0.482 82 24 11 0 0
-1.6065 4.8551 -15.6097 0.820 0.540 0.190 50 43 45 0 0
-1.5982 4.8608 -15.6451 0.686 0.628 0.368 54 52 54 0 0
-1.5871 4.8676 -15.6772 0.686 0.628 0.368 44 40 42 0 0
-1.5802 4.8727 -15.7144 0.739 0.487 0.467 36 27 29 0 0
-1.5660 4.8808 -15.7428 0.501 0.517 0.694 32 24 25 0 0
-1.5857 4.8755 -15.8122 0.746 0.491 0.449 32 27 27 0 0
-0.5450 5.4116 -16.9400 0.798 0.413 -0.439 199 199 201 0 0
-2.5741 4.2117 -12.4434 -0.177 0.753 0.633 115 53 40 0 0
-2.1052 4.4273 -12.4572 0.522 0.513 0.682 114 47 30 0 0
-1.9696 4.5158 -12.9599 0.787 0.593 -0.173 86 43 31 0 0
-1.9913 4.5090 -13.0187 0.764 0.645 0.005 45 15 10 0 0
-1.9949 4.5095 -13.0601 0.751 0.657 0.063 32 14 13 0 0
-1.9939 4.5119 -13.0972 0.751 0.657 0.063 28 14 10 0 0
-2.0168 4.5249 -13.5456 0.793 0.454 0.405 53 17 5 0 0
-1.8757 4.6461 -14.6211 0.104 0.175 0.979 35 7 2 0 0
-1.5884 4.8365 -15.7412 0.819 0.527 0.229 17 8 9 0 0
-1.5826 4.8412 -15.7799 0.746 0.491 0.449 17 8 8 0 0
-1.5693 4.8488 -15.8097 0.660 0.534 0.528 15 9 9 0 0
-2.5607 4.1845 -12.4063 -0.003 0.912 0.410 115 53 40 0 0
-2.0879 4.4041 -12.4529 0.522 0.513 0.682 116 48 32 0 0
-2.0705 4.4131 -12.4733 0.466 0.621 0.630 113 44 28 0 0
-1.9338 4.5017 -12.9755 0.369 0.924 0.100 35 12 6 0 0
-2.1564 4.4225 -13.4232 0.818 -0.342 0.464 22 10 6 0 0
-2.0309 4.4798 -13.4161 0.764 0.529 0.368 21 8 5 0 0
-2.0006 4.5002 -13.5425 0.831 0.409 0.379 35 6 2 0 0
-1.9306 4.5873 -14.6112 0.019 0.241 0.970 100 43 24 0 0
-1.5707 4.8105 -15.7371 0.723 0.639 0.261 20 9 9 0 0
-1.5670 4.8143 -15.7782 0.687 0.501 0.526 21 11 10 0 0
-1.5519 4.8226 -15.8058 0.687 0.501 0.526 17 10 8 0 0
-1.5403 4.8296 -15.8376 0.746 0.491 0.449 18 9 9 0 0
-2.3397 4.2601 -12.5117 0.313 0.598 0.738 122 58 42 0 0
-2.0942 4.3711 -12.4702 0.518 0.032 0.855 116 47 31 0 0
-2.0532 4.3899 -12.4689 0.522 0.513 0.682 114 45 29 0 0
-2.1903 4.3712 -13.3524 0.919 -0.311 -0.243 19 9 8 0 0
-1.8952 4.5279 -13.7659 0.713 0.531 0.458 125 70 42 0 0
-1.8566 4.5828 -14.5036 -0.328 0.679 0.657 96 34 13 0 0
-1.9498 4.5471 -14.6471 0.590 0.322 0.741 96 37 17 0 0
-1.5566 4.7807 -15.6917 0.666 0.717 0.205 36 30 29 0 0
-1.5199 4.8046 -15.8303 0.687 0.501 0.526 29 20 21 0 0
-1.4949 4.8403 -16.3126 0.661 0.314 0.682 22 14 13 0 0
-1.4178 4.8805 -16.4058 0.502 0.449 0.739 27 16 15 0 0
-2.3503 4.2213 -12.4596 0.096 0.692 0.715 120 54 38 0 0
-1.8226 4.5360 -13.9054 0.551 0.768 0.327 76 23 13 0 0
-2.0836 4.4515 -14.6371 0.155 -0.019 0.988 68 13 5 0 0
-1.9376 4.5153 -14.5642 -0.289 0.221 0.932 86 30 16 0 0
-1.8795 4.5412 -14.5433 -0.106 0.239 0.965 94 31 11 0 0
-1.8797 4.5452 -14.6281 0.821 0.499 0.278 59 12 4 0 0
-1.5317 4.7621 -15.7701 0.724 0.589 0.360 115 109 106 0 0
-1.5207 4.7687 -15.8027 0.670 0.605 0.429 110 104 104 0 0
-1.4916 4.7850 -15.8594 0.590 0.710 0.385 33 24 25 0 0
-1.4804 4.7917 -15.8918 0.530 0.757 0.382 18 11 11 0 0
-1.4870 4.8075 -16.2735 0.733 0.449 0.512 28 17 17 0 0
-1.4704 4.8164 -16.3002 0.774 0.348 0.530 28 17 16 0 0
-2.3217 4.2024 -12.4452 0.096 0.692 0.715 121 55 39 0 0
-2.3030 4.2120 -12.4648 0.448 0.817 0.363 121 55 39 0 0
-1.7554 4.4747 -12.6534 0.206 0.412 0.887 77 20 13 0 0
-2.1735 4.3114 -13.2840 0.588 0.511 -0.627 8 4 6 0 0
-2.2051 4.3001 -13.3536 0.592 0.568 -0.572 8 4 5 0 0
-1.9510 4.4282 -13.5717 0.675 0.416 0.609 29 8 3 0 0
-1.8816 4.4938 -14.2679 -0.360 0.741 0.567 112 44 20 0 0
-1.9258 4.4897 -14.6086 0.934 -0.195 0.300 89 26 10 0 0
-1.8723 4.5157 -14.6351 0.693 0.408 0.594 73 20 9 0 0
-1.4983 4.7380 -15.6559 0.589 0.804 0.083 62 58 56 0 0
-1.4995 4.7642 -16.2128 0.767 0.305 0.565 34 17 17 0 0
-1.4797 4.7744 -16.2353 0.736 0.186 0.652 31 16 16 0 0
-1.4544 4.7892 -16.2983 0.849 0.323 0.418 35 19 17 0 0
-1.4518 4.8300 -17.1221 0.771 0.597 -0.220 134 132 131 0 0
-1.0694 4.9947 -16.8643 0.366 0.582 0.726 173 173 174 0 0
-3.7578 3.5079 -12.5186 -0.475 0.365 0.801 101 70 64 0 0
-2.2935 4.1835 -12.4310 0.106 0.649 0.753 121 55 39 0 0
-2.1504 4.2914 -13.3130 0.548 0.622 -0.560 9 3 5 0 0
-1.8021 4.4965 -14.2388 -0.200 0.859 0.471 113 41 14 0 0
-1.4660 4.7244 -15.7711 0.541 0.785 0.302 130 127 125 0 0
-1.4561 4.7306 -15.8049 0.541 0.785 0.302 124 120 118 0 0
-1.5330 4.7125 -16.1780 0.659 0.541 0.523 42 31 30 0 0
-1.4685 4.7431 -16.1922 0.830 0.477 0.288 36 18 16 0 0
-3.7037 3.4983 -12.4848 -0.450 0.340 0.826 100 62 54 0 0
-2.2170 4.2336 -13.4301 0.676 0.721 -0.153 5 2 4 0 0
-2.2734 4.2116 -13.5248 0.958 -0.288 -0.014 5 2 3 0 0
-2.2503 4.2232 -13.5414 0.921 -0.217 0.323 6 2 3 0 0
-1.7889 4.4494 -13.7910 0.501 0.635 0.588 112 66 42 0 0
-1.7478 4.4721 -13.8688 0.721 0.469 0.510 73 14 5 0 0
-1.4978 4.6930 -16.1524 0.216 0.871 0.442 44 34 35 0 0
-1.4662 4.7081 -16.1603 0.402 0.903 0.149 37 21 20 0 0
-1.4584 4.7156 -16.2450 0.682 0.611 0.402 45 27 26 0 0
-3.3243 3.6418 -12.4743 -0.094 0.460 0.883 110 52 43 0 0
-2.5036 4.0257 -12.4965 0.361 0.193 0.913 120 54 40 0 0
-2.2686 4.1817 -13.5331 0.885 -0.211 0.416 5 2 3 0 0
-2.1092 4.2614 -13.6520 0.544 0.695 0.470 17 7 8 0 0
-1.7324 4.4468 -13.8666 0.813 0.311 0.493 75 14 4 0 0
-2.1312 4.1652 -12.4273 0.102 0.222 0.970 122 55 38 0 0
-2.0501 4.2030 -12.4260 0.079 0.293 0.953 118 51 32 0 0
-2.2078 4.1755 -13.4863 0.393 -0.585 0.709 4 2 3 0 0
-2.2139 4.1746 -13.5317 -0.169 0.132 0.977 6 2 3 0 0
-1.7504 4.4039 -13.8187 0.682 0.281 0.676 104 57 33 0 0
-1.6743 4.4538 -14.1452 -0.186 0.791 0.583 87 23 6 0 0
-1.0234 4.7832 -14.7174 0.269 0.056 0.961 93 51 39 0 0
-1.0702 4.8350 -16.4074 0.099 0.975 -0.199 55 33 31 0 0
-3.6692 3.4151 -12.4889 -0.192 0.127 0.973 104 55 48 0 0
-2.5701 3.9298 -12.4684 -0.028 0.607 0.794 118 52 36 0 0
-2.1329 4.1337 -12.4404 0.335 0.706 0.624 121 53 36 0 0
-1.5838 4.3974 -12.5857 0.565 0.428 0.706 72 16 9 0 0
-2.3434 4.0873 -13.6729 0.680 0.084 0.728 5 2 3 0 0
-1.7461 4.3655 -13.6280 0.459 0.889 0.004 100 40 15 0 0
-1.6325 4.4395 -14.1147 -0.171 0.770 0.615 81 22 5 0 0
-1.6029 4.4538 -14.1240 -0.136 0.771 0.622 108 40 16 0 0
-1.1595 4.6852 -14.6775 -0.087 0.323 0.942 84 28 14 0 0
-1.0319 4.7589 -15.0032 0.702 0.668 -0.245 61 43 43 0 0
-3.7427 3.3473 -12.4862 -0.293 0.261 0.920 100 55 48 0 0
-2.0498 4.1402 -12.4122 0.075 0.348 0.935 120 52 33 0 0
-2.3462 4.0537 -13.6890 0.841 -0.108 0.530 5 3 4 0 0
-1.6775 4.3632 -13.5709 -0.276 0.525 0.805 88 27 8 0 0
-1.7168 4.3497 -13.6910 0.591 0.800 -0.099 117 69 42 0 0
-1.6769 4.3751 -13.8502 0.588 0.311 0.747 98 44 20 0 0
-1.6590 4.3844 -13.8718 0.423 0.362 0.831 86 22 12 0 0
-1.3120 4.6411 -16.1345 0.877 0.160 0.452 59 36 34 0 0
-1.3223 4.6506 -16.4811 0.303 0.952 0.043 38 16 13 0 0
-1.1847 4.7301 -16.8387 0.563 0.804 -0.193 75 52 46 0 0
-2.5323 3.8819 -12.4207 -0.031 0.770 0.637 118 52 36 0 0
-2.5119 3.8922 -12.4393 -0.003 0.667 0.745 119 53 37 0 0
-1.9918 4.1361 -12.4069 0.205 0.237 0.950 121 53 34 0 0
-1.9660 4.1488 -12.4196 0.325 0.146 0.934 121 53 34 0 0
-2.3819 4.0042 -13.6976 0.886 0.404 0.229 14 10 11 0 0
-2.3626 4.0141 -13.7186 0.979 0.035 0.202 8 4 5 0 0
-1.6797 4.3404 -13.8267 0.449 0.822 0.351 109 63 37 0 0
-1.7461 4.3455 -14.7304 0.615 0.720 0.322 34 3 0 0 0
-1.3457 4.5781 -15.8209 0.620 0.715 0.323 51 45 49 0 0
-1.3208 4.5923 -15.8829 0.651 0.713 0.260 46 40 42 0 0
-1.2998 4.6124 -16.1374 0.789 0.257 0.558 63 40 38 0 0
-1.2831 4.6214 -16.1635 0.359 0.073 0.930 42 20 17 0 0
-1.3051 4.6140 -16.2386 0.396 0.767 0.506 36 17 13 0 0
-1.2967 4.6195 -16.2755 -0.046 0.808 0.587 39 17 14 0 0
-0.7772 4.8938 -17.0061 0.337 -0.503 0.796 187 188 190 0 0
-3.8604 3.2251 -12.4930 -0.319 0.250 0.914 100 55 49 0 0
-3.7366 3.2826 -12.4658 -0.318 0.177 0.931 102 54 46 0 0
-2.4073 3.9081 -12.3938 -0.065 0.441 0.895 119 53 37 0 0
-1.9530 4.1238 -12.4192 0.394 0.101 0.913 121 53 34 0 0
-2.2997 4.0088 -13.6695 0.643 0.573 0.508 14 8 10 0 0
-1.6190 4.3379 -13.8577 0.379 0.637 0.671 93 36 14 0 0
-1.5358 4.3849 -14.0540 -0.171 0.555 0.814 65 15 6 0 0
-1.1779 4.6266 -15.9091 0.326 0.564 0.759 61 45 45 0 0
-1.3013 4.5799 -16.2046 0.098 0.721 0.686 45 23 18 0 0
-1.2791 4.5911 -16.2241 0.182 0.714 0.676 41 21 15 0 0
-1.2490 4.6057 -16.2336 -0.066 0.685 0.726 44 20 17 0 0
-1.2381 4.6140 -16.3149 0.545 0.683 0.486 51 26 22 0 0
-3.8756 3.1853 -12.5163 -0.014 -0.070 0.997 101 55 46 0 0
-3.8134 3.2142 -12.5026 -0.250 0.101 0.963 102 54 45 0 0
-3.8499 3.1995 -12.5700 0.162 -0.526 0.835 103 53 44 0 0
-2.1983 3.9798 -12.5099 0.220 0.177 0.959 120 52 33 0 0
-1.4613 4.3292 -12.5155 0.053 0.870 0.490 70 14 3 0 0
-2.3132 3.9719 -13.7364 0.936 0.162 0.314 11 6 8 0 0
-1.6142 4.3237 -14.2774 -0.146 0.177 0.973 113 48 17 0 0
-1.1787 4.5910 -15.8815 0.510 0.455 0.730 36 22 22 0 0
-1.2732 4.5596 -16.2351 0.114 0.905 0.410 45 26 22 0 0
-1.2082 4.5891 -16.2002 0.143 0.332 0.932 46 23 20 0 0
-1.1753 4.6050 -16.2059 0.087 0.246 0.965 47 23 19 0 0
-1.1671 4.6102 -16.2430 0.104 0.453 0.886 51 27 23 0 0
-1.0806 4.6524 -16.2753 0.384 0.658 0.648 46 19 15 0 0
-1.0417 4.6892 -16.7575 0.464 0.646 0.606 78 57 52 0 0
-3.8607 3.1586 -12.5150 -0.135 0.391 0.910 103 54 45 0 0
-2.2837 3.9522 -13.7205 0.529 0.296 0.795 13 8 10 0 0
-1.7972 4.1829 -13.7088 0.083 0.407 0.910 35 9 5 0 0
-1.5184 4.3270 -14.0230 0.351 0.727 0.591 102 45 26 0 0
-1.6329 4.2848 -14.3543 0.652 0.633 0.416 108 42 15 0 0
-1.1022 4.5785 -15.4834 0.319 0.911 -0.262 33 19 19 0 0
-1.2148 4.5524 -16.2270 0.325 0.857 0.401 49 30 24 0 0
-1.1569 4.5790 -16.2009 0.087 0.246 0.965 48 27 22 0 0
-1.1473 4.5848 -16.2362 0.182 0.464 0.867 50 29 24 0 0
-1.0120 4.6479 -16.2055 0.544 -0.229 0.807 43 17 14 0 0
-1.0493 4.6517 -16.7871 0.692 0.722 -0.023 79 57 52 0 0
-2.1329 3.9463 -12.4732 -0.081 0.432 0.898 123 52 34 0 0
-2.0554 4.0258 -13.6653 -0.675 0.268 0.688 10 4 5 0 0
-1.5762 4.2580 -13.7737 0.380 0.814 0.441 80 17 8 0 0
-0.8753 4.6263 -14.7406 0.796 0.423 0.433 88 34 22 0 0
-1.1668 4.5257 -15.8095 0.578 0.686 0.443 31 14 10 0 0
-1.1135 4.5654 -16.2116 0.385 0.019 0.923 49 32 27 0 0
-1.5816 4.2279 -13.9150 0.740 0.208 0.639 116 65 38 0 0
-0.8676 4.5976 -14.7475 0.779 0.299 0.552 92 36 24 0 0
-4.4733 2.7641 -12.5154 0.741 -0.671 0.032 213 215 214 0 0
-1.7855 4.0918 -13.7379 0.477 -0.388 0.789 30 9 6 0 0
-1.5266 4.2121 -13.6290 0.474 0.880 0.018 97 37 12 0 0
-1.5303 4.2117 -13.6729 0.514 0.852 0.096 139 86 45 0 0
-0.9114 4.5610 -15.2563 0.649 0.639 0.412 50 30 28 0 0
-0.8416 4.6319 -16.3753 0.701 0.650 0.293 58 45 45 0 0
-4.5341 2.7023 -12.5740 0.737 -0.675 0.032 213 215 214 0 0
-4.5565 2.6934 -12.6297 0.742 -0.664 0.094 210 213 213 0 0
-3.9619 2.9755 -12.5290 -0.137 0.075 0.988 104 52 43 0 0
-1.5008 4.1931 -13.6558 0.581 0.798 -0.161 130 76 39 0 0
-4.6062 2.6338 -12.6038 0.763 -0.646 0.025 212 214 213 0 0
-4.6027 2.6366 -12.6390 0.763 -0.646 0.025 212 214 213 0 0
-1.3947 4.1811 -12.6719 0.728 0.527 0.438 87 26 15 0 0
-1.4629 4.1782 -13.6298 0.591 0.766 -0.252 111 55 22 0 0
-1.1942 4.3464 -14.8766 -0.528 0.728 0.438 73 20 12 0 0
-4.6506 2.5789 -12.6496 0.775 -0.632 -0.001 210 212 214 0 0
-4.6480 2.5812 -12.6857 0.763 -0.646 0.025 207 206 205 0 0
-1.3871 4.1539 -12.6768 0.706 0.394 0.588 84 21 11 0 0
-1.3852 4.1559 -12.7123 0.130 0.382 0.915 93 42 29 0 0
-1.5054 4.1483 -14.3880 -0.379 0.409 0.830 108 41 16 0 0
-0.8019 4.5490 -16.4286 0.617 0.434 0.656 75 47 46 0 0
-4.6939 2.5242 -12.6946 0.797 -0.602 -0.049 207 208 207 0 0
-1.8927 3.8712 -12.4316 0.670 0.367 0.645 124 51 34 0 0
-1.4560 4.0885 -12.6448 0.237 0.933 0.271 85 26 8 0 0
-1.3860 4.1225 -12.6508 0.620 0.695 0.364 81 17 9 0 0
-1.3513 4.1887 -14.3586 0.099 0.564 0.820 85 23 11 0 0
-1.4588 4.1527 -14.9093 0.400 0.137 0.906 51 15 8 0 0
-1.3466 4.2057 -14.8675 0.401 0.602 0.690 62 18 9 0 0
-1.3454 4.2075 -14.9098 0.560 0.390 0.731 66 19 10 0 0
-0.7815 4.5225 -16.3724 0.535 0.068 0.842 72 51 48 0 0
-0.7637 4.5319 -16.3972 0.609 0.247 0.753 78 50 47 0 0
-4.7375 2.4680 -12.7016 0.798 -0.601 -0.049 207 208 208 0 0
-1.8951 3.8379 -12.4088 0.586 0.326 0.742 126 53 36 0 0
-1.8794 3.8461 -12.4310 0.670 0.367 0.645 124 51 34 0 0
-1.8758 3.8488 -12.4645 0.703 0.474 0.530 124 51 34 0 0
-1.3601 4.1046 -12.6750 0.172 0.809 0.562 84 17 8 0 0
-1.4804 4.0757 -13.7301 0.275 0.960 0.056 111 53 23 0 0
-1.3217 4.1838 -14.8548 0.520 0.715 0.468 60 17 10 0 0
-0.8250 4.4676 -16.4006 0.541 -0.223 0.811 69 49 47 0 0
-0.7731 4.4922 -16.3805 0.316 0.199 0.928 76 52 47 0 0
-0.9364 4.4287 -16.9439 0.593 0.805 -0.016 99 94 90 0 0
-4.5400 2.5258 -12.5946 -0.499 0.280 0.820 144 135 129 0 0
-1.5785 3.9605 -12.4168 0.297 0.423 0.856 121 48 31 0 0
-1.3824 4.0616 -12.6346 0.387 0.659 0.645 73 14 3 0 0
-1.4395 4.0622 -13.7009 0.275 0.960 0.056 94 33 9 0 0
-1.2854 4.1535 -14.3152 0.003 0.698 0.716 100 31 16 0 0
-0.7674 4.4594 -16.3437 0.929 0.294 0.224 75 51 47 0 0
-0.7595 4.4642 -16.3817 0.213 0.397 0.892 80 52 47 0 0
-4.4740 2.5219 -12.5531 -0.499 0.280 0.820 110 92 86 0 0
-2.1946 3.6281 -12.3761 0.412 0.278 0.868 124 53 35 0 0
-2.1068 3.6716 -12.4066 0.550 0.594 0.586 124 53 35 0 0
-1.3477 4.0724 -13.6176 0.215 0.959 0.183 84 23 3 0 0
-1.2769 4.1238 -14.2788 -0.042 0.578 0.815 107 41 14 0 0
-1.2628 4.1313 -14.3051 0.045 0.859 0.510 106 36 17 0 0
-1.3728 4.0929 -14.9021 0.426 0.894 0.140 41 11 8 0 0
-1.2893 4.1334 -14.8931 0.441 0.157 0.884 56 16 8 0 0
-1.2251 4.1673 -14.9937 0.542 0.838 0.063 64 17 8 0 0
-0.7586 4.4088 -15.5502 0.900 0.387 0.200 36 22 21 0 0
-0.7520 4.4129 -15.5879 0.900 0.387 0.200 40 26 26 0 0
-0.6733 4.4570 -15.8117 0.557 0.789 0.261 56 43 43 0 0
-4.4208 2.5122 -12.5216 -0.458 0.243 0.855 101 75 68 0 0
-1.3237 4.0271 -12.6015 0.268 0.561 0.783 105 53 23 0 0
-1.2602 4.1146 -14.9191 0.510 0.312 0.801 58 15 8 0 0
-0.8365 4.3679 -16.8191 0.679 0.049 0.733 88 78 73 0 0
-4.4612 2.4586 -12.5645 -0.377 0.184 0.908 101 67 58 0 0
-4.3818 2.4969 -12.5393 -0.377 0.184 0.908 102 61 55 0 0
-1.2323 4.0415 -12.6355 0.054 0.741 0.669 82 19 6 0 0
-1.3089 4.0283 -13.6847 0.558 0.830 0.028 136 79 37 0 0
-1.2455 4.0880 -14.9182 0.510 0.312 0.801 53 14 7 0 0
-0.6394 4.3979 -15.4808 0.882 0.439 0.170 53 31 29 0 0
-1.8935 3.6804 -12.3923 0.427 0.440 0.790 124 51 32 0 0
-1.2500 4.0007 -12.5908 0.166 0.636 0.754 77 21 5 0 0
-1.2225 4.0152 -12.6382 0.189 0.741 0.645 82 17 7 0 0
-1.2055 4.0437 -13.5483 0.050 0.921 0.386 82 25 6 0 0
-1.2973 4.0035 -13.7673 0.709 0.692 0.131 85 27 7 0 0
-1.2830 4.0110 -13.7926 0.408 0.764 0.501 74 18 10 0 0
-1.2801 4.0133 -13.8302 0.581 0.505 0.638 100 47 28 0 0
-1.2523 4.0525 -14.9864 0.675 0.732 0.096 56 13 6 0 0
-0.6740 4.3377 -15.0453 0.845 0.123 0.520 67 17 9 0 0
-1.7157 3.7361 -12.3853 0.316 0.229 0.921 124 49 30 0 0
-1.2402 3.9745 -12.5935 0.509 0.238 0.827 87 32 15 0 0
-1.2021 3.9940 -12.6303 0.376 0.760 0.530 81 16 7 0 0
-1.2346 4.0058 -13.9590 0.935 -0.102 0.340 72 13 3 0 0
-1.7895 3.6683 -12.3926 0.191 -0.039 0.981 125 51 32 0 0
-1.2633 3.9558 -13.8000 0.841 0.269 0.470 71 17 3 0 0
-1.2681 3.9543 -13.8459 0.790 0.062 0.610 79 20 8 0 0
-1.2070 4.0066 -14.9659 0.704 0.710 -0.002 44 11 5 0 0
-4.7069 2.1969 -12.5725 -0.202 0.252 0.947 205 204 204 0 0
-4.6533 2.2233 -12.5687 -0.286 0.355 0.890 165 155 152 0 0
-2.0588 3.5035 -12.3955 0.218 0.204 0.954 125 52 35 0 0
-1.2768 3.9155 -13.7474 0.685 0.655 0.318 126 72 37 0 0
-1.2665 3.9212 -13.7770 0.609 0.559 0.562 122 68 29 0 0
-1.2518 3.9297 -13.8426 0.719 0.586 0.373 79 20 10 0 0
-1.1601 3.9762 -13.9065 0.788 0.450 0.420 80 15 3 0 0
-1.1313 4.0040 -14.6320 0.090 0.561 0.823 67 21 12 0 0
-1.1006 4.0193 -14.6396 -0.056 0.409 0.911 87 40 26 0 0
-1.0679 4.0356 -14.6449 -0.056 0.409 0.911 58 20 14 0 0
-1.0605 4.0399 -14.6796 0.125 0.754 0.645 26 3 2 0 0
-4.5812 2.2229 -12.5229 -0.318 0.431 0.844 136 121 117 0 0
-4.5053 2.2601 -12.5012 -0.206 0.475 0.856 103 74 68 0 0
-1.5270 3.7357 -12.4265 0.396 0.074 0.915 127 51 31 0 0
-1.4979 3.7503 -12.4356 0.325 0.733 0.597 128 52 31 0 0
-1.4056 3.8091 -13.1798 -0.166 0.980 -0.106 52 46 47 0 0
-1.2439 3.8996 -13.7669 0.969 0.122 0.214 126 72 37 0 0
-1.2303 3.9068 -13.7929 0.918 0.129 0.374 97 42 18 0 0
-1.2364 3.9046 -13.8404 0.733 0.583 0.350 70 13 2 0 0
-1.1574 3.9451 -13.9181 0.738 0.554 0.384 81 18 2 0 0
-1.0771 3.9974 -14.6283 -0.056 0.409 0.911 81 34 22 0 0
-1.0562 4.0081 -14.6473 0.117 0.549 0.828 83 36 23 0 0
-1.0365 4.0182 -14.6677 0.154 0.601 0.784 44 12 5 0 0
-4.4683 2.2430 -12.4828 -0.206 0.475 0.856 101 67 63 0 0
-1.4738 3.7307 -12.4245 0.325 0.733 0.597 128 52 30 0 0
-1.0669 3.9374 -12.6952 0.142 0.550 0.823 91 42 33 0 0
-1.5251 3.7250 -13.6343 -0.182 0.604 0.776 9 3 3 0 0
-1.2276 3.8750 -13.7637 0.939 0.337 0.068 130 79 46 0 0
-1.2209 3.8789 -13.7971 0.930 0.074 0.360 102 51 17 0 0
-1.2199 3.8801 -13.8368 0.702 0.600 0.383 76 20 4 0 0
-1.1887 3.8983 -14.0085 0.874 0.195 0.445 75 14 3 0 0
-1.0548 3.9749 -14.6183 0.138 0.586 0.799 79 33 25 0 0
-1.0304 3.9872 -14.6332 0.491 0.825 0.279 87 38 20 0 0
-1.0196 3.9931 -14.6639 0.489 0.392 0.779 74 31 16 0 0
-0.5666 4.2357 -15.7267 0.778 0.574 0.254 86 50 43 0 0
-2.0286 3.4219 -12.3659 0.407 0.143 0.902 124 52 33 0 0
-1.3151 3.7791 -12.4682 0.553 0.458 0.696 120 40 19 0 0
-1.0404 3.9192 -12.6811 0.322 0.312 0.894 91 43 31 0 0
-1.2214 3.8456 -13.7712 0.469 0.877 0.102 128 80 44 0 0
-1.2161 3.8487 -13.8063 0.479 0.842 0.249 119 69 36 0 0
-1.2069 3.8538 -13.8372 0.409 0.878 0.248 81 26 10 0 0
-1.0308 3.9532 -14.6063 -0.060 0.554 0.830 66 22 16 0 0
-0.9986 3.9694 -14.6121 0.415 0.885 0.211 77 31 20 0 0
-0.9928 3.9728 -14.6486 0.479 0.787 0.389 93 44 30 0 0
-0.7510 4.1037 -15.3335 0.233 -0.624 0.746 53 15 11 0 0
-1.4003 3.7045 -12.4149 0.157 0.178 0.971 123 43 21 0 0
-1.0262 3.8951 -12.6795 0.583 0.167 0.795 93 38 27 0 0
-1.1758 3.8346 -13.6956 0.614 0.789 -0.019 83 22 2 0 0
-1.1887 3.8289 -13.7503 0.376 0.901 0.218 124 70 32 0 0
-1.1817 3.8329 -13.7834 0.437 0.866 0.243 125 77 41 0 0
-1.1763 3.8361 -13.8184 0.526 0.834 0.164 93 38 17 0 0
-0.7344 4.0787 -15.3757 -0.134 0.542 0.829 49 14 8 0 0
-0.7163 4.0881 -15.3988 -0.156 0.624 0.766 49 14 8 0 0
-0.6797 4.1070 -15.4443 0.943 0.267 0.196 49 14 10 0 0
-4.5246 2.1072 -12.3319 0.951 -0.006 -0.310 214 214 214 0 0
-1.2697 3.7394 -12.4855 0.613 0.418 0.670 127 46 24 0 0
-1.1425 3.8195 -13.7552 0.200 0.907 0.370 136 88 44 0 0
-1.0500 3.8855 -15.2814 0.117 0.901 0.417 48 13 7 0 0
-0.6613 4.0828 -15.4847 -0.335 0.829 0.448 45 13 10 0 0
-0.5704 4.1304 -15.6464 0.950 -0.274 0.152 43 17 13 0 0
-0.2292 4.3159 -16.7835 -0.298 -0.353 0.887 179 180 182 0 0
-4.3060 2.1834 -12.4731 0.126 0.443 0.888 105 55 47 0 0
-2.0013 3.3394 -12.3759 0.653 0.339 0.677 129 56 40 0 0
-1.9677 3.3564 -12.3819 0.267 0.607 0.748 123 50 33 0 0
-1.7437 3.4694 -12.4327 0.657 0.385 0.648 130 55 36 0 0
-0.9983 3.8475 -12.7522 0.781 0.623 0.029 93 55 46 0 0
-1.4707 3.6201 -13.5926 0.369 0.852 -0.372 9 3 3 0 0
-1.1019 3.8064 -13.6848 0.157 0.972 0.176 96 30 5 0 0
-1.0998 3.8079 -13.7231 0.119 0.967 0.223 135 86 40 0 0
-1.0149 3.8607 -14.5923 0.345 -0.189 0.920 62 10 6 0 0
-1.0353 3.8580 -15.2354 0.665 0.521 0.536 42 11 5 0 0
-2.1843 3.2151 -12.3695 0.113 -0.154 0.982 123 51 35 0 0
-1.9533 3.3315 -12.3804 0.241 0.386 0.891 125 52 34 0 0
-1.0182 3.8323 -15.2317 0.665 0.521 0.536 37 10 4 0 0
-1.0113 3.8362 -15.2686 0.548 0.223 0.806 42 12 5 0 0
-0.6157 4.0393 -15.6479 0.891 0.310 -0.331 40 15 11 0 0
-4.2933 2.1192 -12.4467 0.304 0.213 0.929 103 55 46 0 0
-2.4317 3.0576 -12.3439 -0.123 0.169 0.978 122 53 37 0 0
-1.3993 3.5797 -12.4624 0.340 0.387 0.857 128 50 28 0 0
-1.1835 3.7087 -14.6023 -0.429 0.381 0.819 116 41 19 0 0
-1.0609 3.7775 -15.3460 0.804 0.044 0.593 35 9 3 0 0
-0.9007 3.8617 -15.7016 0.759 -0.096 0.644 42 13 9 0 0
-0.6990 3.9629 -15.6326 0.913 -0.392 -0.110 41 14 10 0 0
-4.5239 1.9668 -12.3736 0.792 0.319 -0.520 211 213 212 0 0
-2.4891 2.9961 -12.3692 0.491 0.173 0.854 120 51 35 0 0
-1.9035 3.2922 -12.3578 0.122 0.684 0.720 120 49 29 0 0
-1.7228 3.3840 -12.4117 0.279 0.626 0.728 127 50 30 0 0
-1.3827 3.5564 -12.4585 0.340 0.387 0.857 129 51 29 0 0
-1.1772 3.6603 -12.4438 0.529 -0.154 0.835 118 37 16 0 0
-0.9208 3.7925 -12.7495 -0.074 0.926 0.371 96 58 46 0 0
-0.9646 3.7799 -13.9050 0.603 0.390 0.696 86 30 9 0 0
-0.9384 3.7932 -13.9172 0.439 0.345 0.830 74 19 10 0 0
-0.9611 3.7953 -15.5623 0.996 0.076 0.050 43 14 8 0 0
-0.9315 3.8103 -15.5719 0.864 -0.462 0.198 43 14 9 0 0
-0.7590 3.8989 -15.7272 0.854 -0.501 -0.143 39 14 10 0 0
-0.6576 3.9574 -16.6077 0.809 -0.467 0.356 93 92 90 0 0
-1.4594 3.4855 -12.3960 0.340 0.387 0.857 128 47 26 0 0
-1.4127 3.5094 -12.4254 0.340 0.387 0.857 126 48 26 0 0
-0.9311 3.7642 -13.9239 0.491 0.666 0.562 78 23 10 0 0
-0.9501 3.7598 -14.6676 0.508 0.329 0.796 67 12 5 0 0
-0.9198 3.7752 -14.6756 0.802 0.494 0.336 66 13 5 0 0
-0.8548 3.8166 -15.8678 0.885 -0.442 -0.149 37 13 10 0 0
-0.8274 3.8310 -15.9275 0.653 -0.668 0.357 37 16 13 0 0
-0.7951 3.8474 -15.9336 0.393 -0.569 0.722 38 19 16 0 0
-0.7637 3.8634 -15.9405 0.364 -0.621 0.694 38 22 20 0 0
-0.8946 3.7501 -13.9393 0.368 0.688 0.625 74 20 14 0 0
-0.9099 3.7469 -14.7238 0.843 0.066 0.533 70 15 7 0 0
-0.9738 3.7192 -15.5210 0.960 0.083 0.268 34 9 5 0 0
-0.8773 3.7705 -15.9150 0.831 -0.552 0.063 34 13 11 0 0
-0.8488 3.7854 -15.9736 0.653 -0.668 0.357 37 18 16 0 0
-0.8018 3.8092 -15.9608 0.636 -0.695 0.335 37 21 19 0 0
-0.7032 3.8631 -16.6099 0.700 0.044 0.713 93 90 89 0 0
-0.6539 3.8884 -16.6428 0.394 -0.458 0.797 99 98 96 0 0
-4.5945 1.8253 -12.5755 0.556 0.796 -0.238 99 71 66 0 0
-2.4383 2.9229 -12.3214 0.438 -0.032 0.898 120 51 35 0 0
-2.2459 3.0210 -12.3348 0.462 0.599 0.653 125 53 38 0 0
-2.1926 3.0485 -12.3981 0.596 0.677 0.432 125 58 41 0 0
-0.8759 3.7268 -13.9332 0.556 0.579 0.597 76 19 11 0 0
-0.8629 3.7384 -14.9937 0.581 0.791 -0.194 100 45 34 0 0
-0.8628 3.7387 -15.0383 0.736 0.670 -0.093 62 19 13 0 0
-0.8673 3.7367 -15.0886 0.736 0.670 -0.093 20 3 1 0 0
-0.6938 3.8323 -16.6172 0.700 0.044 0.713 95 94 91 0 0
-0.6461 3.8568 -16.6523 0.417 -0.529 0.739 102 101 99 0 0
-2.4303 2.8941 -12.3257 0.427 -0.013 0.904 118 49 33 0 0
-1.5810 3.3282 -12.3998 0.224 0.250 0.942 128 48 27 0 0
-1.3558 3.4433 -12.4069 0.236 0.512 0.826 135 55 32 0 0
-1.1422 3.5524 -12.3843 0.137 0.279 0.950 127 47 24 0 0
-0.8584 3.7028 -13.9286 0.486 0.560 0.671 81 22 10 0 0
-0.8445 3.7141 -15.0780 0.762 0.625 -0.169 68 21 15 0 0
-0.8457 3.7136 -15.1244 0.900 0.421 -0.109 25 4 2 0 0
-0.8383 3.7230 -16.6821 0.304 0.574 0.760 84 84 83 0 0
-0.8402 3.7224 -16.7850 -0.191 0.220 0.957 94 94 92 0 0
-0.7084 3.7894 -16.7070 -0.126 -0.174 0.977 102 101 99 0 0
-0.6757 3.8062 -16.7127 -0.245 -0.365 0.898 105 104 102 0 0
-1.1235 3.5305 -12.3783 0.294 0.456 0.840 128 47 24 0 0
-1.0219 3.5828 -12.4637 0.554 0.831 0.058 128 47 27 0 0
-1.1776 3.5060 -13.6778 0.165 0.955 -0.245 15 4 3 0 0
-0.9048 3.6471 -14.2481 0.013 0.999 -0.030 77 18 8 0 0
-0.8869 3.6574 -14.7455 0.400 0.128 0.908 85 18 7 0 0
-0.8536 3.6745 -14.7500 0.376 0.005 0.926 88 21 13 0 0
-0.8200 3.6917 -14.7540 0.398 -0.033 0.917 80 19 10 0 0
-0.8180 3.6928 -14.7957 0.703 0.235 0.671 67 14 9 0 0
-0.8300 3.6875 -15.1223 0.746 0.617 -0.252 71 31 20 0 0
-0.9369 3.6338 -15.5747 0.510 0.860 0.034 27 14 11 0 0
-0.9416 3.6316 -15.6739 0.551 0.833 -0.049 27 12 8 0 0
-0.8894 3.6609 -16.7205 0.169 0.255 0.952 84 81 80 0 0
-0.8178 3.6977 -16.7748 -0.191 0.220 0.957 96 96 96 0 0
-0.7005 3.7575 -16.6663 0.436 0.064 0.898 100 100 98 0 0
-0.6916 3.7621 -16.7044 -0.227 -0.127 0.966 104 103 101 0 0
-2.4158 2.8357 -12.3358 -0.023 0.023 0.999 119 49 34 0 0
-1.1310 3.4953 -12.3608 0.026 0.438 0.899 131 49 27 0 0
-1.1169 3.5026 -12.3840 0.324 0.566 0.758 124 42 20 0 0
-0.7890 3.6711 -12.5781 0.421 0.709 0.566 68 9 5 0 0
-1.1567 3.4837 -13.6696 0.113 0.992 -0.062 10 1 0 0 0
-0.8778 3.6283 -14.7511 0.223 0.910 0.350 107 38 21 0 0
-0.8435 3.6459 -14.7543 0.271 0.460 0.845 88 20 7 0 0
-0.8175 3.6592 -14.7674 0.194 0.424 0.885 92 25 16 0 0
-0.7928 3.6719 -14.7820 0.531 0.083 0.843 77 17 9 0 0
-0.7736 3.6818 -14.8030 0.861 0.419 0.289 66 14 8 0 0
-0.9301 3.6021 -15.3531 0.309 0.905 -0.292 38 12 8 0 0
-0.9257 3.6048 -15.7189 0.846 0.519 -0.118 33 23 21 0 0
-0.9341 3.6008 -15.9663 0.604 0.579 0.547 33 23 22 0 0
-0.7941 3.6737 -16.7630 -0.214 0.181 0.960 98 98 98 0 0
-0.6395 3.7530 -16.7542 -0.142 -0.090 0.986 114 113 111 0 0
-1.1389 3.4598 -12.3437 0.313 0.437 0.843 129 48 25 0 0
-0.7909 3.6389 -12.5553 0.277 0.122 0.953 91 29 6 0 0
-0.7657 3.6518 -12.5671 0.503 0.492 0.710 68 13 7 0 0
-0.7313 3.6696 -12.6070 0.759 0.162 0.630 72 15 5 0 0
-0.8716 3.5975 -14.7163 0.314 0.559 0.767 82 16 2 0 0
-0.8447 3.6113 -14.7282 0.175 0.670 0.721 102 33 13 0 0
-0.8241 3.6220 -14.7476 0.106 0.456 0.883 104 33 15 0 0
-0.7981 3.6353 -14.7608 0.287 0.617 0.733 91 21 11 0 0
-0.7761 3.6466 -14.7785 0.344 0.678 0.650 91 24 14 0 0
-0.9361 3.5644 -15.9397 0.742 0.647 0.177 31 26 23 0 0
-0.7721 3.6488 -16.7535 -0.258 0.220 0.941 100 100 100 0 0
-0.7336 3.6372 -12.5845 0.372 0.655 0.657 68 13 6 0 0
-0.8471 3.5773 -13.7278 0.141 0.863 0.485 122 80 49 0 0
-0.8329 3.5846 -13.7531 0.241 0.672 0.700 114 74 37 0 0
-0.8165 3.5931 -13.7759 0.461 0.578 0.673 92 34 11 0 0
-0.8032 3.5999 -13.8434 0.748 0.562 0.354 118 63 46 0 0
-0.8793 3.5596 -14.7417 -0.180 0.537 0.824 87 21 7 0 0
-0.7687 3.6167 -14.7421 -0.128 0.451 0.883 97 30 10 0 0
-0.7515 3.6255 -14.7655 0.127 0.821 0.556 94 25 13 0 0
-0.7059 3.6490 -14.7549 -0.083 0.535 0.841 88 21 12 0 0
5.7487 6.9767 -16.8473 -0.387 0.517 0.763 217 217 217 0 0
-2.1904 2.8531 -12.3171 0.128 0.325 0.937 125 53 38 0 0
-2.0242 2.9392 -12.2777 0.077 0.749 0.658 126 54 39 0 0
-2.0093 2.9467 -12.3383 0.518 0.230 0.824 125 53 38 0 0
-1.9873 2.9581 -12.3553 0.518 0.230 0.824 128 56 41 0 0
-0.9523 3.4931 -12.4441 0.217 0.487 0.846 124 46 24 0 0
-0.7245 3.6107 -12.5504 0.383 0.796 0.470 69 16 10 0 0
-0.7134 3.6164 -12.5766 0.635 0.510 0.581 69 12 5 0 0
-0.6955 3.6256 -12.5959 0.655 0.216 0.724 72 14 6 0 0
-1.1050 3.4116 -13.5755 -0.542 0.306 0.783 8 4 4 0 0
-0.8278 3.5506 -15.4635 0.964 0.162 0.208 44 26 24 0 0
-0.9049 3.5093 -16.0809 0.904 -0.181 0.388 30 24 23 0 0
-0.8540 3.5356 -16.1117 0.756 -0.227 0.615 29 25 23 0 0
-1.1332 3.3893 -16.9244 -0.270 -0.436 0.859 61 59 55 0 0
-0.4102 3.7641 -16.5503 -0.471 0.383 0.795 122 121 122 0 0
-2.2655 2.7815 -12.2848 0.481 0.359 0.800 122 50 35 0 0
-1.6064 3.1228 -12.3843 0.138 0.195 0.971 128 50 27 0 0
-0.7016 3.5914 -12.5396 0.543 0.782 0.306 70 16 7 0 0
-0.8143 3.5274 -14.1371 -0.235 0.081 0.969 76 20 7 0 0
-0.7679 3.5515 -14.1261 -0.280 0.355 0.892 105 47 30 0 0
-1.1124 3.3632 -16.9169 0.260 0.933 0.249 61 59 55 0 0
-1.0960 3.3716 -16.9460 0.551 0.832 0.072 68 66 63 0 0
-1.0937 3.3726 -16.9940 0.814 0.579 0.037 76 72 71 0 0
-2.2057 2.7791 -12.3916 0.793 0.087 0.603 126 54 39 0 0
-1.7973 2.9914 -12.3894 0.539 0.199 0.818 127 52 33 0 0
-1.5938 3.0972 -12.3845 0.006 0.333 0.943 127 49 27 0 0
-0.9721 3.3991 -16.9531 -0.336 0.516 0.788 86 85 83 0 0
-1.3081 3.2136 -12.4211 0.485 0.136 0.864 129 47 24 0 0
-0.9333 3.4083 -12.5002 0.817 0.391 0.423 128 46 24 0 0
-0.8177 3.4657 -12.9930 0.065 0.997 0.046 65 43 41 0 0
-0.8186 3.4613 -13.6728 0.132 0.738 0.662 71 20 9 0 0
-0.8016 3.4602 -15.3915 0.992 0.100 0.071 87 48 41 0 0
-0.8661 3.4225 -16.0874 0.077 0.838 0.541 30 28 29 0 0
-0.9779 3.3593 -16.9303 0.192 0.968 0.164 78 77 75 0 0
-1.2865 3.1929 -12.4124 0.624 0.188 0.759 128 46 22 0 0
-1.0596 3.3112 -12.4513 0.319 -0.127 0.939 135 54 32 0 0
-0.9118 3.3881 -12.4911 0.867 0.350 0.356 126 46 23 0 0
-0.6226 3.5388 -12.5344 0.450 0.747 0.490 69 13 3 0 0
-0.7643 3.4619 -12.9502 0.275 0.944 -0.183 79 47 43 0 0
-0.8189 3.4147 -15.6171 0.962 0.151 0.226 87 48 41 0 0
-0.8320 3.4047 -16.0623 0.187 0.896 0.402 32 30 32 0 0
-0.8004 3.4212 -16.0697 0.486 0.849 0.207 30 30 32 0 0
-1.2463 3.1818 -17.0026 0.767 0.621 -0.160 40 38 39 0 0
-1.0517 3.2838 -16.9477 0.155 -0.811 0.564 67 62 60 0 0
-0.9141 3.3559 -16.9156 0.061 0.959 0.277 83 82 80 0 0
-1.0605 3.2788 -12.4648 0.242 0.232 0.942 131 51 29 0 0
-0.5919 3.5107 -14.1116 0.781 0.598 -0.181 107 47 26 0 0
-0.6028 3.5045 -14.1667 0.314 0.503 0.805 101 45 29 0 0
-0.8132 3.3824 -15.6281 0.892 -0.101 0.440 82 44 37 0 0
-0.7282 3.4243 -15.9467 0.836 0.289 0.466 33 31 32 0 0
-0.7059 3.4358 -15.9658 0.494 0.329 0.805 31 31 33 0 0
-0.7782 3.3968 -16.1082 0.182 0.859 0.478 32 30 31 0 0
-0.9805 3.2875 -16.5204 0.996 -0.071 -0.053 32 30 31 0 0
-2.1391 2.6819 -12.3781 0.395 0.511 0.763 127 55 40 0 0
-1.7358 2.8938 -12.3424 0.699 0.126 0.704 126 50 32 0 0
-1.7174 2.9033 -12.3624 0.699 0.126 0.704 124 47 29 0 0
-1.4828 3.0260 -12.4019 0.260 0.162 0.952 135 53 31 0 0
-1.0492 3.2540 -12.3538 0.662 0.456 0.595 128 46 24 0 0
-0.6811 3.4451 -12.5829 0.567 0.648 0.509 148 75 25 0 0
-0.6563 3.4547 -12.9405 0.121 0.983 0.136 70 42 35 0 0
-0.7173 3.4169 -13.5636 0.462 0.748 0.478 58 19 11 0 0
-0.7031 3.4241 -13.5886 0.462 0.748 0.478 59 17 7 0 0
-0.6753 3.4382 -13.6393 0.452 0.820 0.350 89 37 8 0 0
-0.9749 3.2539 -16.5327 0.749 -0.578 0.324 32 30 31 0 0
-1.0668 3.2036 -16.7544 -0.434 0.841 0.324 35 33 34 0 0
-2.1200 2.6589 -12.3725 0.395 0.511 0.763 127 57 41 0 0
-1.7510 2.8534 -12.3312 0.634 0.418 0.650 127 51 35 0 0
-1.7284 2.8652 -12.3474 0.666 0.522 0.532 126 49 32 0 0
-1.7093 2.8750 -12.3669 0.420 0.600 0.681 127 49 32 0 0
-1.2882 3.0956 -12.4510 0.175 0.401 0.899 131 50 26 0 0
-1.0196 3.2377 -12.3743 0.662 0.456 0.595 132 49 27 0 0
-0.7324 3.3879 -12.4600 0.166 0.546 0.821 132 61 39 0 0
-0.6408 3.4351 -12.5542 0.231 0.868 0.439 155 88 35 0 0
-0.5509 3.4648 -14.2226 0.693 0.180 0.698 131 68 48 0 0
-0.6546 3.4048 -14.7376 0.817 0.312 0.484 111 55 42 0 0
-1.0081 3.2121 -12.3753 0.622 0.308 0.720 133 51 29 0 0
-0.6181 3.4158 -12.5436 -0.011 0.888 0.460 153 96 44 0 0
-0.6092 3.3946 -14.7436 0.455 0.838 0.302 114 57 40 0 0
-0.6751 3.3470 -15.8385 0.122 0.752 0.648 34 19 19 0 0
-0.6510 3.3584 -15.9511 -0.016 0.666 0.746 34 34 34 0 0
-0.9659 3.1852 -16.5603 -0.175 0.982 -0.075 34 33 33 0 0
-1.0169 3.1569 -16.6779 -0.247 0.969 0.010 34 32 33 0 0
-0.6749 3.3464 -13.1585 0.096 0.985 0.145 86 47 34 0 0
-0.5564 3.4013 -13.7555 0.520 0.638 0.569 121 75 46 0 0
-0.5366 3.4115 -13.7743 0.449 0.537 0.715 117 67 35 0 0
-0.5909 3.3709 -14.6939 0.580 0.288 0.762 123 58 44 0 0
-0.5789 3.3769 -14.7236 0.647 0.652 0.395 120 59 45 0 0
-0.5594 3.3869 -14.7443 0.824 0.479 0.303 119 58 43 0 0
-0.5545 3.3873 -14.9169 0.875 0.476 -0.094 126 63 48 0 0
-0.6384 3.3374 -15.3401 0.723 0.680 -0.126 103 53 43 0 0
-0.5668 3.3767 -12.7833 0.671 0.172 0.721 107 47 31 0 0
-0.5311 3.3956 -12.7839 0.597 0.733 0.325 101 50 37 0 0
-0.5360 3.3794 -13.7473 0.527 0.660 0.535 118 65 38 0 0
-0.4766 3.4023 -14.3544 0.833 0.552 -0.044 123 70 48 0 0
-0.5951 3.3175 -15.9159 0.372 0.743 0.556 37 35 36 0 0
-0.5781 3.3261 -15.9419 0.446 0.765 0.464 36 36 36 0 0
-0.8578 3.1699 -16.5069 0.253 0.944 0.212 36 34 35 0 0
-0.8471 3.1750 -16.5427 0.253 0.944 0.212 37 35 36 0 0
-0.8359 3.1805 -16.5778 0.548 0.836 0.028 36 34 35 0 0
-0.5823 3.3374 -12.7361 0.403 0.478 0.781 84 16 7 0 0
-0.5532 3.3522 -12.7823 -0.068 0.593 0.802 99 35 20 0 0
-0.4994 3.3810 -12.7637 0.437 0.865 0.246 101 49 35 0 0
-0.5150 3.3671 -13.1317 0.653 0.742 0.148 116 62 43 0 0
-0.5120 3.3682 -13.1679 0.579 0.779 0.239 118 62 44 0 0
-0.4789 3.3839 -13.2909 0.579 0.775 0.253 110 59 40 0 0
-0.8052 3.1605 -16.5568 0.629 0.739 0.242 36 35 33 0 0
-0.4775 3.3606 -12.7923 0.648 0.732 0.209 103 56 43 0 0
-0.4680 3.3651 -12.8208 0.588 0.788 0.181 105 58 48 0 0
-0.5061 3.3397 -13.1359 0.824 0.534 0.192 110 57 37 0 0
-0.5007 3.3420 -13.1696 0.770 0.572 0.282 114 62 45 0 0
-0.4924 3.3459 -13.2003 0.770 0.572 0.282 116 68 51 0 0
-0.4841 3.3498 -13.2310 0.770 0.572 0.282 117 72 53 0 0
-0.4867 3.3226 -14.7950 0.594 0.784 0.179 93 49 43 0 0
-2.2364 2.3990 -12.2859 0.916 -0.187 0.355 123 51 36 0 0
-1.7326 2.6662 -12.3859 0.568 -0.248 0.785 125 49 33 0 0
-1.6500 2.7110 -12.3458 0.039 0.378 0.925 127 50 33 0 0
-0.7903 3.1674 -12.4825 0.765 0.452 0.458 119 40 23 0 0
-0.5034 3.3224 -12.3767 0.699 0.678 0.226 136 67 52 0 0
-0.4466 3.3436 -12.8890 0.398 0.841 0.366 111 71 55 0 0
-0.4738 3.3202 -13.3944 0.804 0.429 0.413 93 56 41 0 0
-0.4625 3.3257 -13.4222 0.804 0.429 0.413 91 55 37 0 0
-0.4578 3.3276 -13.4575 0.870 0.429 0.241 92 56 39 0 0
-0.5031 3.2989 -13.7136 0.687 0.033 0.726 88 56 42 0 0
-0.5496 3.2419 -15.5326 0.634 0.771 -0.060 81 44 43 0 0
-0.5435 3.2444 -15.5718 0.545 0.838 -0.020 79 43 38 0 0
-3.9010 1.4715 -12.4703 -0.424 0.790 0.443 106 52 41 0 0
-0.9523 3.0506 -12.3947 0.601 0.147 0.786 133 49 29 0 0
-0.9290 3.0628 -12.4090 0.484 0.325 0.812 129 46 25 0 0
-0.9113 3.0719 -12.4289 0.360 0.193 0.913 131 48 28 0 0
-0.8822 3.0873 -12.4373 0.278 0.008 0.961 134 52 30 0 0
-0.7899 3.1356 -12.4949 0.634 0.108 0.765 125 46 29 0 0
-0.5496 3.2652 -12.4372 0.016 -0.294 0.956 132 58 44 0 0
-0.4680 3.3076 -12.5033 0.871 0.401 0.285 175 100 66 0 0
-0.4342 3.3214 -12.7345 0.843 0.305 0.443 96 37 25 0 0
-0.4182 3.3288 -12.7946 0.897 0.388 0.212 105 58 44 0 0
-0.4238 3.3249 -12.8393 0.516 0.835 0.191 94 52 41 0 0
-0.4201 3.3263 -12.8741 0.612 0.709 0.349 89 50 41 0 0
-0.5192 3.2225 -15.5589 0.588 0.808 0.043 75 36 26 0 0
-0.4970 3.2340 -15.5776 0.495 0.831 0.255 65 23 15 0 0
-0.4876 3.2330 -15.8991 0.569 0.657 0.494 37 36 37 0 0
-0.7900 3.0551 -16.7485 0.375 0.833 -0.407 35 32 30 0 0
-2.3427 2.2728 -12.4049 -0.221 0.805 0.550 123 51 36 0 0
-2.3113 2.2894 -12.4145 -0.240 0.848 0.473 123 51 36 0 0
-1.8167 2.5562 -12.3383 0.165 0.123 0.979 125 52 35 0 0
-1.3818 2.7886 -12.3774 0.351 0.158 0.923 131 49 28 0 0
-0.8961 3.0482 -12.4262 0.406 0.043 0.913 134 52 30 0 0
-0.8502 3.0722 -12.4554 0.255 0.313 0.915 131 49 28 0 0
-0.8291 3.0832 -12.4718 0.452 0.564 0.691 131 49 28 0 0
-0.8116 3.0922 -12.4919 0.509 0.578 0.638 124 45 27 0 0
-0.7881 3.1045 -12.5058 0.384 0.745 0.545 121 42 25 0 0
-0.7736 3.1118 -12.5289 0.380 0.732 0.566 123 45 26 0 0
-0.4248 3.2985 -12.5468 0.747 0.047 0.663 135 65 20 0 0
-0.4141 3.3007 -12.7265 0.853 0.410 0.323 92 27 16 0 0
-0.4000 3.3070 -12.7885 0.536 0.833 0.136 104 55 40 0 0
-0.5140 3.1908 -15.5236 0.636 0.765 -0.099 105 55 39 0 0
-0.8117 3.0607 -12.4670 0.389 0.554 0.736 139 58 36 0 0
-0.7922 3.0709 -12.4849 0.389 0.554 0.736 124 45 25 0 0
-0.7726 3.0810 -12.5028 0.320 0.650 0.689 125 47 27 0 0
-0.7534 3.0909 -12.5211 0.320 0.650 0.689 124 46 25 0 0
-0.3759 3.2885 -12.7762 0.526 0.840 0.133 103 53 41 0 0
-0.3885 3.2609 -13.7519 0.651 0.687 0.322 114 60 39 0 0
-0.4320 3.1986 -15.5777 0.507 0.848 0.157 89 44 37 0 0
-0.4426 3.1834 -16.0234 0.679 0.733 0.024 40 38 38 0 0
-0.7794 3.0459 -12.4847 0.503 0.015 0.864 131 52 30 0 0
-0.3500 3.2710 -12.7619 0.582 0.795 0.173 97 46 36 0 0
-0.4520 3.1549 -15.4806 0.857 -0.100 0.506 113 64 49 0 0
-0.4386 3.1614 -15.5103 0.789 0.272 0.551 110 59 42 0 0
-0.4223 3.1696 -15.5364 0.673 0.292 0.679 105 53 39 0 0
-0.4063 3.1776 -15.5629 0.600 0.675 0.429 92 47 39 0 0
-0.4885 3.1299 -15.7172 0.804 0.509 0.309 89 42 33 0 0
-1.7249 2.5051 -12.4015 0.480 0.432 0.764 129 53 38 0 0
-1.3169 2.7258 -12.3891 0.428 -0.024 0.903 132 50 26 0 0
-0.3269 3.2283 -13.7528 0.864 0.190 0.467 102 60 40 0 0
-0.4495 3.1196 -15.5429 0.253 0.901 0.352 114 63 45 0 0
-0.4291 3.1301 -15.5637 0.014 0.757 0.653 110 60 46 0 0
-0.3953 3.1404 -15.9019 0.738 0.550 0.390 40 37 34 0 0
-1.8894 2.3835 -12.3784 0.235 -0.076 0.969 126 54 39 0 0
-1.7063 2.4822 -12.3961 0.236 0.386 0.892 128 52 37 0 0
-1.2303 2.7401 -12.3927 0.187 0.435 0.881 135 53 29 0 0
-1.2057 2.7530 -12.4064 0.393 0.454 0.800 135 55 32 0 0
-1.1837 2.7646 -12.4225 0.337 0.447 0.829 135 55 32 0 0
-0.7263 3.0104 -12.4942 0.450 0.033 0.892 128 47 26 0 0
-0.4450 3.1644 -12.4309 0.580 0.676 0.454 129 50 37 0 0
-0.3584 3.1962 -13.0329 0.923 0.377 0.071 72 34 25 0 0
-0.3542 3.1836 -13.6337 0.452 0.756 0.474 81 49 43 0 0
-0.3148 3.2019 -13.7541 0.849 0.335 0.410 48 9 3 0 0
-0.2918 3.2129 -13.8108 0.849 0.335 0.410 115 62 22 0 0
-0.3359 3.1684 -14.6392 0.008 0.709 0.705 119 67 49 0 0
-0.4327 3.0948 -15.4924 0.094 0.956 0.278 102 56 40 0 0
-0.3989 3.1118 -15.5431 0.014 0.757 0.653 107 59 42 0 0
-1.6880 2.4592 -12.3910 0.236 0.386 0.892 128 52 37 0 0
-0.3104 3.1973 -12.7599 0.620 0.741 0.259 97 44 31 0 0
-0.3537 3.1664 -13.0418 0.930 0.357 0.084 89 50 41 0 0
-0.3507 3.1671 -13.0780 0.930 0.357 0.084 90 52 41 0 0
-0.3415 3.1640 -13.3886 0.640 0.761 0.108 95 54 40 0 0
-0.3372 3.1654 -13.4243 0.640 0.761 0.108 96 55 42 0 0
-0.3691 3.0994 -15.2886 0.786 0.464 0.408 123 61 43 0 0
-0.3883 3.0847 -15.4536 0.287 0.937 0.198 99 52 39 0 0
-0.4102 3.0634 -15.8151 0.671 0.425 0.607 103 47 29 0 0
-0.3928 3.0721 -15.8404 0.671 0.425 0.607 105 54 40 0 0
-0.3653 3.0855 -15.9006 0.767 0.439 0.468 44 34 34 0 0
-2.0782 2.2149 -12.3496 0.762 0.149 0.631 124 52 36 0 0
-1.6751 2.4331 -12.3910 0.146 0.659 0.738 127 51 35 0 0
-1.4934 2.5315 -12.4073 0.506 0.049 0.861 134 56 34 0 0
-1.4423 2.5596 -12.3962 0.013 0.253 0.967 136 59 36 0 0
-1.3854 2.5889 -12.4549 0.348 0.429 0.834 132 51 29 0 0
-0.3421 3.1405 -13.0431 0.956 0.291 -0.026 103 60 42 0 0
-0.2908 3.1501 -13.7152 0.757 0.527 0.386 86 49 40 0 0
-0.2783 3.1562 -13.7423 0.546 0.526 0.652 57 24 20 0 0
-0.2964 3.1234 -14.5799 0.060 0.913 0.404 100 50 37 0 0
-0.2839 3.1159 -15.1054 0.740 0.454 0.497 116 57 44 0 0
-0.3482 3.0645 -15.7044 0.485 0.872 0.059 84 37 25 0 0
-0.3721 3.0493 -15.7839 0.585 0.744 0.322 93 39 22 0 0
-0.3718 3.0482 -15.8317 0.512 0.611 0.604 110 59 41 0 0
-0.3460 3.0605 -15.8942 0.798 0.603 -0.020 37 26 26 0 0
-0.3709 3.0421 -16.0738 0.380 0.914 0.141 39 37 38 0 0
-2.0313 2.2056 -12.3941 0.491 0.335 0.805 125 53 37 0 0
-2.0060 2.2190 -12.4088 0.881 0.421 0.216 123 51 36 0 0
-1.9478 2.2501 -12.4309 0.221 -0.006 0.975 125 53 38 0 0
-1.4019 2.5485 -12.4074 0.464 0.207 0.861 129 51 29 0 0
-1.3855 2.5568 -12.4295 0.408 0.383 0.829 129 51 29 0 0
-1.3633 2.5684 -12.4459 0.408 0.383 0.829 131 51 29 0 0
-0.2833 3.1540 -12.5656 0.869 0.421 0.261 98 40 16 0 0
-0.2949 3.1396 -12.8483 0.902 0.393 -0.181 102 62 51 0 0
-0.3237 3.1151 -13.1561 0.891 0.438 0.119 107 62 42 0 0
-0.3127 3.0451 -15.8208 0.636 0.752 0.176 90 47 31 0 0
-0.3178 3.0408 -15.8759 0.718 0.680 -0.151 36 22 19 0 0
-2.0712 2.1509 -12.3669 0.437 0.158 0.885 124 53 35 0 0
-2.0460 2.1643 -12.3817 0.437 0.158 0.885 127 56 38 0 0
-1.3876 2.5235 -12.4060 0.442 0.280 0.852 129 51 29 0 0
-1.3472 2.5445 -12.4427 0.408 0.383 0.829 130 50 28 0 0
-1.3392 2.5479 -12.4729 0.291 0.721 0.629 131 51 29 0 0
-0.2508 3.1397 -12.5825 0.629 0.347 0.695 77 17 5 0 0
-0.2954 3.0928 -13.3400 0.811 0.580 0.069 45 12 5 0 0
-2.2444 2.0229 -12.3469 0.439 0.770 0.463 123 51 36 0 0
-1.4987 2.4330 -12.2983 -0.369 0.592 0.716 127 52 33 0 0
-0.2553 3.1062 -12.5624 0.608 0.515 0.604 125 66 30 0 0
-0.2312 3.1190 -12.5749 0.579 0.295 0.760 80 17 3 0 0
-2.2051 2.0113 -12.3232 0.151 0.909 0.388 122 50 35 0 0
-2.2065 2.0068 -12.4384 0.236 0.519 0.822 123 51 36 0 0
-1.4958 2.4014 -12.3077 -0.176 0.297 0.939 126 51 32 0 0
-1.4778 2.4106 -12.3282 0.487 -0.119 0.865 127 52 33 0 0
-1.3395 2.4836 -12.4222 0.478 0.565 0.672 130 52 30 0 0
-0.7571 2.8025 -12.4510 0.626 0.333 0.705 131 49 25 0 0
-0.2172 3.0952 -12.5734 0.584 0.311 0.749 90 23 6 0 0
-0.0613 3.1359 -13.9692 -0.265 0.238 0.934 99 35 9 0 0
-0.2250 3.0547 -12.7107 0.480 0.215 0.850 77 15 5 0 0
-0.3863 2.9372 -13.5692 0.557 0.565 0.608 16 3 3 0 0
-0.3700 2.9454 -13.5918 0.557 0.565 0.608 14 3 2 0 0
-0.1583 3.0478 -14.0164 0.330 0.306 0.893 62 8 2 0 0
-0.1431 3.0350 -14.6527 0.387 0.916 0.110 108 63 46 0 0
-0.1295 3.0400 -14.7253 0.281 0.951 0.126 75 43 39 0 0
-0.1499 3.0127 -15.2081 0.299 0.954 -0.032 117 60 45 0 0
-2.1442 1.9755 -12.3675 0.671 -0.182 0.719 124 52 37 0 0
-1.6444 2.2503 -12.3974 -0.045 0.107 0.993 125 52 37 0 0
-1.2964 2.4421 -12.4052 0.229 0.095 0.969 128 50 28 0 0
