ply
format ascii 1.0
element vertex 842
property float x
property float y
property float z
property float nx
property float ny
property float nz
property uchar diffuse_red
property uchar diffuse_green
property uchar diffuse_blue
property uchar class
property uchar detection
end_header
-3.8996 2.8625 -16.0592 0.195 0.302 0.933 27 23 20 0 0
2.4718 -2.6495 -14.0718 0.058 0.769 0.637 191 185 185 0 0
2.4432 -2.6242 -14.0891 0.005 0.270 0.963 176 163 163 0 0
2.4203 -2.6035 -14.1115 -0.004 0.099 0.995 156 136 135 0 0
2.3720 -2.5622 -14.1112 -0.032 -0.108 0.994 136 112 108 0 0
1.0480 -1.4453 -13.7310 0.073 0.440 0.895 114 50 38 0 0
-0.3927 -0.2586 -12.7026 -0.029 -0.036 0.999 112 52 41 0 0
-3.7876 2.6377 -12.4307 -0.095 0.413 0.906 128 47 26 0 0
-3.8628 2.7044 -12.4783 -0.150 0.336 0.930 130 52 32 0 0
-4.0155 2.8377 -12.5324 -0.715 0.523 0.465 139 73 61 0 0
-4.3014 3.0936 -12.7683 -0.713 0.302 0.633 55 13 7 0 0
-4.3248 3.1673 -13.9282 -0.363 -0.338 0.868 93 58 52 0 0
-4.1193 3.0408 -14.9975 -0.806 0.540 0.243 95 61 52 0 0
-4.1276 3.0492 -15.0277 -0.669 0.550 0.501 94 60 51 0 0
-3.9199 2.7882 -12.4898 -0.163 0.331 0.929 135 60 40 0 0
-4.2257 3.0579 -12.6645 -0.454 0.758 0.468 58 10 4 0 0
-4.1357 3.0174 -13.4295 -0.353 0.787 0.506 24 5 5 0 0
-4.3233 3.2023 -13.9432 -0.769 0.034 0.638 93 58 52 0 0
-4.2246 3.1308 -14.2146 -0.953 0.058 0.297 91 56 50 0 0
-4.2329 3.1393 -14.2430 -0.953 0.058 0.297 90 55 48 0 0
-4.2413 3.1477 -14.2713 -0.953 0.058 0.297 91 57 47 0 0
2.8146 -2.8460 -14.0714 -0.181 -0.155 0.971 212 212 214 0 0
2.5840 -2.6508 -14.0411 -0.251 0.870 0.424 180 172 170 0 0
1.9627 -2.1250 -13.9525 -0.062 -0.228 0.972 110 50 41 0 0
1.1607 -1.4506 -13.7520 -0.077 -0.127 0.989 114 50 38 0 0
-3.9011 2.8065 -12.4912 -0.313 0.385 0.868 133 58 39 0 0
-4.2037 3.0735 -12.6705 -0.403 0.768 0.498 55 9 4 0 0
-4.2263 3.0948 -12.7131 -0.434 0.500 0.750 75 23 9 0 0
-3.8926 2.9717 -16.0181 -0.787 0.593 -0.168 30 25 22 0 0
2.8853 -2.8623 -13.9823 -0.242 0.336 0.910 212 213 215 0 0
2.0591 -2.1592 -13.9755 -0.100 -0.278 0.955 110 50 41 0 0
1.2681 -1.4972 -13.7484 0.151 -0.082 0.985 117 51 39 0 0
1.1712 -1.4150 -13.7397 -0.099 -0.210 0.973 117 51 38 0 0
1.1072 -1.3616 -13.7205 -0.341 -0.251 0.906 117 52 39 0 0
-3.8026 2.7549 -12.4513 -0.528 0.315 0.789 129 50 32 0 0
-3.8212 2.7714 -12.4634 -0.406 0.258 0.877 131 52 35 0 0
-4.1467 3.0580 -12.6509 -0.614 0.350 0.707 69 14 5 0 0
-4.2077 3.1131 -12.7145 -0.434 0.500 0.750 74 22 8 0 0
-4.2861 3.1782 -12.6805 -0.691 0.046 0.721 53 14 7 0 0
-4.2116 3.1559 -13.5014 0.062 0.267 0.962 165 123 95 0 0
-4.2468 3.1891 -13.5672 -0.336 0.808 0.484 85 39 26 0 0
-4.2858 3.2373 -13.8648 -0.001 -0.011 1.000 91 59 54 0 0
-4.2980 3.2508 -13.9265 -0.515 0.816 0.264 94 60 54 0 0
-4.2209 3.1971 -14.1642 -0.650 0.756 -0.078 92 57 51 0 0
1.4088 -1.5680 -13.8163 -0.470 -0.374 0.800 117 51 39 0 0
-2.8922 2.0110 -12.3557 -0.401 0.200 0.894 119 46 29 0 0
-2.9120 2.0285 -12.3685 -0.401 0.200 0.894 118 45 28 0 0
-3.8047 2.7917 -12.4618 -0.406 0.258 0.877 131 52 35 0 0
-4.1784 3.1211 -12.6940 -0.614 0.323 0.720 64 13 4 0 0
-4.1913 3.1330 -12.7131 -0.666 0.286 0.689 75 23 9 0 0
-4.1898 3.1727 -13.5068 -0.002 0.308 0.951 143 96 64 0 0
-4.2545 3.2471 -13.8844 -0.528 0.198 0.826 93 60 55 0 0
-4.2905 3.2769 -13.8705 -0.376 0.530 0.760 93 58 52 0 0
2.8603 -2.7456 -13.9599 -0.358 0.830 0.428 209 210 211 0 0
0.2638 -0.5867 -13.1550 -0.441 -0.776 0.452 114 62 54 0 0
-3.4106 2.4903 -12.4312 -0.467 0.547 0.695 125 44 23 0 0
-4.1370 3.1179 -12.6532 -0.660 0.335 0.673 56 9 3 0 0
-4.1659 3.1441 -12.6872 -0.675 0.242 0.697 63 12 4 0 0
-4.1522 3.1731 -13.4576 -0.112 0.397 0.911 65 12 1 0 0
-4.1749 3.1927 -13.4637 -0.617 0.491 0.614 86 26 4 0 0
-4.1744 3.1944 -13.5031 -0.359 0.075 0.930 135 87 55 0 0
-4.1951 3.2124 -13.5120 -0.424 0.028 0.905 118 68 31 0 0
-4.2146 3.2356 -13.6398 -0.898 0.187 0.399 60 27 21 0 0
-4.2477 3.2757 -13.8676 -0.766 0.643 0.016 92 60 54 0 0
-4.2612 3.2924 -13.9673 -0.755 0.613 -0.232 94 59 53 0 0
2.9929 -2.8092 -13.9666 -0.256 0.211 0.943 210 214 214 0 0
2.9088 -2.7373 -13.9798 -0.506 0.538 0.674 202 203 204 0 0
1.1173 -1.2344 -13.7457 -0.670 -0.017 0.742 116 50 37 0 0
-3.1783 2.3273 -12.4043 -0.161 0.270 0.949 122 47 26 0 0
-3.5123 2.6091 -12.3909 -0.346 0.259 0.902 125 44 23 0 0
-4.1311 3.1479 -12.6741 -0.470 0.523 0.711 59 11 7 0 0
-3.9909 3.0701 -13.4292 0.486 -0.276 0.829 19 4 3 0 0
-4.1477 3.2053 -13.4769 -0.376 0.578 0.724 89 32 12 0 0
-4.2098 3.2656 -13.6205 -0.790 0.022 0.613 60 26 19 0 0
-3.8661 3.0923 -15.7941 -0.786 0.584 -0.203 39 39 37 0 0
-3.8529 3.0847 -15.8612 -0.805 0.546 -0.232 37 36 32 0 0
2.9595 -2.7402 -13.8319 -0.551 0.326 0.768 213 213 215 0 0
3.0199 -2.7836 -13.9679 -0.240 0.263 0.934 210 211 214 0 0
2.9352 -2.7114 -13.9807 -0.506 0.538 0.674 194 189 187 0 0
2.9190 -2.6961 -14.0094 -0.203 -0.415 0.887 163 145 139 0 0
2.5001 -2.3462 -13.9427 -0.068 -0.121 0.990 110 54 45 0 0
1.1309 -1.2017 -13.7365 -0.496 -0.019 0.868 112 49 36 0 0
-2.7763 2.0223 -12.3895 -0.028 0.703 0.711 119 46 31 0 0
-2.9069 2.1341 -12.4171 -0.334 0.489 0.806 119 46 29 0 0
-3.4949 2.6290 -12.3902 -0.356 0.429 0.830 127 46 25 0 0
-4.1155 3.1664 -12.6352 -0.423 0.771 0.476 60 12 5 0 0
-4.0510 3.1562 -13.4346 -0.143 0.255 0.956 26 7 5 0 0
-4.1128 3.2099 -13.4624 -0.376 0.578 0.724 70 16 6 0 0
-4.1272 3.2231 -13.4804 -0.376 0.578 0.724 81 24 7 0 0
-3.8260 3.0910 -15.6914 -0.474 0.227 0.851 44 42 43 0 0
-3.8798 3.1518 -15.9676 -0.874 0.448 0.189 35 33 29 0 0
3.0295 -2.7442 -13.9545 -0.325 0.418 0.848 208 206 209 0 0
3.0075 -2.7243 -13.9783 -0.347 0.494 0.797 201 197 196 0 0
2.9714 -2.6932 -13.9900 -0.391 -0.081 0.917 178 159 148 0 0
1.1461 -1.1703 -13.7288 -0.422 0.220 0.879 107 46 34 0 0
1.0751 -1.1120 -13.7027 0.012 0.247 0.969 109 46 31 0 0
-2.8862 2.1525 -12.4197 -0.334 0.489 0.806 119 46 29 0 0
-3.5361 2.7022 -12.4600 -0.708 0.330 0.624 129 50 29 0 0
-3.9493 3.1078 -13.4753 -0.184 -0.232 0.955 21 5 5 0 0
-4.0866 3.2191 -13.3970 -0.629 0.532 0.567 37 7 6 0 0
-4.1056 3.2378 -13.4471 -0.863 0.453 0.225 70 14 5 0 0
-3.8550 3.1518 -15.6580 -0.492 0.862 -0.126 42 40 41 0 0
-3.8434 3.1585 -15.9492 -0.750 0.660 0.036 30 29 25 0 0
3.0414 -2.7141 -13.8162 -0.506 0.712 0.487 213 213 215 0 0
3.0210 -2.6881 -13.9682 -0.342 0.065 0.937 191 180 173 0 0
-3.5202 2.7213 -12.4216 -0.726 0.652 0.221 127 46 25 0 0
-3.5192 2.7225 -12.4587 -0.754 0.509 0.417 127 48 26 0 0
-3.9231 3.1216 -13.4865 0.210 0.184 0.960 22 6 6 0 0
-4.0691 3.2390 -13.3965 -0.641 0.527 0.557 37 7 6 0 0
-4.0930 3.2616 -13.4394 -0.807 0.507 0.303 63 11 2 0 0
-4.1524 3.3178 -13.5475 -0.714 0.185 0.675 93 42 25 0 0
-4.1586 3.3293 -13.6552 -0.587 0.475 0.656 47 17 9 0 0
-4.1719 3.3416 -13.6750 -0.603 0.302 0.738 48 9 5 0 0
-3.8258 3.1663 -15.6735 -0.492 0.862 -0.126 42 41 41 0 0
-3.3925 2.6460 -12.3785 -0.202 0.236 0.951 125 44 25 0 0
-3.4845 2.7250 -12.4079 -0.792 0.371 0.485 123 42 21 0 0
-4.0944 3.2540 -12.7019 -0.368 0.437 0.821 90 37 19 0 0
-4.1255 3.2819 -12.7329 -0.420 0.522 0.742 53 16 14 0 0
-3.9285 3.1593 -13.4535 0.195 0.421 0.886 22 6 6 0 0
-3.9459 3.1746 -13.4677 0.438 0.509 0.741 23 7 6 0 0
-4.0516 3.2591 -13.3957 -0.629 0.532 0.567 35 7 5 0 0
-4.0793 3.2845 -13.4333 -0.832 0.424 0.359 72 20 12 0 0
-4.0973 3.3026 -13.4847 -0.090 0.394 0.915 118 63 31 0 0
-4.1463 3.3465 -13.5303 -0.249 0.461 0.852 93 40 23 0 0
-4.1352 3.3685 -14.0593 -0.204 0.852 0.482 95 59 53 0 0
2.1727 -1.8959 -13.7354 0.083 0.127 0.988 100 50 36 0 0
-3.3739 2.6651 -12.3793 -0.202 0.236 0.951 126 45 26 0 0
-3.4218 2.7082 -12.4274 -0.360 0.279 0.890 126 45 24 0 0
-4.0349 3.2820 -13.4323 -0.034 0.061 0.998 42 8 4 0 0
-4.0657 3.3075 -13.4270 -0.729 0.438 0.526 58 11 5 0 0
-4.0609 3.3062 -13.4724 -0.328 0.186 0.926 78 16 2 0 0
-4.0756 3.3196 -13.4899 -0.090 0.394 0.915 116 59 33 0 0
-4.0919 3.3342 -13.5052 0.079 0.564 0.822 125 78 43 0 0
-4.1187 3.3590 -13.5441 -0.128 0.730 0.671 98 42 25 0 0
-4.1214 3.3680 -13.6568 -0.606 0.442 0.662 46 15 8 0 0
-4.1230 3.3810 -13.8510 -0.690 0.691 -0.214 99 66 57 0 0
-4.0374 3.3243 -14.0969 0.011 0.545 0.839 94 59 51 0 0
-4.0601 3.3437 -14.1035 -0.429 0.513 0.744 94 59 53 0 0
-3.9807 3.3245 -14.8867 -0.680 0.717 -0.156 94 63 55 0 0
-3.9720 3.3206 -14.9429 -0.680 0.717 -0.156 95 62 55 0 0
-4.0811 3.3130 -12.7456 -0.248 0.747 0.617 53 16 12 0 0
-4.0270 3.3117 -13.4563 -0.388 -0.014 0.922 52 10 5 0 0
-4.0481 3.3298 -13.4649 -0.388 -0.014 0.922 74 13 2 0 0
-4.0571 3.3389 -13.4907 -0.524 0.276 0.806 112 57 32 0 0
-4.0733 3.3534 -13.5062 -0.524 0.276 0.806 132 86 52 0 0
-4.0969 3.3734 -13.5110 -0.687 0.363 0.630 104 47 14 0 0
-4.1108 3.3862 -13.5297 -0.574 0.309 0.758 98 42 24 0 0
-4.1048 3.3889 -13.6547 -0.641 0.492 0.589 45 14 7 0 0
-4.1148 3.3988 -13.6792 -0.561 0.545 0.623 46 9 7 0 0
-4.0388 3.3616 -14.1080 -0.365 0.394 0.843 95 59 53 0 0
-4.0560 3.3770 -14.1226 -0.365 0.394 0.843 99 64 56 0 0
-3.9534 3.3339 -14.8148 -0.795 0.513 -0.325 94 59 53 0 0
-3.9051 3.3035 -14.9744 -0.853 0.509 -0.119 93 62 54 0 0
-3.2127 2.6027 -12.4241 -0.092 0.200 0.976 124 43 25 0 0
-3.3466 2.7108 -12.3686 -0.293 0.434 0.852 124 43 24 0 0
-3.3640 2.7262 -12.3830 -0.208 0.413 0.887 122 41 22 0 0
-3.3723 2.7347 -12.4084 -0.039 0.305 0.952 125 45 25 0 0
-3.3915 2.7515 -12.4205 -0.255 0.037 0.966 127 49 27 0 0
-4.0105 3.2832 -12.6713 -0.628 0.507 0.590 59 10 4 0 0
-4.0542 3.3228 -12.7218 -0.566 0.353 0.745 80 34 21 0 0
-4.0624 3.3313 -12.7471 -0.562 0.732 0.385 54 16 10 0 0
-3.9620 3.2891 -13.4075 -0.554 0.439 0.707 24 6 7 0 0
-4.0228 3.3465 -13.5137 -0.027 0.698 0.716 120 65 40 0 0
-4.0986 3.4174 -13.6376 -0.479 0.796 0.369 51 20 13 0 0
-3.7959 3.2856 -15.5514 0.121 0.945 -0.302 44 42 43 0 0
-3.3267 2.7289 -12.3710 -0.293 0.434 0.852 124 43 24 0 0
-3.3444 2.7445 -12.3850 -0.293 0.434 0.852 125 44 25 0 0
-3.3777 2.7742 -12.4154 -0.409 -0.074 0.909 127 49 27 0 0
-3.6988 3.0476 -12.5141 -0.162 0.593 0.789 137 60 44 0 0
-3.9937 3.3029 -12.6704 -0.628 0.507 0.590 56 9 3 0 0
-4.0819 3.4407 -13.6746 -0.456 0.657 0.600 47 11 7 0 0
-4.0940 3.4521 -13.6961 -0.392 0.635 0.665 53 9 2 0 0
-4.1101 3.4665 -13.7119 -0.284 0.732 0.619 97 41 24 0 0
-3.3049 2.7456 -12.3755 0.081 0.728 0.681 124 43 24 0 0
-3.3658 2.7983 -12.4079 -0.284 -0.085 0.955 130 52 30 0 0
-3.9934 3.3325 -12.6114 -0.464 0.354 0.812 66 14 6 0 0
-4.0271 3.3646 -12.6750 -0.250 0.594 0.764 76 24 8 0 0
-3.9940 3.3471 -12.8284 -0.091 0.728 0.680 45 11 10 0 0
-4.0863 3.4821 -13.7202 -0.392 0.635 0.665 92 38 22 0 0
-4.9008 4.3696 -16.9513 0.378 -0.025 0.925 204 204 204 0 0
2.8398 -2.2149 -13.7908 0.009 -0.087 0.996 143 83 55 0 0
1.3955 -1.0270 -13.6647 -0.312 -0.026 0.950 138 74 38 0 0
1.3463 -0.9866 -13.6598 -0.564 0.439 0.699 168 102 61 0 0
1.3083 -0.9521 -13.7058 -0.365 0.370 0.854 111 51 26 0 0
-3.0424 2.5632 -12.3842 0.005 0.692 0.721 120 43 23 0 0
-3.3719 2.8381 -12.4141 -0.557 0.002 0.831 124 43 22 0 0
-4.0716 3.4440 -12.8096 -0.695 -0.465 0.548 74 35 27 0 0
-3.9048 3.3562 -13.5653 -0.072 0.915 -0.398 74 14 5 0 0
-4.0398 3.4759 -13.6832 -0.476 0.807 0.350 52 18 12 0 0
-4.0484 3.4848 -13.7097 -0.322 0.815 0.482 53 13 4 0 0
-4.0602 3.4960 -13.7318 -0.297 0.785 0.543 88 34 19 0 0
-3.6819 3.3129 -15.6837 0.485 0.873 0.038 41 41 43 0 0
2.9915 -2.2916 -13.8145 -0.314 -0.462 0.829 154 98 74 0 0
1.4130 -0.9976 -13.6593 0.050 0.435 0.899 120 62 37 0 0
1.3248 -0.9220 -13.6994 -0.355 0.193 0.915 104 46 24 0 0
-2.8134 2.4086 -12.3821 -0.414 0.336 0.846 121 46 27 0 0
-3.3619 2.8634 -12.4044 -0.511 0.050 0.858 125 44 23 0 0
-3.3566 2.8620 -12.4464 0.029 0.345 0.938 125 44 23 0 0
-3.9812 3.3898 -12.6173 -0.605 0.452 0.656 63 14 8 0 0
-4.0373 3.4507 -12.8324 -0.395 -0.169 0.903 71 33 24 0 0
-4.0173 3.4924 -13.6896 -0.624 0.699 0.350 46 12 6 0 0
-3.9159 3.4792 -14.7275 -0.877 -0.123 0.464 94 59 53 0 0
-3.8010 3.4107 -15.1162 -0.806 0.180 0.564 92 57 51 0 0
2.9512 -2.2150 -13.7594 -0.399 -0.181 0.899 156 100 76 0 0
2.9139 -2.1835 -13.7696 -0.399 -0.181 0.899 133 81 61 0 0
2.8644 -2.1427 -13.7694 -0.219 -0.256 0.942 129 76 57 0 0
1.3746 -0.9200 -13.6833 -0.323 0.329 0.888 106 48 26 0 0
1.3456 -0.8951 -13.6971 -0.355 0.193 0.915 107 49 30 0 0
-2.7975 2.4305 -12.3790 -0.479 -0.193 0.856 120 45 26 0 0
-3.1353 2.7136 -12.4436 -0.625 0.423 0.656 125 44 25 0 0
-3.5024 3.0198 -12.4934 -0.655 0.415 0.631 134 53 34 0 0
-3.8636 3.4787 -14.8205 -0.936 0.328 -0.131 93 58 52 0 0
-3.8030 3.4469 -15.0835 -0.777 0.320 0.542 93 58 52 0 0
2.9185 -2.1387 -13.7941 0.148 -0.000 0.989 117 67 53 0 0
1.4409 -0.9305 -13.6824 -0.143 0.267 0.953 108 47 31 0 0
-2.7883 2.4574 -12.3683 -0.336 -0.098 0.937 121 47 28 0 0
-2.9058 2.5544 -12.3739 -0.178 0.216 0.960 128 53 34 0 0
-2.9276 2.5730 -12.3838 -0.172 0.288 0.942 120 44 26 0 0
-2.9613 2.6056 -12.4508 0.022 0.428 0.904 120 43 24 0 0
-3.4963 3.0477 -12.4788 -0.778 0.330 0.534 134 53 34 0 0
-3.7009 3.2206 -12.5417 -0.492 0.001 0.871 140 77 62 0 0
-3.7314 3.3187 -13.5768 0.252 -0.179 0.951 24 7 7 0 0
-3.9872 3.5614 -14.0347 -0.731 0.681 0.042 92 57 51 0 0
-3.9857 3.5632 -14.0766 -0.722 0.249 0.645 92 57 51 0 0
3.0911 -2.2336 -13.7931 0.081 0.116 0.990 145 98 77 0 0
3.0422 -2.1933 -13.7939 0.081 0.116 0.990 156 105 81 0 0
2.6976 -1.9134 -13.7513 -0.037 0.114 0.993 104 50 38 0 0
1.4767 -0.9178 -13.6533 -0.293 -0.148 0.945 115 53 36 0 0
-0.0631 0.2745 -12.6474 -0.303 0.437 0.847 111 51 41 0 0
-0.1156 0.3167 -12.6350 0.027 0.520 0.854 112 50 39 0 0
-0.1469 0.3430 -12.6425 -0.021 -0.475 0.880 112 50 39 0 0
-2.7308 2.4459 -12.3779 -0.568 0.239 0.788 118 45 28 0 0
-2.9032 2.5885 -12.3909 -0.451 0.365 0.815 119 42 24 0 0
-3.4393 3.0334 -12.4563 -0.545 0.080 0.835 129 48 27 0 0
-3.4626 3.0530 -12.4629 -0.650 0.222 0.727 127 46 25 0 0
-3.7285 3.3497 -13.5557 0.016 -0.174 0.985 26 7 5 0 0
-3.8132 3.4164 -13.5151 -0.559 0.062 0.827 30 7 5 0 0
-3.9707 3.5856 -14.0718 -0.867 0.479 0.139 92 57 51 0 0
-3.8216 3.5204 -14.8689 -0.793 0.603 -0.081 94 61 54 0 0
1.2667 -0.6997 -13.6803 -0.342 -0.035 0.939 121 71 56 0 0
0.0659 0.2109 -12.6742 -0.524 0.033 0.851 113 59 50 0 0
-0.0040 0.2661 -12.6458 -0.393 0.303 0.868 112 56 45 0 0
-0.0556 0.3076 -12.6344 0.074 0.713 0.697 112 53 42 0 0
-0.0771 0.3264 -12.6514 0.074 0.713 0.697 113 51 40 0 0
-0.1432 0.3787 -12.6259 0.071 -0.284 0.956 112 50 39 0 0
-2.7159 2.4686 -12.3737 -0.511 0.348 0.786 120 47 30 0 0
-2.8855 2.6087 -12.3902 -0.378 0.351 0.857 119 42 24 0 0
-3.4465 3.0736 -12.4608 -0.391 0.442 0.807 127 49 27 0 0
-3.7995 3.4393 -13.5090 -0.848 -0.049 0.528 31 7 5 0 0
-3.9738 3.5867 -13.5714 -0.791 0.443 0.421 82 43 35 0 0
-3.9560 3.5768 -13.6351 -0.742 0.605 0.287 57 25 20 0 0
-3.9765 3.6229 -14.0365 -0.292 0.953 0.084 92 57 51 0 0
-3.5799 3.4185 -15.6894 -0.966 -0.215 -0.140 44 44 46 0 0
-4.8845 4.5764 -16.9060 -0.311 0.552 0.774 204 204 204 0 0
-4.8875 4.5820 -16.9493 -0.238 0.754 0.612 207 207 207 0 0
0.0862 0.2346 -12.6731 -0.539 -0.110 0.835 112 62 51 0 0
-0.0038 0.3047 -12.6260 0.247 0.558 0.792 111 56 44 0 0
-2.6989 2.4897 -12.3720 -0.511 0.348 0.786 120 47 30 0 0
-2.7152 2.5043 -12.3888 -0.489 0.670 0.559 119 46 29 0 0
-2.7421 2.5266 -12.3933 -0.340 0.244 0.908 121 46 27 0 0
-3.7927 3.4673 -13.4933 -0.869 -0.238 0.433 33 9 6 0 0
-3.9625 3.6112 -13.5619 -0.906 0.369 0.208 79 40 31 0 0
-3.8380 3.6003 -14.7864 0.112 0.807 0.579 94 61 54 0 0
2.0346 -1.2385 -13.6860 -0.106 -0.126 0.986 101 51 38 0 0
0.0725 0.2836 -12.6403 -0.154 0.544 0.825 111 62 52 0 0
-0.0374 0.3767 -12.6860 -0.128 0.249 0.960 112 51 40 0 0
-2.6914 2.5203 -12.3949 -0.541 0.297 0.787 121 48 31 0 0
-2.7093 2.5361 -12.4098 -0.622 0.156 0.767 123 47 31 0 0
-3.3847 3.0908 -12.4576 -0.174 0.816 0.552 129 51 29 0 0
-3.6864 3.4185 -13.5383 -0.132 -0.211 0.968 25 7 5 0 0
-3.7677 3.4822 -13.5027 -0.720 0.533 0.445 33 8 6 0 0
-3.8050 3.6111 -14.8078 0.112 0.807 0.579 94 61 54 0 0
1.9625 -1.1352 -13.6822 -0.167 -0.084 0.982 116 60 41 0 0
-0.0141 0.3979 -12.6880 -0.045 0.282 0.958 112 51 40 0 0
-2.7022 2.5644 -12.3967 -0.704 0.012 0.710 122 46 30 0 0
-3.3053 3.0604 -12.4621 -0.552 0.368 0.748 127 49 27 0 0
-3.3426 3.0927 -12.4874 -0.338 0.538 0.772 129 51 29 0 0
-3.8196 3.4868 -12.5615 -0.774 0.624 0.106 128 55 35 0 0
-3.8612 3.6529 -14.2851 -0.755 0.016 0.656 93 58 52 0 0
-3.7719 3.6219 -14.8294 0.112 0.807 0.579 94 61 54 0 0
-3.6583 3.5492 -15.0864 -0.873 -0.138 0.468 95 62 55 0 0
-3.5427 3.4986 -15.6554 -0.612 0.693 -0.381 42 42 44 0 0
-3.4098 3.4881 -16.9289 0.552 0.823 0.136 117 117 119 0 0
1.4740 -0.6981 -13.6247 -0.196 0.202 0.959 135 60 32 0 0
0.1248 0.3221 -12.6492 -0.505 0.782 0.366 126 80 72 0 0
0.0119 0.4172 -12.6924 -0.045 0.282 0.958 112 51 40 0 0
-2.6474 2.5526 -12.3675 -0.440 0.016 0.898 120 47 30 0 0
-2.6899 2.5888 -12.3897 -0.578 0.070 0.813 120 44 28 0 0
-2.9555 2.8026 -12.3643 -0.365 0.792 0.488 120 43 25 0 0
-3.4489 3.2123 -12.4760 -0.060 0.016 0.998 132 54 34 0 0
-3.8033 3.5067 -12.5599 -0.774 0.624 0.106 130 57 36 0 0
-3.8387 3.5374 -12.5853 -0.590 -0.032 0.807 76 16 5 0 0
-3.8340 3.5396 -12.6630 -0.704 0.623 0.340 61 13 6 0 0
-3.8147 3.6318 -14.0461 -0.516 -0.049 0.855 97 63 57 0 0
-3.8355 3.6494 -14.0557 -0.495 0.012 0.869 95 60 54 0 0
-3.8595 3.6693 -14.0606 -0.187 0.560 0.807 94 59 53 0 0
-3.6893 3.6117 -15.0950 -0.517 0.183 0.836 87 54 47 0 0
-3.4523 3.4748 -15.8102 -0.193 0.925 -0.327 44 43 45 0 0
2.0148 -1.0912 -13.6457 -0.062 0.150 0.987 127 60 34 0 0
1.5159 -0.6902 -13.6014 0.048 0.243 0.969 133 63 38 0 0
1.5022 -0.6769 -13.6291 -0.025 0.337 0.941 131 61 35 0 0
0.1835 0.3174 -12.6841 0.055 0.551 0.833 125 80 72 0 0
0.0565 0.4228 -12.7143 -0.024 0.479 0.877 110 49 39 0 0
-1.9396 2.0150 -12.3847 -0.552 0.224 0.803 113 45 29 0 0
-3.1457 2.9969 -12.4348 -0.370 0.074 0.926 125 44 24 0 0
-3.3079 3.1268 -12.4153 -0.478 -0.059 0.876 127 49 28 0 0
-3.3543 3.1655 -12.4293 -0.631 0.343 0.695 128 50 29 0 0
-3.6512 3.4829 -13.3979 -0.060 0.009 0.998 21 4 4 0 0
-3.8314 3.6826 -14.0748 -0.134 0.597 0.791 96 62 55 0 0
2.0357 -1.0637 -13.6432 -0.210 -0.034 0.977 128 66 40 0 0
0.1768 0.3639 -12.6952 -0.184 0.724 0.665 114 61 50 0 0
-0.0855 0.5654 -12.5606 -0.257 0.395 0.882 110 49 38 0 0
-1.8387 1.9709 -12.4007 -0.348 0.485 0.802 119 52 36 0 0
-1.9119 2.0267 -12.3582 -0.197 0.118 0.973 117 50 34 0 0
-2.9009 2.8290 -12.3856 -0.291 0.736 0.611 121 44 26 0 0
-3.3135 3.1658 -12.4220 -0.476 0.123 0.871 128 50 30 0 0
-3.3391 3.1868 -12.4260 -0.631 0.343 0.695 128 50 30 0 0
-3.5834 3.3942 -12.5472 -0.611 0.194 0.768 145 89 77 0 0
-3.8025 3.6987 -14.1296 -0.051 0.914 0.403 96 61 55 0 0
-3.6749 3.6600 -14.9321 -0.998 -0.025 0.057 94 59 53 0 0
-3.6925 3.6755 -14.9474 -0.950 0.118 0.289 94 61 54 0 0
2.0647 -1.0389 -13.6883 -0.092 0.107 0.990 109 56 37 0 0
1.3811 -0.4880 -13.6763 0.004 0.472 0.882 122 84 78 0 0
-0.0618 0.5859 -12.5631 -0.241 0.376 0.895 110 49 38 0 0
-1.8174 1.9902 -12.4029 -0.365 0.414 0.834 116 49 33 0 0
-2.9047 2.8702 -12.4304 -0.265 0.461 0.847 122 43 26 0 0
-2.9233 2.8863 -12.4439 -0.141 0.419 0.897 121 43 23 0 0
-3.0916 3.0203 -12.4211 -0.587 -0.034 0.809 125 46 26 0 0
-3.3245 3.2084 -12.4221 -0.276 0.676 0.683 128 50 30 0 0
-3.3246 3.2114 -12.4572 -0.387 0.277 0.879 127 49 29 0 0
-3.4556 3.3184 -12.4725 -0.449 0.388 0.805 136 60 40 0 0
-3.7562 3.5706 -12.5886 -0.486 0.637 0.598 100 28 9 0 0
-3.7190 3.6043 -13.3699 -0.922 -0.302 0.242 25 6 5 0 0
2.6213 -1.4415 -13.7032 -0.026 0.057 0.998 102 50 36 0 0
1.4145 -0.4707 -13.6857 0.004 0.472 0.882 122 84 78 0 0
0.1869 0.4335 -12.6647 -0.886 -0.147 0.439 113 58 47 0 0
0.1728 0.4500 -12.7260 -0.042 0.810 0.585 112 50 39 0 0
-2.8731 2.8775 -12.4108 -0.832 0.187 0.521 121 43 26 0 0
-2.8998 2.9023 -12.4501 -0.530 -0.026 0.848 123 44 25 0 0
-3.1332 3.0879 -12.4204 -0.332 0.103 0.938 124 43 24 0 0
-3.7758 3.6244 -12.6475 -0.646 0.521 0.557 62 13 9 0 0
-3.8121 3.6586 -12.7075 -0.559 0.444 0.700 78 34 20 0 0
-3.8203 3.6673 -12.7327 -0.769 0.414 0.486 52 17 12 0 0
-3.6812 3.6134 -13.4345 0.421 0.590 0.689 27 7 6 0 0
-3.7579 3.7272 -14.0616 -0.101 0.194 0.976 97 64 57 0 0
-3.7711 3.7395 -14.0823 -0.582 0.804 0.120 96 63 56 0 0
-3.7850 3.7589 -14.1813 -0.339 0.910 0.237 92 57 51 0 0
1.5839 -0.5658 -13.6588 0.047 0.512 0.858 108 49 33 0 0
1.5098 -0.5018 -13.7118 -0.082 0.689 0.720 132 74 57 0 0
0.1862 0.4755 -12.6814 -0.552 0.622 0.556 110 51 40 0 0
-2.8958 2.9322 -12.4334 -0.105 0.578 0.809 122 44 24 0 0
-3.7410 3.6254 -12.5987 0.049 0.626 0.778 85 20 4 0 0
-3.7608 3.6452 -12.6443 -0.713 0.311 0.628 56 9 5 0 0
-3.7950 3.6780 -12.7070 -0.592 0.504 0.629 74 29 16 0 0
-3.7946 3.7396 -13.4433 -0.157 0.858 0.489 116 64 31 0 0
-3.7969 3.7443 -13.4780 -0.374 0.785 0.494 124 71 33 0 0
-3.7938 3.7454 -13.5202 -0.623 0.657 0.424 104 41 14 0 0
-3.8455 3.7937 -13.6006 -0.611 0.648 0.454 45 14 9 0 0
-2.3291 2.5020 -12.3177 -0.238 0.712 0.660 120 49 31 0 0
-2.3415 2.5138 -12.3390 -0.072 0.590 0.804 119 48 30 0 0
-2.9278 2.9872 -12.3746 -0.103 0.364 0.926 121 43 24 0 0
-3.7397 3.7372 -13.5321 0.107 0.316 0.943 129 78 39 0 0
-3.7712 3.7620 -13.5266 -0.526 0.629 0.573 101 39 8 0 0
-3.7822 3.7727 -13.5493 -0.522 0.616 0.590 91 39 21 0 0
-3.8045 3.7912 -13.5565 -0.416 0.763 0.494 85 42 29 0 0
-3.7310 3.7809 -14.1266 -0.709 0.678 0.191 95 60 54 0 0
-3.7348 3.7903 -14.2006 -0.707 0.708 -0.000 94 59 53 0 0
-2.3223 2.5336 -12.3397 -0.250 0.798 0.548 122 51 33 0 0
-2.8163 2.9323 -12.3780 -0.883 0.003 0.469 123 48 29 0 0
-3.7081 3.6681 -12.6315 -0.407 0.602 0.687 70 19 7 0 0
-3.7553 3.7192 -12.7848 -0.705 0.422 0.571 48 14 12 0 0
-3.6020 3.6589 -13.5062 -0.163 0.571 0.805 29 8 4 0 0
-3.7693 3.7959 -13.5423 0.084 0.713 0.696 88 38 17 0 0
-3.7015 3.7868 -14.0634 -0.819 0.543 0.185 97 64 57 0 0
3.2290 -1.7367 -13.8030 -0.324 -0.286 0.902 109 59 47 0 0
-2.5705 2.7686 -12.3576 -0.332 0.525 0.784 119 43 27 0 0
-3.6912 3.6877 -12.6307 -0.688 0.435 0.581 72 19 6 0 0
-3.7052 3.7003 -12.6483 -0.618 0.519 0.590 58 12 5 0 0
-3.7517 3.7479 -12.7666 -0.196 0.524 0.829 47 13 10 0 0
-3.7669 3.7614 -12.7827 -0.528 0.269 0.805 44 14 8 0 0
-3.7469 3.8127 -13.5483 -0.230 0.830 0.507 109 58 39 0 0
1.9308 -0.6662 -13.6857 0.072 0.239 0.968 123 66 43 0 0
1.8430 -0.5960 -13.6877 -0.079 0.065 0.995 130 68 45 0 0
-2.4886 2.7411 -12.3941 -0.030 0.360 0.933 120 44 28 0 0
-2.5494 2.7866 -12.3607 -0.332 0.525 0.784 119 43 27 0 0
-2.6993 2.9097 -12.4006 -0.519 0.588 0.620 120 43 25 0 0
-2.7948 2.9822 -12.3608 -0.677 0.297 0.673 122 45 27 0 0
-3.2917 3.3882 -12.4726 -0.270 0.580 0.769 135 58 40 0 0
-3.3074 3.4022 -12.4886 -0.270 0.580 0.769 144 69 50 0 0
-3.3693 3.4541 -12.5183 -0.059 0.256 0.965 140 67 50 0 0
-3.7129 3.7462 -12.7226 -0.253 0.488 0.836 71 25 15 0 0
1.9624 -0.6468 -13.6929 0.072 0.239 0.968 150 87 52 0 0
1.6560 -0.3989 -13.7390 0.071 0.362 0.929 121 61 45 0 0
-3.2471 3.3860 -12.4701 -0.395 0.200 0.897 132 55 37 0 0
-3.2661 3.4022 -12.4821 -0.395 0.200 0.897 133 56 38 0 0
-3.6418 3.7129 -12.6136 -0.304 0.511 0.804 90 25 9 0 0
-3.6933 3.7639 -12.7254 -0.297 0.539 0.788 65 19 11 0 0
-3.7070 3.8495 -13.5536 -0.764 0.440 0.472 97 44 26 0 0
-3.3480 3.7546 -15.6663 -0.699 0.693 -0.175 51 51 54 0 0
1.7628 -0.4407 -13.7343 -0.553 0.245 0.796 121 56 34 0 0
-2.6625 2.9492 -12.4008 -0.491 0.104 0.865 120 43 25 0 0
-3.4032 3.5432 -12.4680 -0.604 0.509 0.614 136 63 46 0 0
-3.6377 3.7442 -12.6320 -0.304 0.511 0.804 64 13 4 0 0
-3.6705 3.7762 -12.6965 -0.516 0.598 0.614 56 12 7 0 0
-3.6787 3.7850 -12.7215 -0.562 0.602 0.568 61 16 10 0 0
-3.6920 3.8713 -13.5495 -0.764 0.440 0.472 100 49 32 0 0
-2.3483 2.7299 -12.3482 -0.484 -0.315 0.816 119 43 27 0 0
-2.6438 2.9689 -12.4012 -0.223 0.257 0.940 123 47 29 0 0
-3.3708 3.5491 -12.4511 -0.586 0.224 0.779 136 63 46 0 0
-3.3938 3.5680 -12.4578 -0.612 0.623 0.487 136 64 47 0 0
-3.4093 3.5850 -12.5088 -0.604 0.509 0.614 134 68 54 0 0
3.2418 -1.5246 -13.7106 -0.269 -0.283 0.921 129 75 55 0 0
-2.3797 2.7941 -12.3980 -0.600 0.550 0.581 118 42 26 0 0
-3.0636 3.3396 -12.4509 -0.421 0.300 0.856 127 50 30 0 0
-3.2689 3.5048 -12.4840 -0.370 0.289 0.883 134 61 42 0 0
-3.3662 3.5772 -12.4350 -0.612 0.623 0.487 134 62 44 0 0
-3.3754 3.5867 -12.4587 -0.612 0.623 0.487 135 64 46 0 0
-3.3864 3.5973 -12.4803 -0.542 0.441 0.715 134 65 49 0 0
-3.4004 3.6101 -12.4980 -0.425 0.294 0.856 135 69 55 0 0
-3.5887 3.7698 -12.6143 -0.146 0.229 0.962 89 24 7 0 0
-3.5906 3.7778 -12.6828 -0.321 0.554 0.768 49 10 4 0 0
-3.7101 3.9608 -13.6266 -0.403 0.660 0.634 46 12 9 0 0
-3.6240 3.9330 -14.0562 -0.509 0.828 0.237 97 63 54 0 0
3.2277 -1.4669 -13.7196 -0.295 -0.020 0.955 129 73 51 0 0
3.1599 -1.4148 -13.7044 -0.191 0.186 0.964 123 62 41 0 0
-2.3426 2.8016 -12.4186 -0.606 0.634 0.480 118 42 26 0 0
-3.3487 3.5998 -12.4698 -0.285 0.704 0.651 140 69 51 0 0
-3.3779 3.6227 -12.4690 -0.478 0.580 0.660 142 74 57 0 0
-3.5700 3.7948 -12.6867 -0.452 0.543 0.708 47 10 3 0 0
-3.6229 3.8369 -12.6901 -0.511 0.760 0.401 53 11 5 0 0
1.9052 -0.3865 -13.6576 -0.395 0.129 0.910 120 61 35 0 0
-3.6031 3.8545 -12.6930 -0.705 0.565 0.429 56 14 7 0 0
-3.6583 3.9973 -13.7247 -0.741 0.655 -0.147 80 26 11 0 0
-3.5784 3.9638 -14.0296 -0.318 0.938 0.137 98 65 55 0 0
-3.5767 3.9664 -14.0712 -0.509 0.828 0.237 97 63 54 0 0
-3.5643 3.9889 -14.4059 -0.534 0.705 0.468 94 59 53 0 0
-3.4650 3.9561 -14.8767 -0.715 0.699 0.022 96 62 53 0 0
1.9240 -0.3583 -13.6534 -0.395 0.129 0.910 100 48 33 0 0
1.9173 -0.3498 -13.6875 -0.217 0.646 0.732 102 48 33 0 0
1.8996 -0.3335 -13.7118 -0.305 0.684 0.663 102 45 30 0 0
-3.1892 3.5418 -12.4810 -0.102 0.320 0.942 140 65 46 0 0
-3.6060 3.8906 -12.7024 -0.699 0.361 0.617 68 21 10 0 0
-3.4858 3.8648 -13.4058 -0.215 -0.017 0.976 25 7 5 0 0
-3.6252 4.0073 -13.7455 -0.533 0.846 -0.020 74 23 9 0 0
-3.5519 3.9786 -14.0411 -0.483 0.735 0.475 97 64 57 0 0
-3.5616 3.9887 -14.0666 -0.483 0.735 0.475 97 64 57 0 0
-3.5713 3.9988 -14.0920 -0.483 0.735 0.475 95 60 54 0 0
-3.4104 3.9663 -15.0542 -0.726 0.445 0.524 95 60 54 0 0
-3.1913 3.8682 -15.8127 -0.205 0.974 0.093 41 41 42 0 0
1.9334 -0.3157 -13.7210 -0.148 0.778 0.610 99 44 31 0 0
-2.8590 3.3047 -12.3629 -0.736 0.608 0.299 121 44 24 0 0
-3.3069 3.6683 -12.4911 -0.341 0.310 0.887 143 75 59 0 0
-3.3240 3.6830 -12.5052 -0.470 0.457 0.755 142 79 65 0 0
-3.5900 3.9107 -12.7004 -0.734 0.458 0.502 75 26 14 0 0
-3.4231 3.8518 -13.4278 -0.477 -0.708 0.521 23 5 5 0 0
-3.5362 4.0043 -14.0764 -0.646 0.608 0.460 97 63 57 0 0
-3.5290 4.0231 -14.3234 -0.797 0.595 -0.101 92 57 51 0 0
-3.3927 3.9882 -15.0521 -0.676 0.161 0.719 95 60 54 0 0
-3.1621 3.8797 -15.7831 -0.445 0.887 -0.126 41 42 45 0 0
3.8740 -1.7781 -13.8340 -0.404 0.543 0.736 213 213 215 0 0
0.3398 0.8655 -12.6412 0.436 0.679 0.591 112 50 38 0 0
-2.8323 3.3219 -12.4078 -0.194 0.615 0.764 121 44 25 0 0
-3.0457 3.4951 -12.4706 -0.331 0.565 0.756 130 53 33 0 0
-3.3060 3.7056 -12.5406 -0.450 0.704 0.549 141 82 71 0 0
-3.4897 3.8579 -12.6287 -0.718 0.521 0.461 102 31 14 0 0
-3.4724 3.9265 -13.4502 -0.203 0.342 0.918 38 10 6 0 0
-3.5032 4.0112 -14.0578 -0.170 0.534 0.828 97 64 56 0 0
-3.5155 4.0230 -14.0796 -0.348 0.741 0.574 96 62 55 0 0
-3.3185 3.9954 -15.3450 -0.652 0.696 -0.299 88 63 55 0 0
-3.2683 3.9723 -15.5060 -0.801 0.495 -0.336 44 43 44 0 0
-3.1803 3.9211 -15.6820 -0.975 0.022 0.219 44 44 48 0 0
0.4808 0.8022 -12.7140 0.353 0.325 0.877 112 50 39 0 0
-2.8268 3.3534 -12.4280 -0.379 0.574 0.726 129 52 33 0 0
-2.9153 3.4261 -12.4640 -0.048 0.502 0.864 127 50 31 0 0
-2.9839 3.4785 -12.4529 -0.445 0.386 0.808 127 49 30 0 0
-3.0028 3.4945 -12.4653 -0.648 0.458 0.609 128 52 32 0 0
-3.5170 3.9135 -12.6426 -0.441 0.529 0.725 51 9 3 0 0
-3.2982 4.0161 -15.3463 -0.464 0.881 -0.092 89 62 53 0 0
-3.2874 4.0137 -15.4051 -0.561 0.816 -0.139 50 44 45 0 0
-3.2730 4.0089 -15.4697 -0.667 0.674 -0.318 45 45 47 0 0
-3.1884 3.9602 -15.6402 -0.978 0.210 -0.011 43 44 46 0 0
-3.0514 3.8920 -16.0235 -0.974 -0.127 -0.190 29 27 29 0 0
-3.0585 3.9010 -16.0570 -0.961 0.164 -0.223 32 30 32 0 0
-3.0490 3.8995 -16.1163 -0.809 0.547 -0.217 34 32 34 0 0
-3.0388 3.9022 -16.2216 -0.398 0.896 -0.197 41 38 38 0 0
-3.0238 3.8975 -16.2898 -0.044 0.959 -0.280 43 42 41 0 0
3.8876 -1.6772 -14.0122 -0.173 0.123 0.977 201 196 193 0 0
2.7919 -0.8542 -13.7208 -0.550 0.293 0.782 108 52 40 0 0
-2.4600 3.0995 -12.4082 -0.236 0.379 0.894 120 43 25 0 0
-2.8865 3.4385 -12.4767 -0.090 0.395 0.914 128 51 33 0 0
-2.9311 3.4750 -12.4941 -0.338 0.147 0.930 128 51 32 0 0
-2.9900 3.5209 -12.4942 -0.703 0.384 0.598 129 54 33 0 0
-3.6014 4.1217 -13.7165 -0.983 -0.011 0.184 101 48 31 0 0
-3.2406 4.0223 -15.4890 -0.801 0.492 -0.341 46 47 49 0 0
-3.1824 3.9903 -15.6196 -0.994 0.084 -0.064 44 47 47 0 0
3.9195 -1.6548 -14.0174 -0.213 0.150 0.965 207 204 205 0 0
3.8756 -1.6200 -14.0236 0.017 0.179 0.984 194 194 194 0 0
3.6878 -1.4771 -13.9954 0.338 0.337 0.879 118 81 68 0 0
3.6269 -1.4306 -13.9870 0.291 0.394 0.872 112 67 54 0 0
2.8120 -0.8256 -13.7174 -0.550 0.293 0.782 108 51 39 0 0
-1.9928 2.7677 -12.3780 -0.081 0.219 0.972 120 47 32 0 0
-2.8373 3.4340 -12.4783 -0.142 0.542 0.828 128 51 33 0 0
-2.8642 3.4553 -12.4817 -0.090 0.395 0.914 130 53 35 0 0
-2.9677 3.5339 -12.4645 -0.796 0.487 0.359 132 57 37 0 0
-3.4498 3.9236 -12.6127 -0.609 0.422 0.672 107 36 16 0 0
-3.4793 3.9500 -12.6459 -0.381 0.593 0.710 59 13 6 0 0
-3.3702 3.9396 -13.3649 -0.569 0.462 0.680 21 4 3 0 0
-3.2538 4.0552 -15.3549 -0.821 0.499 -0.278 95 63 52 0 0
-3.1870 4.0270 -15.5832 -0.990 0.079 -0.118 64 65 67 0 0
3.9438 -1.6269 -14.0164 -0.213 0.150 0.965 208 208 210 0 0
3.9077 -1.5976 -14.0289 -0.213 0.150 0.965 204 203 205 0 0
3.2732 -1.1128 -13.9625 0.081 0.636 0.768 107 50 40 0 0
0.5654 0.8531 -12.6956 -0.207 -0.192 0.959 112 55 44 0 0
-1.9456 2.7655 -12.3736 -0.081 0.219 0.972 119 46 31 0 0
-2.4455 3.1613 -12.4531 -0.436 0.244 0.866 123 48 29 0 0
-2.4597 3.1743 -12.4720 -0.601 0.354 0.717 118 43 24 0 0
-2.8348 3.4637 -12.4602 -0.518 0.008 0.855 126 49 31 0 0
-3.0904 3.6630 -12.4715 -0.593 0.271 0.759 131 57 40 0 0
-3.2418 3.7868 -12.5326 -0.319 0.278 0.906 137 78 71 0 0
3.9279 -1.5671 -14.0247 -0.307 0.127 0.943 209 208 210 0 0
3.7921 -1.4605 -14.0394 0.338 0.215 0.916 176 162 156 0 0
3.7446 -1.4235 -14.0421 -0.661 -0.436 0.611 137 110 100 0 0
2.2468 -0.3043 -13.6730 -0.315 0.528 0.789 111 52 38 0 0
2.1698 -0.2434 -13.6855 -0.431 -0.043 0.901 111 52 36 0 0
-2.3058 3.0759 -12.3444 -0.311 0.483 0.819 119 45 27 0 0
-2.3232 3.0910 -12.3599 -0.311 0.483 0.819 119 46 25 0 0
-2.3539 3.1148 -12.3607 -0.188 0.598 0.779 118 46 25 0 0
-2.7380 3.4210 -12.4472 -0.280 0.662 0.695 124 47 29 0 0
-3.0743 3.6834 -12.4695 -0.386 0.379 0.841 132 56 40 0 0
-3.2253 3.8068 -12.5312 -0.291 -0.151 0.945 136 79 71 0 0
-3.4200 3.9653 -12.6061 -0.106 0.534 0.839 93 21 8 0 0
-3.4849 4.0329 -12.7712 -0.548 0.524 0.652 48 14 9 0 0
-3.4759 4.1609 -14.0455 -0.665 0.723 0.185 95 61 52 0 0
-3.3930 4.1986 -15.0075 -0.485 0.711 0.510 83 45 40 0 0
-3.0658 4.0614 -16.1015 -0.911 -0.396 -0.115 44 42 42 0 0
3.7358 -1.3734 -14.0142 -0.669 -0.445 0.595 181 170 164 0 0
3.7213 -1.3590 -14.0440 0.372 0.322 0.871 156 137 128 0 0
2.2873 -0.2862 -13.7277 0.355 0.099 0.930 110 51 35 0 0
0.5103 0.9729 -12.6802 0.340 0.851 0.401 109 49 39 0 0
-2.2848 3.0942 -12.3472 -0.311 0.483 0.819 118 45 26 0 0
-2.4239 3.2110 -12.4360 -0.869 0.062 0.490 118 43 24 0 0
-2.5768 3.3217 -12.3677 -0.294 -0.039 0.955 119 44 25 0 0
-2.7142 3.4369 -12.4538 -0.177 0.402 0.898 127 50 32 0 0
-3.3975 3.9812 -12.6122 -0.205 0.595 0.777 93 21 7 0 0
-3.4950 4.0773 -12.8069 -0.822 0.376 0.429 45 12 9 0 0
3.9915 -1.5309 -13.9516 -0.614 0.166 0.772 213 213 215 0 0
3.7586 -1.3495 -13.9707 -0.669 -0.445 0.595 206 205 206 0 0
3.6942 -1.2966 -14.0010 -0.652 -0.465 0.599 193 186 183 0 0
2.2912 -0.2434 -13.7506 0.131 -0.262 0.956 109 50 36 0 0
-2.0040 2.9167 -12.3898 0.231 0.200 0.952 116 43 27 0 0
-2.9405 3.6440 -12.4470 -0.623 -0.047 0.781 131 56 37 0 0
-3.4319 4.0485 -12.6878 -0.816 0.161 0.555 52 10 3 0 0
-3.4298 4.0510 -12.7256 -0.376 0.406 0.833 55 12 6 0 0
-3.4525 4.0692 -12.7323 -0.708 0.693 0.136 51 12 5 0 0
-3.4165 4.1745 -13.9609 -0.055 0.079 0.995 93 64 58 0 0
2.2107 -0.1437 -13.6993 -0.105 -0.295 0.950 109 50 36 0 0
-2.2829 3.1644 -12.3781 -0.414 0.646 0.641 122 49 29 0 0
-2.2958 3.1765 -12.3986 -0.414 0.646 0.641 135 62 43 0 0
-2.3086 3.1886 -12.4192 -0.414 0.646 0.641 116 42 23 0 0
-2.9356 3.6718 -12.4317 -0.645 0.298 0.704 128 53 33 0 0
-3.1277 3.8248 -12.4807 -0.391 0.650 0.652 131 62 46 0 0
-3.1485 3.8418 -12.4905 -0.371 0.536 0.759 132 62 49 0 0
-3.3971 4.0529 -12.6743 -0.643 0.455 0.616 50 11 6 0 0
-3.4154 4.0955 -12.9350 -0.150 0.966 -0.211 78 38 31 0 0
-3.3567 4.0665 -13.0824 -0.163 0.962 -0.220 43 19 13 0 0
-3.4854 4.2194 -13.5760 -0.626 0.586 0.515 58 29 25 0 0
-3.3234 4.2491 -14.9846 0.204 0.795 0.572 89 57 49 0 0
-3.0696 4.1370 -15.7419 -0.528 0.834 -0.156 42 43 43 0 0
-2.6796 3.5085 -12.4311 -0.245 0.254 0.936 122 45 27 0 0
-2.9007 3.6765 -12.4171 -0.391 -0.023 0.920 124 49 30 0 0
-2.9241 3.6952 -12.4243 -0.515 0.391 0.763 124 49 28 0 0
-3.2628 4.2403 -15.0041 -0.288 0.947 0.144 106 65 51 0 0
-3.2764 4.2531 -15.0256 -0.358 0.752 0.554 93 58 51 0 0
-3.0410 4.1533 -15.7553 -0.447 0.877 -0.174 38 38 38 0 0
3.9265 -1.3315 -14.0456 -0.400 -0.110 0.910 212 212 214 0 0
-1.5751 2.6857 -12.3305 -0.826 0.047 0.562 113 44 28 0 0
-1.5926 2.7010 -12.3472 -0.778 0.059 0.625 118 46 32 0 0
-2.2964 3.2444 -12.3918 -0.467 -0.067 0.882 121 45 29 0 0
-2.9223 3.7286 -12.4400 -0.503 0.387 0.773 126 51 32 0 0
-3.1336 3.8971 -12.5005 -0.454 0.357 0.817 128 64 50 0 0
-3.1497 3.9111 -12.5158 -0.442 0.321 0.838 132 75 65 0 0
-3.4021 4.1281 -12.7295 -0.623 0.615 0.484 56 13 5 0 0
-3.3493 4.2489 -14.1715 -0.471 0.824 0.315 87 53 44 0 0
-3.3564 4.2620 -14.2399 -0.761 0.320 0.565 87 53 44 0 0
-3.2628 4.2498 -14.7717 -0.468 0.401 0.787 93 63 52 0 0
-3.0120 4.1695 -15.7691 -0.576 0.808 -0.122 38 38 38 0 0
3.7869 -1.1751 -14.0775 -0.800 0.264 0.540 212 213 216 0 0
3.2721 -0.7884 -14.0222 -0.602 -0.482 0.637 129 105 101 0 0
3.2373 -0.7605 -14.0340 -0.602 -0.482 0.637 110 81 76 0 0
3.2041 -0.7336 -14.0471 -0.611 -0.440 0.659 103 69 62 0 0
3.1708 -0.7067 -14.0600 -0.611 -0.440 0.659 98 59 52 0 0
-1.5001 2.6662 -12.3535 -0.172 0.267 0.948 113 44 28 0 0
-1.5243 2.6858 -12.3634 -0.172 0.267 0.948 113 44 28 0 0
-1.6437 2.7826 -12.4136 -0.383 0.422 0.822 116 44 30 0 0
-2.2641 3.2515 -12.3726 -0.491 -0.126 0.862 119 43 28 0 0
-3.1156 3.9161 -12.5009 -0.454 0.331 0.827 130 63 51 0 0
-3.3379 4.2690 -14.1229 -0.875 0.282 0.393 91 55 48 0 0
-3.3416 4.2845 -14.2348 -0.636 0.411 0.653 87 53 44 0 0
-3.2394 4.2679 -14.7782 -0.732 -0.110 0.672 96 66 55 0 0
-2.9869 4.1880 -15.7771 -0.626 0.760 -0.175 34 34 34 0 0
3.2317 -0.7141 -14.0084 -0.611 -0.440 0.659 166 151 149 0 0
3.1984 -0.6873 -14.0214 -0.611 -0.440 0.659 140 117 112 0 0
3.1651 -0.6604 -14.0343 -0.611 -0.440 0.659 116 87 81 0 0
3.1536 -0.6481 -14.0656 -0.685 -0.414 0.599 106 71 67 0 0
-2.2540 3.2768 -12.3634 -0.362 0.115 0.925 116 40 25 0 0
-2.3061 3.3178 -12.3750 -0.293 0.051 0.955 120 44 28 0 0
-2.5894 3.5407 -12.4376 -0.449 -0.006 0.894 122 46 27 0 0
-3.2211 4.1300 -13.3842 -0.209 -0.295 0.932 31 9 5 0 0
-3.3200 4.3030 -14.2390 -0.467 0.716 0.519 87 52 46 0 0
3.1926 -0.6410 -13.9958 -0.611 -0.440 0.659 191 180 178 0 0
3.1601 -0.6147 -14.0093 -0.640 -0.425 0.641 171 156 153 0 0
3.1481 -0.6021 -14.0402 -0.699 -0.380 0.606 143 124 122 0 0
3.1208 -0.5792 -14.0580 -0.556 -0.294 0.777 123 97 93 0 0
3.0896 -0.5538 -14.0724 -0.540 -0.291 0.790 116 82 78 0 0
3.0453 -0.5198 -14.0757 -0.455 -0.385 0.803 107 69 63 0 0
-1.9448 3.0801 -12.4023 -0.512 -0.030 0.858 117 44 27 0 0
-1.9706 3.1006 -12.4092 -0.584 0.250 0.772 121 48 31 0 0
-1.9918 3.1180 -12.4212 -0.561 0.145 0.815 117 44 27 0 0
-2.4169 3.4392 -12.4043 -0.580 0.412 0.703 118 43 24 0 0
-2.4697 3.4805 -12.4141 -0.181 0.247 0.952 120 45 26 0 0
-3.0978 3.9695 -12.5145 -0.295 0.359 0.886 137 78 66 0 0
-3.2236 4.0756 -12.6052 -0.497 0.517 0.697 166 103 84 0 0
-3.2538 4.1023 -12.6379 -0.545 0.317 0.776 117 43 20 0 0
-3.1604 4.1195 -13.4024 -0.915 0.122 0.385 28 8 5 0 0
-3.3238 4.2618 -13.5595 -0.626 0.355 0.694 100 49 28 0 0
-3.2929 4.3181 -14.2510 -0.025 0.601 0.799 88 53 47 0 0
-2.9483 4.2320 -15.7759 -0.656 0.710 -0.254 30 28 31 0 0
3.1245 -0.5394 -14.0403 -0.556 -0.294 0.777 177 167 165 0 0
3.0920 -0.5132 -14.0536 -0.556 -0.294 0.777 160 143 140 0 0
3.1017 -0.5148 -14.1030 0.534 0.453 0.714 140 119 116 0 0
2.9683 -0.4174 -14.0707 -0.472 -0.392 0.790 107 74 70 0 0
2.9300 -0.3874 -14.0787 -0.472 -0.392 0.790 102 62 57 0 0
2.8860 -0.3537 -14.0816 -0.484 -0.315 0.816 101 55 49 0 0
-0.7736 2.2335 -12.4645 0.369 0.392 0.843 111 47 35 0 0
-1.4444 2.7291 -12.3518 0.028 0.780 0.625 112 43 28 0 0
-1.9246 3.0954 -12.3692 -0.451 0.234 0.861 116 43 26 0 0
-2.8779 3.8270 -12.4430 -0.357 0.374 0.856 128 53 33 0 0
-3.3473 4.2223 -12.7806 -0.884 0.233 0.405 45 10 3 0 0
-3.2979 4.2812 -13.6072 -0.765 0.027 0.643 86 42 31 0 0
-3.2239 4.3546 -14.7194 -0.794 0.411 0.448 93 63 53 0 0
-3.1261 4.3400 -15.2301 -0.628 0.741 -0.239 93 61 53 0 0
-3.0806 4.3181 -15.3384 -0.506 0.806 -0.309 59 46 47 0 0
-2.9864 4.2776 -15.6043 -0.266 0.964 0.015 25 24 29 0 0
3.3914 -0.7066 -13.9573 -0.145 0.001 0.989 212 213 217 0 0
-1.8945 3.1083 -12.3814 -0.351 0.158 0.923 112 39 22 0 0
-1.9163 3.1262 -12.3928 -0.351 0.158 0.923 114 41 24 0 0
-2.5780 3.6346 -12.4579 -0.194 0.409 0.891 122 45 27 0 0
-3.1850 4.1078 -12.5745 -0.604 0.586 0.539 155 86 70 0 0
-3.3373 4.2462 -12.7710 -0.388 0.776 0.497 46 10 3 0 0
-3.3446 4.2548 -12.7971 -0.676 0.617 0.404 45 11 7 0 0
-3.3250 4.3326 -13.5844 -0.711 0.343 0.614 74 39 31 0 0
-3.2081 4.3489 -14.4752 -0.732 0.610 0.303 92 58 51 0 0
-3.2136 4.3804 -14.7073 -0.795 0.516 0.318 89 61 50 0 0
-3.0752 4.3377 -15.2344 -0.928 0.256 -0.269 86 48 40 0 0
-3.1018 4.3582 -15.2375 -0.628 0.741 -0.239 91 61 55 0 0
-3.0092 4.3139 -15.4568 -0.351 0.904 -0.246 29 26 30 0 0
-2.9485 4.2885 -15.6312 -0.266 0.964 0.015 24 24 28 0 0
-2.9447 4.2913 -15.6797 -0.293 0.953 -0.082 38 38 40 0 0
-2.9031 4.2722 -15.7843 -0.695 0.683 -0.224 29 27 30 0 0
-2.8818 4.2700 -15.9027 -0.536 0.822 -0.190 34 32 34 0 0
3.4182 -0.6818 -13.9590 0.012 0.119 0.993 212 213 215 0 0
-1.3761 2.7514 -12.3826 0.028 0.780 0.625 112 45 29 0 0
-2.1113 3.3050 -12.3698 -0.316 0.670 0.672 116 40 24 0 0
-2.9560 3.9562 -12.4819 -0.679 -0.022 0.733 140 71 55 0 0
-2.9782 3.9740 -12.4901 -0.744 0.085 0.663 142 72 59 0 0
-2.9925 3.9869 -12.5077 -0.744 0.085 0.663 133 66 54 0 0
-3.0111 4.0024 -12.5202 -0.617 -0.125 0.777 133 70 59 0 0
-3.1968 4.1573 -12.6431 -0.558 0.641 0.527 108 37 17 0 0
-3.1980 4.4030 -14.7027 -0.905 0.401 0.139 94 64 49 0 0
-2.9916 4.3314 -15.4119 -0.708 0.610 -0.356 58 44 48 0 0
-2.8997 4.2931 -15.6742 -0.316 0.949 0.014 7 7 9 0 0
-1.5889 2.9474 -12.3865 -0.243 0.259 0.935 114 42 27 0 0
-2.6259 3.7341 -12.4310 -0.719 0.379 0.582 121 44 26 0 0
-3.1820 4.1781 -12.6397 -0.550 0.542 0.636 103 31 12 0 0
0.7068 1.2939 -12.6998 -0.723 0.690 -0.026 110 50 39 0 0
-1.8597 3.1865 -12.3933 0.001 0.369 0.930 116 43 26 0 0
-1.9988 3.2939 -12.4171 -0.119 0.573 0.811 115 39 23 0 0
-2.6034 3.7550 -12.4707 -0.590 0.377 0.714 123 46 28 0 0
-3.3123 4.4074 -13.4556 -0.464 0.628 0.624 89 47 35 0 0
-3.1947 4.4449 -14.4947 -0.754 0.529 0.390 84 54 44 0 0
-2.8421 4.3156 -15.6154 -0.235 0.944 -0.230 21 21 23 0 0
-1.4935 2.9398 -12.3420 -0.594 0.165 0.787 111 42 26 0 0
-1.8579 3.2214 -12.4099 -0.496 -0.007 0.868 116 41 25 0 0
-1.9764 3.3117 -12.4211 -0.133 0.346 0.929 117 41 25 0 0
-2.0593 3.3714 -12.4005 -0.140 0.439 0.887 116 39 23 0 0
-2.9726 4.0692 -12.5027 -0.396 -0.104 0.912 136 74 62 0 0
-3.1358 4.2015 -12.5835 -0.466 0.603 0.647 160 97 80 0 0
-3.1606 4.2248 -12.6229 -0.759 0.469 0.451 113 42 21 0 0
-3.1692 4.2343 -12.6472 -0.759 0.469 0.451 90 24 7 0 0
-3.2027 4.4380 -14.1061 -0.629 0.741 0.235 92 55 47 0 0
-3.1362 4.4327 -14.4710 -0.334 0.912 0.239 95 61 54 0 0
-1.9572 3.3314 -12.4219 -0.256 0.267 0.929 117 41 25 0 0
-2.3303 3.6115 -12.4275 -0.421 0.399 0.815 119 42 24 0 0
-2.9802 4.1079 -12.5073 -0.330 0.030 0.944 134 75 64 0 0
-3.1197 4.2173 -12.5472 0.062 0.923 0.379 148 82 66 0 0
-3.1418 4.2433 -12.6244 -0.829 0.393 0.399 115 42 22 0 0
-3.1310 4.4610 -14.4524 -0.721 0.686 0.099 95 62 54 0 0
-3.1337 4.4675 -14.4881 -0.410 0.862 0.298 92 58 49 0 0
-3.1330 4.4720 -14.5286 -0.726 0.687 -0.000 88 54 45 0 0
-3.1110 4.4691 -14.6391 -0.544 0.804 0.239 88 54 44 0 0
-2.7055 4.3303 -15.9728 0.445 0.769 0.459 20 20 21 0 0
-1.9382 3.3513 -12.4223 -0.256 0.267 0.929 119 43 27 0 0
-2.2827 3.6091 -12.4256 -0.419 0.063 0.906 119 42 24 0 0
-2.3090 3.6294 -12.4309 -0.403 0.158 0.902 120 43 25 0 0
-3.0648 4.2098 -12.5576 -0.131 0.785 0.606 146 78 58 0 0
-3.0826 4.2247 -12.5708 0.064 0.856 0.513 148 83 66 0 0
-3.1259 4.2635 -12.6223 -0.919 0.282 0.277 115 43 25 0 0
-3.1138 4.4922 -14.5293 -0.726 0.687 -0.000 92 58 49 0 0
-3.0303 4.4999 -15.0915 -0.684 0.723 -0.101 89 52 45 0 0
-2.6475 4.3092 -15.8552 -0.602 0.751 -0.273 33 31 33 0 0
-2.6237 4.3011 -15.9331 -0.502 0.798 0.333 34 32 33 0 0
-2.6382 4.3147 -15.9553 -0.554 0.374 0.744 31 29 30 0 0
-2.6633 4.3343 -15.9619 -0.130 0.177 0.976 28 26 27 0 0
-1.9170 3.3699 -12.4251 -0.195 0.275 0.942 116 40 24 0 0
-2.2160 3.5952 -12.4447 -0.207 0.107 0.973 118 43 25 0 0
-2.2841 3.6451 -12.4383 -0.205 0.546 0.813 116 40 22 0 0
-3.0652 4.2440 -12.5706 -0.574 0.277 0.771 146 80 63 0 0
-3.0816 4.2581 -12.5853 -0.561 0.380 0.735 158 96 83 0 0
-3.1166 4.2876 -12.6123 -0.510 0.187 0.840 102 35 17 0 0
-3.1236 4.2961 -12.6384 -0.695 0.298 0.654 96 29 12 0 0
-3.2075 4.4166 -13.0986 -0.827 0.476 0.300 76 38 30 0 0
-3.2089 4.4264 -13.1687 -0.809 0.551 0.203 79 41 34 0 0
-3.1973 4.4242 -13.2197 -0.596 0.767 0.238 80 43 35 0 0
-3.0123 4.5113 -15.0079 -0.735 0.675 0.065 89 58 50 0 0
-3.0155 4.5183 -15.0442 -0.794 0.601 -0.096 89 55 48 0 0
-2.5602 4.2932 -15.9529 -0.934 0.338 0.118 36 35 36 0 0
-2.7491 4.5384 -16.7828 0.622 0.728 0.288 123 121 122 0 0
-2.8392 4.1046 -12.5422 -0.365 0.354 0.861 137 73 61 0 0
-3.0352 4.2559 -12.5854 -0.226 0.311 0.923 141 70 53 0 0
-3.1302 4.3339 -12.6437 -0.509 0.305 0.805 78 16 3 0 0
-3.1097 4.5225 -14.2483 -0.874 0.484 0.042 90 56 47 0 0
-2.9749 4.5272 -15.0749 -0.200 0.873 0.446 90 55 47 0 0
-2.2934 3.7211 -12.4563 -0.040 -0.150 0.988 120 45 26 0 0
-2.6243 3.9717 -12.4954 -0.275 0.331 0.903 123 48 29 0 0
-2.8211 4.1238 -12.5424 -0.365 0.354 0.861 139 76 63 0 0
-3.0297 4.2867 -12.6054 -0.421 0.604 0.677 151 89 76 0 0
-3.1873 4.4827 -13.2230 -0.827 0.259 0.498 79 42 35 0 0
-3.1814 4.5550 -13.8208 -0.974 0.188 0.123 99 68 57 0 0
-3.1079 4.5424 -14.1483 -0.857 0.515 -0.011 90 56 47 0 0
-2.9746 4.5379 -14.8854 -0.886 0.462 0.038 93 60 50 0 0
-2.5786 4.3811 -15.9546 -0.994 0.105 -0.000 29 25 25 0 0
-2.5319 4.3663 -16.1098 -0.801 0.449 -0.395 26 22 21 0 0
0.8307 1.4741 -12.7137 -0.242 -0.072 0.968 108 48 39 0 0
-2.1707 3.6606 -12.4341 -0.212 0.230 0.950 115 39 25 0 0
-2.2387 3.7146 -12.4623 -0.212 0.230 0.950 118 43 24 0 0
-2.2613 3.7326 -12.4717 -0.212 0.230 0.950 120 45 26 0 0
-2.7996 4.1409 -12.5468 -0.231 0.520 0.822 138 76 61 0 0
-2.9078 4.2179 -12.5228 -0.249 0.168 0.954 138 85 73 0 0
-3.0308 4.3213 -12.6176 -0.224 0.543 0.809 133 71 56 0 0
-3.1737 4.4451 -12.7561 -0.633 0.503 0.589 65 17 9 0 0
-3.1680 4.4508 -12.8332 -0.513 0.776 0.366 57 16 10 0 0
-3.1714 4.5080 -13.2566 -0.484 0.332 0.810 80 43 35 0 0
-3.1806 4.5180 -13.2810 -0.544 0.338 0.768 80 43 35 0 0
-3.1836 4.5244 -13.3135 -0.738 0.437 0.515 79 42 34 0 0
-2.8823 4.5390 -15.1521 -0.691 0.713 -0.121 90 55 48 0 0
0.8108 1.5226 -12.6769 -0.134 0.264 0.955 108 49 39 0 0
-2.1973 3.7162 -12.4535 -0.212 0.230 0.950 117 41 25 0 0
-2.2199 3.7342 -12.4629 -0.212 0.230 0.950 119 44 25 0 0
-2.9162 4.2569 -12.5263 -0.142 0.263 0.954 146 96 86 0 0
-3.0298 4.3547 -12.6321 0.025 0.550 0.835 114 47 29 0 0
-3.0942 4.4056 -12.6580 -0.553 0.378 0.742 81 19 6 0 0
-3.1353 4.4476 -12.7469 -0.656 0.571 0.493 86 30 11 0 0
-3.1440 4.4572 -12.7711 -0.682 0.557 0.474 68 19 10 0 0
-3.1406 4.4644 -12.8453 -0.549 0.680 0.486 60 19 13 0 0
-3.1236 4.5105 -13.2949 -0.236 0.359 0.903 80 43 36 0 0
-3.1661 4.5395 -13.2768 -0.353 0.388 0.852 82 45 38 0 0
-3.1758 4.5497 -13.3005 -0.479 0.567 0.670 80 43 36 0 0
-2.9638 4.5896 -14.8069 -0.740 0.654 0.158 93 59 50 0 0
-2.9500 4.5872 -14.8665 -0.891 0.317 0.325 92 59 50 0 0
0.5719 1.7256 -12.5886 -0.127 0.444 0.887 108 48 38 0 0
-2.2562 3.7908 -12.4369 -0.275 0.671 0.689 121 46 27 0 0
-2.9982 4.3567 -12.5799 -0.597 -0.093 0.797 149 96 83 0 0
-3.0059 4.3702 -12.6397 -0.089 0.499 0.862 116 48 29 0 0
-3.1157 4.4656 -12.7494 -0.624 0.650 0.433 88 30 11 0 0
-3.1203 4.4729 -12.7786 -0.401 0.783 0.476 70 18 9 0 0
-3.1078 4.4749 -12.8641 -0.869 0.104 0.484 58 17 12 0 0
-3.1242 4.5406 -13.2713 -0.453 0.630 0.631 78 41 35 0 0
4.5967 -0.8801 -14.9808 -0.650 0.633 0.421 210 210 211 0 0
0.8083 1.5959 -12.6369 -0.177 -0.079 0.981 104 47 36 0 0
0.6254 1.7231 -12.5819 -0.190 0.374 0.908 106 48 37 0 0
0.5989 1.7443 -12.5941 -0.127 0.444 0.887 106 48 39 0 0
-2.1457 3.7425 -12.4356 -0.423 0.070 0.903 118 42 26 0 0
-2.2465 3.8156 -12.4275 -0.764 0.365 0.532 120 43 25 0 0
-2.8632 4.2806 -12.5128 -0.412 0.120 0.903 131 75 65 0 0
-2.8828 4.2965 -12.5241 -0.182 -0.004 0.983 145 96 86 0 0
-2.9010 4.3116 -12.5369 -0.479 0.131 0.868 154 107 96 0 0
-3.1068 4.4944 -12.7736 -0.577 0.595 0.559 70 16 8 0 0
-3.1078 4.5610 -13.2694 -0.754 0.539 0.376 78 41 35 0 0
-3.0586 4.6575 -14.2693 -0.536 0.725 0.432 89 55 46 0 0
4.6208 -0.8510 -14.9791 -0.580 0.740 0.341 204 204 204 0 0
4.6251 -0.8479 -15.0261 -0.542 0.484 0.687 192 188 188 0 0
0.9491 1.5401 -12.7066 -0.141 -0.119 0.983 102 48 36 0 0
0.4132 1.9271 -12.6585 -0.652 -0.270 0.709 108 48 39 0 0
-2.1327 3.7654 -12.4298 -0.135 0.643 0.754 117 41 25 0 0
-2.1878 3.8069 -12.4379 -0.183 0.082 0.980 118 41 23 0 0
-2.2216 3.8314 -12.4349 -0.694 0.141 0.706 116 39 21 0 0
-2.7935 4.2606 -12.5053 -0.259 0.279 0.925 135 73 56 0 0
-2.8065 4.2727 -12.5243 -0.481 0.291 0.827 129 68 55 0 0
-2.8349 4.2937 -12.5253 -0.481 0.772 0.416 133 78 67 0 0
-2.9976 4.4195 -12.5729 -0.480 -0.193 0.856 143 89 72 0 0
-3.0307 4.4477 -12.6021 -0.431 0.530 0.730 111 35 14 0 0
-3.0511 4.4640 -12.6120 -0.583 0.369 0.724 92 25 7 0 0
-3.0779 4.5593 -13.1767 -0.677 0.546 0.495 77 40 34 0 0
-3.0784 4.5644 -13.2120 -0.801 0.266 0.536 77 40 34 0 0
-3.0397 4.6570 -14.1159 -0.558 0.829 -0.033 90 55 49 0 0
-3.0298 4.6566 -14.1676 -0.675 0.609 0.416 90 56 47 0 0
-2.9418 4.6235 -14.4029 -0.936 0.332 0.119 90 56 47 0 0
-2.9405 4.6758 -14.8002 -0.711 0.703 0.033 94 61 52 0 0
-2.7186 4.5875 -15.3574 -0.695 0.634 -0.340 45 31 29 0 0
4.6511 -0.8257 -14.9825 -0.580 0.740 0.341 199 200 200 0 0
4.6342 -0.8036 -15.0553 -0.390 0.122 0.913 139 120 115 0 0
4.6005 -0.7768 -15.0706 -0.608 0.173 0.775 121 92 85 0 0
0.6203 1.8018 -12.5756 -0.227 0.088 0.970 103 45 35 0 0
0.5237 1.8753 -12.5963 -0.759 -0.054 0.649 103 46 35 0 0
-2.1242 3.7910 -12.4191 -0.702 0.633 0.326 117 41 25 0 0
-2.2555 3.8907 -12.4459 -0.396 0.092 0.914 116 41 22 0 0
-2.8074 4.3027 -12.5025 -0.095 0.629 0.772 130 70 56 0 0
-2.8142 4.3112 -12.5289 -0.569 0.746 0.346 129 77 68 0 0
-2.8091 4.3129 -12.5692 -0.420 0.560 0.714 140 91 82 0 0
-2.9228 4.3967 -12.5724 0.011 0.051 0.999 136 71 57 0 0
-3.0636 4.6750 -13.8698 -0.788 0.354 0.503 94 65 58 0 0
-3.0102 4.6660 -14.0924 -0.918 0.395 -0.018 89 56 48 0 0
-3.0078 4.6698 -14.1340 -0.918 0.395 -0.018 88 57 50 0 0
-2.9400 4.6586 -14.4189 -0.972 0.216 0.094 90 55 47 0 0
4.6765 -0.7975 -14.9819 -0.650 0.633 0.421 199 197 197 0 0
4.6765 -0.7915 -15.0253 -0.442 0.477 0.760 170 158 153 0 0
4.6451 -0.7663 -15.0426 -0.365 0.018 0.931 125 98 90 0 0
4.6163 -0.7426 -15.0620 -0.442 0.025 0.897 114 79 69 0 0
1.1350 1.4884 -12.7597 0.266 0.209 0.941 105 57 46 0 0
0.0891 2.2321 -12.6075 -0.375 -0.076 0.924 106 45 34 0 0
-2.3045 3.9681 -12.5084 -0.427 0.653 0.626 122 48 29 0 0
-2.5103 4.1149 -12.4822 -0.087 0.261 0.961 121 46 27 0 0
-2.7874 4.3206 -12.5053 -0.285 0.662 0.694 122 62 49 0 0
-2.7934 4.3287 -12.5325 -0.759 0.563 0.325 129 78 70 0 0
-2.7987 4.3364 -12.5606 -0.609 0.343 0.715 149 100 89 0 0
-2.9495 4.4458 -12.5540 -0.014 -0.181 0.983 147 95 83 0 0
-2.9695 4.4618 -12.5645 -0.325 0.082 0.942 145 92 77 0 0
-2.9884 4.4772 -12.5763 -0.398 0.129 0.908 126 61 41 0 0
-3.0013 4.4892 -12.5952 -0.923 0.145 0.356 103 28 8 0 0
-3.0452 4.5518 -12.8193 -0.683 0.728 0.058 61 14 9 0 0
-3.0400 4.6069 -13.2513 -0.658 0.721 0.216 78 41 33 0 0
-3.0462 4.6152 -13.2795 -0.497 0.742 0.450 78 41 33 0 0
