ply
format ascii 1.0
element vertex 833
property float x
property float y
property float z
property float nx
property float ny
property float nz
property uchar diffuse_red
property uchar diffuse_green
property uchar diffuse_blue
property uchar class
property uchar detection
end_header
3.3053 -0.8541 -13.9802 0.439 0.339 0.832 149 131 130 0 0
3.0700 -2.1959 -13.8140 0.429 -0.559 0.710 164 80 27 0 0
3.0729 -2.3643 -14.1363 0.690 -0.648 0.322 156 92 79 0 0
3.0690 -2.3935 -14.1458 0.643 -0.247 0.725 140 75 53 0 0
3.0638 -2.4277 -14.1494 0.565 -0.528 0.634 124 62 44 0 0
3.0475 -2.7731 -14.5753 -0.573 -0.721 0.390 100 71 61 0 0
3.0538 -2.7657 -14.6297 -0.576 -0.557 0.599 82 58 51 0 0
3.1212 -2.8233 -15.4421 -0.024 -0.931 0.364 5 5 5 0 0
3.1267 -2.8203 -15.4943 0.065 -0.989 0.134 5 5 5 0 0
3.1739 -2.8177 -15.9889 0.083 -0.756 0.649 7 7 9 0 0
3.1282 -3.4445 -16.5904 -0.001 -0.687 0.727 142 141 142 0 0
3.2644 -0.8959 -13.9350 0.266 0.233 0.935 117 85 80 0 0
3.2538 -0.9828 -13.9729 -0.477 -0.156 0.865 116 53 40 0 0
3.0484 -2.1548 -13.8154 0.049 -0.547 0.835 162 62 15 0 0
3.0353 -2.4117 -14.1221 0.643 -0.247 0.725 142 78 56 0 0
2.9746 -2.7533 -14.0666 -0.132 -0.768 0.626 67 14 4 0 0
3.0230 -2.7422 -14.5659 0.021 -0.906 0.424 101 62 50 0 0
3.0240 -2.7539 -14.5965 -0.164 -0.634 0.756 99 60 49 0 0
3.0232 -2.7720 -14.6193 -0.033 -0.715 0.699 100 66 55 0 0
3.0244 -2.7827 -14.6513 -0.386 -0.669 0.635 99 70 60 0 0
3.0237 -2.8006 -14.6744 0.033 -0.855 0.517 97 70 61 0 0
3.0378 -2.7654 -14.7639 0.152 -0.926 0.346 98 72 64 0 0
3.0403 -2.7717 -14.8017 -0.201 -0.860 0.469 94 68 63 0 0
3.0999 -3.4538 -16.6264 -0.218 -0.633 0.743 146 146 146 0 0
3.0970 -3.4799 -16.6405 -0.376 -0.573 0.728 153 152 153 0 0
3.1060 -3.4666 -16.7134 -0.217 -0.894 0.391 160 160 160 0 0
3.2406 -0.8563 -13.9308 0.355 0.311 0.882 122 95 93 0 0
3.1407 -1.3655 -13.7408 -0.154 -0.420 0.894 104 44 33 0 0
3.0151 -2.1727 -13.7930 0.152 -0.624 0.767 156 58 15 0 0
2.9503 -2.7238 -14.0560 -0.686 -0.362 0.631 66 14 3 0 0
2.9905 -2.7554 -14.5470 0.195 -0.948 0.251 92 54 44 0 0
2.9937 -2.7590 -14.5877 0.101 -0.859 0.502 92 53 45 0 0
2.9937 -2.7743 -14.6139 0.101 -0.859 0.502 92 56 45 0 0
2.9936 -2.7896 -14.6401 0.101 -0.859 0.502 92 56 45 0 0
2.9949 -2.8003 -14.6722 0.033 -0.855 0.517 94 55 44 0 0
3.0008 -2.7941 -14.7253 -0.035 -0.986 0.162 98 59 50 0 0
3.0761 -2.8043 -15.5582 0.058 -0.990 0.130 5 5 5 0 0
3.0703 -3.4676 -16.6558 -0.317 -0.526 0.789 153 152 153 0 0
3.2933 -0.4684 -14.1523 0.515 0.370 0.773 211 212 214 0 0
3.2695 -0.5782 -14.0840 0.500 0.380 0.778 212 212 214 0 0
3.2208 -0.8008 -13.9429 0.340 0.300 0.891 131 111 109 0 0
3.1132 -1.3587 -13.7456 -0.027 -0.397 0.917 126 63 44 0 0
2.9572 -2.6822 -14.3661 0.110 -0.945 0.309 81 40 34 0 0
2.9585 -2.6925 -14.3980 0.110 -0.945 0.309 82 44 39 0 0
3.0268 -3.5118 -16.5869 0.392 -0.893 0.222 153 152 152 0 0
3.0026 -3.6581 -16.5794 0.689 -0.170 0.705 180 180 180 0 0
3.2397 -0.5601 -14.0573 0.466 0.360 0.808 211 213 214 0 0
3.1944 -0.7862 -13.9554 0.266 0.151 0.952 113 79 74 0 0
3.1017 -1.2437 -13.7376 -0.044 -0.123 0.991 122 56 42 0 0
3.0838 -1.3589 -13.7431 -0.274 -0.370 0.888 145 81 52 0 0
3.0222 -2.8304 -15.6640 0.274 -0.962 -0.018 12 6 6 0 0
3.1623 -0.7939 -13.9452 0.266 0.151 0.952 111 67 60 0 0
3.0727 -1.2418 -13.7372 -0.136 -0.206 0.969 116 50 36 0 0
3.0563 -1.3515 -13.7485 -0.274 -0.370 0.888 127 61 39 0 0
2.9078 -2.4164 -13.9776 0.206 -0.515 0.832 103 60 37 0 0
2.9757 -3.0948 -15.9453 0.787 -0.432 0.440 19 18 24 0 0
2.9757 -3.1264 -16.0018 0.242 -0.960 0.138 38 38 40 0 0
2.9201 -3.9108 -16.7740 -0.747 -0.415 0.518 192 192 194 0 0
2.8825 -4.1495 -16.7768 0.227 -0.115 0.967 194 194 194 0 0
3.0463 -1.2149 -13.7210 -0.008 -0.302 0.953 118 52 36 0 0
3.0279 -1.1555 -13.7382 -0.024 -0.012 1.000 119 53 37 0 0
2.8890 -3.1600 -15.7503 0.807 -0.522 0.276 17 18 20 0 0
3.0756 -0.7646 -13.9258 0.309 0.032 0.951 113 55 43 0 0
2.9939 -1.1738 -13.7171 -0.151 -0.302 0.941 118 51 36 0 0
2.7600 -3.8418 -15.8271 0.058 -0.983 0.176 114 104 103 0 0
2.8512 -3.7727 -16.7627 0.342 -0.648 0.681 186 186 188 0 0
2.8391 -3.8466 -16.7563 -0.758 -0.375 0.534 186 186 188 0 0
3.0704 -0.6312 -13.9737 -0.307 -0.352 0.884 109 66 62 0 0
3.0669 -0.6605 -13.9866 -0.307 -0.352 0.884 111 54 46 0 0
2.9748 -1.1164 -13.7321 -0.113 -0.124 0.986 118 52 36 0 0
2.8792 -1.7270 -13.7181 -0.414 -0.555 0.722 113 53 32 0 0
2.8256 -2.1887 -13.9282 0.517 -0.854 -0.050 124 66 46 0 0
2.8581 -2.0736 -14.1012 0.737 -0.666 -0.114 149 95 84 0 0
2.8801 -2.5712 -15.2662 0.603 -0.797 -0.037 51 14 7 0 0
2.8859 -2.5641 -15.3226 0.603 -0.797 -0.037 50 13 7 0 0
2.8662 -2.9006 -15.7030 -0.187 -0.465 0.865 17 4 5 0 0
2.8230 -3.1537 -15.6549 -0.268 -0.101 0.958 40 42 43 0 0
2.8183 -3.1861 -15.6596 -0.268 -0.101 0.958 40 44 45 0 0
2.8212 -3.2219 -15.7582 0.884 -0.388 0.262 23 23 27 0 0
2.7268 -3.8412 -15.7748 0.083 -0.894 0.440 112 91 86 0 0
2.7306 -3.8427 -15.8228 0.058 -0.983 0.176 113 95 92 0 0
3.0487 -0.5654 -13.9528 -0.644 -0.594 0.482 142 122 119 0 0
3.0456 -0.5933 -13.9672 -0.307 -0.352 0.884 109 70 63 0 0
3.0422 -0.6226 -13.9801 -0.307 -0.352 0.884 109 59 50 0 0
2.9464 -1.1116 -13.7347 -0.113 -0.124 0.986 118 52 37 0 0
2.8099 -2.0069 -13.7472 -0.073 -0.760 0.646 122 46 26 0 0
2.7477 -2.7461 -14.3598 -0.404 -0.901 0.158 80 34 21 0 0
2.7503 -2.7505 -14.3988 -0.392 -0.916 0.086 78 29 15 0 0
2.7525 -2.7564 -14.4361 -0.302 -0.950 0.075 75 25 11 0 0
2.7552 -2.7604 -14.4758 -0.302 -0.950 0.075 71 21 8 0 0
2.7579 -2.7644 -14.5156 -0.302 -0.950 0.075 68 20 8 0 0
2.8552 -2.6134 -15.3998 0.810 -0.565 0.154 46 11 3 0 0
2.8519 -2.6568 -15.4395 0.779 -0.301 0.550 46 11 7 0 0
2.8462 -2.6937 -15.4397 0.593 -0.106 0.798 46 12 8 0 0
2.8117 -3.0545 -15.6888 0.052 0.290 0.956 26 20 19 0 0
2.8064 -3.0898 -15.6900 -0.147 0.292 0.945 31 28 28 0 0
2.7730 -3.8675 -16.7176 0.578 -0.500 0.645 180 180 182 0 0
2.7414 -4.1052 -16.7770 0.635 -0.479 0.606 186 184 185 0 0
2.9161 -1.1149 -13.7291 0.041 -0.190 0.981 117 53 39 0 0
2.9110 -1.1510 -13.7337 0.020 -0.163 0.986 107 47 36 0 0
2.7616 -2.2016 -13.8664 0.241 -0.799 0.550 195 129 81 0 0
2.7318 -2.7542 -14.5257 -0.364 -0.930 0.051 76 30 19 0 0
2.7832 -3.0345 -15.6641 0.252 0.069 0.965 24 13 12 0 0
2.7823 -3.0533 -15.6876 0.058 0.256 0.965 20 10 10 0 0
2.7634 -3.7152 -16.6806 -0.213 -0.774 0.597 176 175 178 0 0
2.7933 -1.7523 -13.7678 -0.402 -0.416 0.816 162 97 68 0 0
2.7925 -1.7699 -13.7908 -0.504 -0.548 0.668 131 79 65 0 0
2.7834 -1.8222 -13.7761 -0.104 -0.215 0.971 138 93 83 0 0
2.7607 -1.9592 -13.7529 0.370 -0.427 0.825 119 51 33 0 0
2.6816 -2.6529 -14.0723 0.149 -0.856 0.495 92 23 7 0 0
2.7332 -2.7673 -14.9165 -0.059 -0.988 0.145 69 23 10 0 0
2.7373 -2.7659 -14.9645 0.111 -0.987 0.112 70 23 11 0 0
2.7400 -2.7702 -15.0055 0.111 -0.987 0.112 65 18 7 0 0
2.7473 -3.0428 -15.6012 0.175 -0.917 0.359 21 9 8 0 0
2.7472 -3.0584 -15.6290 0.634 -0.131 0.762 19 7 7 0 0
2.7520 -3.0555 -15.6818 0.405 0.054 0.913 13 4 3 0 0
2.6310 -3.9184 -15.8035 0.434 -0.901 -0.020 110 87 80 0 0
2.6355 -3.9169 -15.8560 0.495 -0.868 0.022 115 94 88 0 0
2.6392 -3.9339 -15.9321 0.670 -0.742 -0.011 123 109 106 0 0
2.6059 -4.5914 -16.7455 -0.428 -0.900 0.077 205 205 205 0 0
2.7926 -1.5475 -13.7329 0.092 -0.577 0.811 130 55 32 0 0
2.7879 -1.5816 -13.7386 -0.107 -0.426 0.899 133 64 40 0 0
2.7695 -1.7166 -13.7619 0.128 -0.100 0.987 190 112 81 0 0
2.7650 -1.7499 -13.7680 -0.154 -0.472 0.868 169 104 79 0 0
2.7615 -1.7788 -13.7788 0.005 -0.505 0.863 133 81 65 0 0
2.7555 -1.8183 -13.7781 0.271 -0.415 0.868 132 81 67 0 0
2.7332 -2.8314 -15.3959 -0.106 -0.703 0.703 92 31 13 0 0
2.7304 -2.9028 -15.4942 0.058 -0.682 0.729 123 59 33 0 0
2.7223 -2.9644 -15.5092 0.669 -0.649 0.362 73 22 8 0 0
2.7119 -3.0801 -15.5968 0.068 -0.642 0.764 14 4 2 0 0
2.5922 -3.7317 -15.3298 0.187 -0.595 0.782 104 58 45 0 0
2.5895 -3.7569 -15.3427 0.465 -0.843 0.270 98 50 35 0 0
2.5939 -3.9787 -15.8120 0.651 -0.759 -0.011 111 89 84 0 0
2.6018 -3.9646 -15.8835 0.683 -0.729 0.039 115 96 92 0 0
2.6363 -4.2080 -16.7665 0.826 -0.412 0.386 183 181 182 0 0
2.5671 -4.6245 -16.6875 0.262 0.068 0.963 205 204 205 0 0
2.9452 -0.4587 -13.9655 -0.737 -0.663 0.135 107 78 75 0 0
2.8326 -1.0645 -13.6903 0.416 -0.537 0.733 119 54 37 0 0
2.8249 -1.1267 -13.7101 -0.257 -0.644 0.720 111 49 37 0 0
2.7742 -1.4875 -13.7523 0.246 -0.214 0.946 133 59 37 0 0
2.7638 -1.5462 -13.7320 0.152 -0.462 0.874 137 65 47 0 0
2.7358 -1.7509 -13.7646 0.299 -0.233 0.926 129 74 56 0 0
2.7330 -1.7768 -13.7787 0.039 -0.382 0.923 144 95 79 0 0
2.7255 -1.8228 -13.7709 0.271 -0.415 0.868 125 71 52 0 0
2.6740 -2.2520 -13.9300 0.208 -0.949 0.236 148 80 63 0 0
2.6557 -2.4127 -14.0031 0.333 0.149 0.931 166 115 100 0 0
2.7029 -2.8342 -15.3895 -0.350 -0.888 0.298 135 77 55 0 0
2.7039 -2.8904 -15.5079 -0.309 -0.792 0.526 124 57 30 0 0
2.5624 -3.7362 -15.3206 0.279 -0.506 0.816 98 49 36 0 0
2.5530 -4.0084 -15.7151 0.466 -0.866 0.182 108 79 74 0 0
2.5640 -3.9972 -15.8321 0.683 -0.729 0.039 110 88 83 0 0
2.5741 -3.9748 -15.9161 0.630 -0.727 0.273 113 95 90 0 0
2.5556 -4.5150 -16.7012 -0.211 -0.215 0.954 200 198 199 0 0
2.5545 -4.5345 -16.7236 -0.457 -0.630 0.628 202 200 201 0 0
2.8046 -1.0579 -13.6949 0.235 -0.386 0.892 116 53 36 0 0
2.7971 -1.1194 -13.7153 0.085 -0.607 0.790 121 55 39 0 0
2.5898 -2.5970 -13.8728 -0.052 -0.829 0.557 120 32 10 0 0
2.6038 -2.5525 -13.9674 0.102 -0.718 0.689 110 26 7 0 0
2.5978 -2.6336 -14.0446 -0.257 -0.528 0.810 74 10 2 0 0
2.6755 -2.8105 -15.3699 -0.256 -0.539 0.802 135 78 57 0 0
2.6753 -2.8260 -15.3975 -0.350 -0.888 0.298 159 108 81 0 0
2.6542 -2.9847 -15.4284 0.193 -0.310 0.931 123 56 31 0 0
2.6494 -3.0485 -15.4881 0.374 -0.444 0.814 58 14 4 0 0
2.6552 -3.0407 -15.5470 -0.196 -0.797 0.571 30 4 1 0 0
2.5444 -3.6075 -15.2089 0.883 -0.266 0.387 104 58 47 0 0
2.5209 -3.9031 -15.4696 0.436 -0.482 0.760 99 54 44 0 0
2.5329 -4.0206 -15.8449 0.658 -0.728 0.190 108 86 79 0 0
2.5346 -4.0289 -15.8831 0.658 -0.728 0.190 113 93 87 0 0
2.5824 -4.1563 -16.7341 0.091 0.029 0.995 172 171 169 0 0
2.5282 -4.5078 -16.7096 -0.542 -0.657 0.523 199 197 198 0 0
2.5205 -4.5511 -16.6931 -0.532 -0.770 0.351 201 199 200 0 0
2.7984 -0.9266 -13.7427 0.487 -0.373 0.790 124 57 41 0 0
2.7695 -1.1110 -13.7216 -0.135 -0.329 0.935 138 68 42 0 0
2.5770 -2.5462 -13.9723 0.147 -0.761 0.632 104 22 4 0 0
2.6049 -2.7283 -14.6802 -0.090 -0.994 0.064 65 17 4 0 0
2.6280 -2.9713 -15.4434 0.334 -0.289 0.897 128 69 50 0 0
2.6273 -3.0339 -15.5533 -0.320 -0.763 0.562 60 16 6 0 0
2.5087 -3.6206 -15.1403 0.715 -0.267 0.646 110 64 53 0 0
2.4902 -4.1174 -15.8488 0.716 -0.690 -0.107 116 98 92 0 0
2.5501 -4.1656 -16.7161 -0.020 0.066 0.998 168 166 164 0 0
2.5403 -4.2639 -16.7759 0.631 -0.513 0.582 181 178 179 0 0
2.5311 -4.3129 -16.7514 -0.068 0.353 0.933 184 182 183 0 0
2.5229 -4.3584 -16.7321 -0.032 0.416 0.909 187 185 186 0 0
2.4744 -4.6428 -16.6475 -0.136 -0.060 0.989 203 202 203 0 0
2.4547 -4.8055 -16.7036 0.910 -0.395 0.124 209 209 209 0 0
2.8596 -0.3320 -13.7886 -0.799 -0.592 0.107 211 212 214 0 0
2.8640 -0.3554 -13.8918 -0.803 -0.596 0.019 207 206 209 0 0
2.6478 -1.7425 -13.7248 0.211 -0.152 0.966 139 80 61 0 0
2.5342 -2.5935 -13.8721 0.079 -0.659 0.748 116 31 9 0 0
2.5578 -2.7322 -14.4479 0.171 -0.961 0.218 37 7 4 0 0
2.5589 -2.7418 -14.4809 0.037 -0.974 0.226 35 6 2 0 0
2.6009 -2.9320 -15.3965 -0.459 -0.486 0.744 127 70 57 0 0
2.5936 -2.9911 -15.4143 -0.011 -0.594 0.804 129 73 57 0 0
2.4379 -4.1339 -15.5708 0.716 -0.663 0.219 101 70 61 0 0
2.4365 -4.1832 -15.6467 0.773 -0.569 0.280 107 81 74 0 0
2.5253 -4.1475 -16.7417 0.006 -0.091 0.996 166 163 161 0 0
2.7416 -0.9009 -13.7224 0.065 -0.099 0.993 122 55 39 0 0
2.6255 -1.6996 -13.7266 0.125 -0.472 0.873 138 87 64 0 0
2.5259 -2.7177 -14.3742 0.230 -0.868 0.440 54 13 5 0 0
2.5267 -2.7287 -14.4052 0.201 -0.874 0.443 55 17 9 0 0
2.5280 -2.7372 -14.4394 0.298 -0.893 0.337 44 11 5 0 0
2.5863 -2.7241 -15.1887 -0.257 -0.950 0.178 72 21 10 0 0
2.5688 -2.9576 -15.4079 -0.267 -0.678 0.685 122 66 54 0 0
2.5649 -2.9881 -15.4155 -0.379 -0.483 0.790 118 58 43 0 0
2.7140 -0.8773 -13.7023 0.096 -0.467 0.879 122 56 40 0 0
2.7078 -0.9332 -13.7291 0.189 -0.111 0.976 120 51 37 0 0
2.4988 -2.6975 -14.3519 -0.403 -0.884 0.238 64 14 4 0 0
2.5021 -2.6972 -14.3966 -0.564 -0.698 0.441 73 25 10 0 0
2.4989 -2.7392 -14.4343 0.137 -0.189 0.972 88 42 23 0 0
2.5611 -2.6917 -15.1803 -0.337 -0.914 0.224 51 9 5 0 0
2.5595 -2.7127 -15.2006 -0.078 -0.905 0.419 53 10 5 0 0
2.4029 -3.9316 -15.4662 -0.013 0.028 1.000 96 44 31 0 0
2.3942 -3.9948 -15.4727 -0.165 -0.572 0.804 96 45 32 0 0
2.4415 -4.3160 -16.7367 -0.611 -0.125 0.782 177 176 174 0 0
2.3730 -4.7853 -16.7280 -0.687 -0.618 0.382 210 210 210 0 0
2.4598 -2.6318 -14.0778 -0.188 -0.651 0.735 89 16 3 0 0
2.4588 -2.6497 -14.1000 -0.331 -0.702 0.631 99 28 8 0 0
2.4710 -2.6383 -14.2444 -0.471 -0.746 0.471 47 7 1 0 0
2.4737 -2.7104 -14.4225 -0.429 -0.287 0.856 113 58 26 0 0
2.4684 -2.7611 -14.4497 -0.539 -0.404 0.739 78 26 9 0 0
2.5374 -2.7398 -15.3525 -0.107 -0.667 0.737 103 52 38 0 0
2.5344 -2.7817 -15.3936 -0.363 -0.716 0.596 141 79 43 0 0
2.5142 -2.9395 -15.4264 -0.352 -0.533 0.769 137 81 71 0 0
2.5097 -2.9726 -15.4306 -0.174 -0.643 0.746 154 95 82 0 0
2.3616 -4.0542 -15.5309 -0.181 -0.705 0.685 99 54 41 0 0
2.4287 -4.2976 -16.9274 0.067 -0.737 0.672 188 187 187 0 0
2.7647 -0.2794 -14.0425 -0.556 -0.601 0.574 116 52 40 0 0
2.4444 -2.6298 -14.2520 -0.267 -0.962 0.052 48 7 1 0 0
2.4657 -2.7191 -14.7242 0.124 -0.966 0.226 35 7 3 0 0
2.5001 -2.8309 -15.4225 0.187 -0.884 0.429 137 79 67 0 0
2.4999 -2.8609 -15.4792 0.276 -0.837 0.473 141 88 78 0 0
2.3001 -4.4880 -15.9289 0.051 -0.614 0.787 134 127 125 0 0
2.2932 -4.5293 -15.9157 -0.078 -0.224 0.972 138 130 128 0 0
2.3408 -4.6112 -16.7381 -0.560 -0.229 0.796 202 202 200 0 0
2.7310 -0.2938 -14.0259 -0.330 -0.446 0.832 119 53 40 0 0
2.7120 -0.3978 -13.9652 0.530 -0.263 0.806 120 51 37 0 0
2.4397 -2.3594 -14.0452 -0.361 -0.837 0.411 118 41 17 0 0
2.4117 -2.6071 -14.1455 -0.025 -0.792 0.609 96 29 7 0 0
2.4095 -2.6717 -14.2433 -0.339 -0.881 0.332 64 14 5 0 0
2.4489 -2.6802 -14.8156 -0.582 -0.242 0.777 34 6 2 0 0
2.2543 -4.3854 -15.4782 0.398 -0.314 0.862 105 67 58 0 0
2.2532 -4.4039 -15.4998 0.004 -0.484 0.875 105 67 58 0 0
2.2511 -4.4407 -15.5435 0.137 -0.876 0.463 104 64 56 0 0
2.2511 -4.4551 -15.5716 0.243 -0.801 0.547 102 63 55 0 0
2.2710 -4.4902 -15.9226 -0.705 -0.381 0.599 132 120 117 0 0
2.3318 -4.4578 -16.7145 -0.557 -0.793 0.246 189 187 188 0 0
2.3169 -4.5905 -16.7693 -0.440 -0.435 0.786 201 201 199 0 0
2.7261 -0.0858 -13.9729 0.383 0.303 0.873 204 199 201 0 0
2.7155 -0.1934 -14.0375 -0.767 -0.456 0.451 114 53 43 0 0
2.6735 -0.4221 -13.8965 0.207 -0.156 0.966 119 51 38 0 0
2.6653 -0.4750 -13.8862 0.594 -0.059 0.803 120 51 36 0 0
2.4529 -1.9380 -13.7925 -0.210 -0.517 0.830 174 93 42 0 0
2.3837 -2.6052 -14.1453 0.190 -0.664 0.723 97 31 10 0 0
2.3872 -2.6168 -14.2188 0.370 -0.746 0.553 51 7 1 0 0
2.4460 -2.7511 -15.3298 -0.561 -0.657 0.503 144 102 79 0 0
2.4466 -2.7630 -15.3621 -0.434 -0.798 0.417 135 73 38 0 0
2.2246 -4.4061 -15.4937 0.202 -0.441 0.874 99 56 45 0 0
2.2239 -4.4229 -15.5179 0.091 -0.838 0.538 100 56 47 0 0
2.2264 -4.4270 -15.5614 -0.202 -0.883 0.424 99 56 48 0 0
2.2510 -4.4562 -15.9726 -0.308 -0.910 0.279 122 103 96 0 0
2.3073 -4.4386 -16.7426 -0.514 -0.772 0.374 187 186 186 0 0
2.3123 -4.4338 -16.8051 -0.493 -0.870 0.037 190 189 187 0 0
2.2883 -4.5876 -16.7709 -0.319 -0.237 0.918 199 199 197 0 0
2.2801 -4.6344 -16.7479 0.335 -0.922 0.196 201 201 200 0 0
2.3514 -2.5552 -13.9854 -0.173 -0.477 0.862 82 21 9 0 0
2.3574 -2.5957 -14.1541 0.140 -0.902 0.408 95 31 11 0 0
2.3569 -2.6252 -14.2063 0.266 -0.848 0.458 50 6 0 0 0
2.2184 -4.3729 -15.7414 0.268 -0.955 0.130 98 60 52 0 0
2.2556 -4.5710 -16.6856 0.638 0.120 0.761 194 194 192 0 0
2.2453 -4.6413 -16.6785 0.535 -0.837 0.113 199 198 196 0 0
2.2461 -4.6532 -16.7134 0.575 -0.771 0.273 200 200 198 0 0
2.6645 -0.1285 -14.0541 -0.664 -0.541 0.515 114 54 40 0 0
2.3298 -2.6186 -14.2117 -0.219 -0.912 0.347 51 7 1 0 0
2.3600 -2.6738 -14.7701 -0.157 -0.851 0.501 37 8 4 0 0
2.3922 -2.7700 -15.4431 -0.488 -0.127 0.863 117 48 33 0 0
2.3900 -2.7942 -15.4596 0.011 -0.248 0.969 99 39 23 0 0
2.3710 -2.9064 -15.4083 -0.220 0.061 0.974 190 145 132 0 0
2.1878 -4.3960 -15.7535 0.311 -0.890 0.334 95 61 53 0 0
2.6361 -0.1170 -14.0631 -0.468 -0.464 0.752 117 52 37 0 0
2.3059 -2.5976 -14.2342 -0.501 -0.854 0.142 54 7 1 0 0
2.3636 -2.7371 -15.3875 -0.457 -0.819 0.347 122 59 26 0 0
2.3605 -2.7934 -15.4579 -0.151 -0.336 0.930 114 53 39 0 0
2.1574 -4.3900 -15.7093 0.311 -0.890 0.334 92 60 52 0 0
2.1572 -4.4049 -15.7369 0.227 -0.874 0.430 93 61 56 0 0
2.1593 -4.4104 -15.7792 0.481 -0.794 0.371 94 61 57 0 0
2.2541 -4.1919 -16.7505 -0.297 0.281 0.912 141 132 129 0 0
2.6071 -0.1078 -14.0698 -0.081 -0.357 0.931 118 51 35 0 0
2.3384 -1.9367 -13.7846 0.058 -0.180 0.982 147 100 82 0 0
2.3049 -2.2688 -13.9654 -0.943 -0.247 0.223 155 81 56 0 0
2.3345 -2.7347 -15.3878 -0.511 -0.841 0.176 131 68 38 0 0
2.3352 -2.7455 -15.4216 -0.629 -0.660 0.410 119 59 35 0 0
2.3326 -2.7854 -15.4656 -0.552 -0.429 0.715 131 73 62 0 0
2.3131 -2.8874 -15.3799 0.085 -0.278 0.957 155 99 80 0 0
2.1268 -4.1927 -15.2596 -0.180 -0.239 0.954 99 46 33 0 0
2.1253 -4.2813 -15.4222 0.470 -0.639 0.609 98 56 47 0 0
2.1272 -4.3841 -15.6650 0.222 -0.918 0.327 66 35 31 0 0
2.1277 -4.3957 -15.6977 0.222 -0.918 0.327 67 38 34 0 0
2.1280 -4.4084 -15.7286 0.227 -0.874 0.430 65 37 34 0 0
2.1279 -4.4230 -15.7567 0.387 -0.810 0.441 74 45 41 0 0
2.1581 -4.6257 -16.6402 0.697 -0.697 0.168 194 193 191 0 0
2.1666 -4.6351 -16.7886 0.787 -0.611 0.087 202 202 202 0 0
2.5409 -0.2992 -13.9218 0.221 0.114 0.969 120 52 36 0 0
2.4708 -0.7048 -13.6881 -0.118 -0.135 0.984 123 55 37 0 0
2.2694 -2.6087 -14.5708 -0.059 -0.995 0.076 27 3 0 0 0
2.2805 -2.6799 -14.8921 -0.639 -0.740 0.207 37 7 5 0 0
2.3170 -2.5531 -15.1911 0.376 -0.926 0.040 33 7 3 0 0
2.3203 -2.5519 -15.2397 -0.131 -0.473 0.871 32 7 2 0 0
2.3074 -2.7371 -15.4298 -0.397 -0.742 0.541 110 52 31 0 0
2.0939 -4.1459 -15.0838 -0.099 0.328 0.940 102 50 37 0 0
2.0984 -4.4138 -15.7175 0.311 -0.890 0.334 75 51 45 0 0
2.1305 -4.6775 -16.7695 0.851 -0.525 0.005 204 204 204 0 0
2.2346 -2.3978 -14.0272 -0.069 -0.913 0.402 108 32 6 0 0
2.2329 -2.4189 -14.0457 -0.037 -0.667 0.744 113 48 21 0 0
2.2396 -2.6132 -14.5627 -0.409 -0.897 0.169 51 16 7 0 0
2.2917 -2.5467 -15.2435 -0.416 -0.098 0.904 30 7 1 0 0
2.2784 -2.7340 -15.4312 -0.211 -0.736 0.643 112 54 33 0 0
2.2752 -2.7629 -15.4415 0.124 -0.441 0.889 116 64 47 0 0
2.2109 -3.1131 -15.1725 0.465 0.581 0.668 59 8 3 0 0
2.0766 -4.0719 -15.0915 0.083 0.101 0.991 105 52 38 0 0
2.0675 -4.2608 -15.3487 0.242 -0.818 0.522 100 59 50 0 0
2.0596 -4.3494 -15.4132 0.275 -0.921 0.277 64 37 32 0 0
2.4868 -0.2507 -13.9226 0.118 0.052 0.992 121 52 37 0 0
2.2506 -1.9582 -13.7961 -0.064 -0.366 0.929 152 91 77 0 0
2.2472 -1.9880 -13.8054 -0.117 -0.250 0.961 182 130 124 0 0
2.2436 -2.0186 -13.8138 -0.117 -0.250 0.961 168 115 110 0 0
2.0283 -4.3234 -15.3020 0.156 -0.949 0.276 60 29 26 0 0
2.0291 -4.3333 -15.3363 0.156 -0.949 0.276 62 33 32 0 0
2.0442 -4.3758 -15.6689 -0.069 -0.900 0.430 72 54 51 0 0
2.0442 -4.3897 -15.6980 -0.069 -0.900 0.430 72 56 52 0 0
2.0440 -4.4038 -15.7267 -0.058 -0.874 0.483 76 58 54 0 0
2.0437 -4.4189 -15.7541 -0.058 -0.874 0.483 78 59 56 0 0
2.1331 -4.2020 -16.7216 0.061 -0.994 -0.095 129 120 118 0 0
2.1382 -4.1947 -16.7875 0.309 -0.944 0.115 136 131 126 0 0
2.1874 -2.5866 -14.5900 -0.441 -0.892 0.100 60 24 12 0 0
2.2160 -2.7070 -15.3174 -0.100 -0.785 0.612 124 68 28 0 0
2.2146 -2.7272 -15.3390 -0.031 -0.742 0.669 116 51 12 0 0
2.0611 -3.6741 -14.8852 -0.821 -0.055 0.569 106 49 35 0 0
2.0838 -4.2590 -16.5204 -0.066 -0.961 -0.270 115 99 93 0 0
2.1000 -4.2457 -16.7569 0.143 -0.309 0.940 150 145 142 0 0
2.1712 -2.1980 -13.9483 0.641 -0.761 0.099 166 97 61 0 0
2.1588 -2.5716 -14.5608 -0.549 -0.826 0.129 52 18 10 0 0
2.2133 -2.4825 -15.2695 -0.185 -0.940 0.285 27 5 2 0 0
2.0209 -3.7308 -14.8054 -0.834 -0.224 0.504 109 51 37 0 0
1.9677 -4.3184 -15.2067 -0.160 -0.957 0.240 55 26 22 0 0
2.0703 -4.2464 -16.7526 0.143 -0.309 0.940 151 146 143 0 0
2.0354 -4.4698 -16.6626 -0.111 -0.364 0.925 182 181 179 0 0
2.0357 -4.4827 -16.6960 -0.270 -0.327 0.906 184 183 182 0 0
2.3974 -0.2132 -13.8680 0.634 -0.060 0.771 122 53 38 0 0
2.1246 -2.5200 -14.3534 -0.033 -0.845 0.534 71 16 4 0 0
2.1869 -2.4935 -15.3476 0.466 -0.490 0.737 28 8 6 0 0
2.1778 -2.5511 -15.3217 -0.215 -0.892 0.397 32 9 6 0 0
1.9986 -3.7168 -14.8683 -0.887 -0.003 0.461 108 52 37 0 0
1.9491 -4.2491 -15.2086 -0.154 -0.938 0.310 56 22 17 0 0
1.9479 -4.2681 -15.2292 -0.102 -0.943 0.318 52 22 18 0 0
2.0300 -4.2372 -16.5486 0.039 -0.956 -0.291 113 96 90 0 0
2.0010 -4.4923 -16.6228 -0.181 0.013 0.983 182 181 179 0 0
1.9557 -4.8311 -16.6051 0.028 -0.984 -0.177 207 207 207 0 0
2.1513 -1.8411 -13.7884 -0.108 -0.256 0.961 130 70 58 0 0
2.1230 -2.1648 -14.0239 -0.013 -0.303 0.953 159 98 80 0 0
2.0856 -2.4820 -14.0898 -0.245 -0.705 0.666 100 29 6 0 0
2.1017 -2.5296 -14.4724 -0.439 -0.860 0.259 95 43 14 0 0
2.1023 -2.5397 -14.5049 -0.439 -0.860 0.259 79 30 12 0 0
2.1568 -2.4946 -15.3435 0.205 -0.537 0.818 29 9 7 0 0
2.1536 -2.5242 -15.3534 -0.275 -0.939 0.206 27 8 4 0 0
2.1494 -2.5718 -15.3877 -0.504 -0.652 0.566 24 5 3 0 0
1.9212 -4.2234 -15.1469 -0.257 -0.803 0.538 73 33 28 0 0
1.9095 -4.3167 -15.1552 0.177 -0.865 0.470 51 21 20 0 0
1.9330 -4.2869 -15.4922 -0.847 -0.498 -0.185 31 24 24 0 0
1.9895 -4.2734 -16.4350 0.039 -0.956 -0.291 90 65 58 0 0
2.3467 -0.1052 -13.8001 0.268 0.094 0.959 119 53 39 0 0
2.1233 -1.8371 -13.7905 -0.108 -0.256 0.961 137 80 70 0 0
2.0944 -2.1640 -14.0224 0.090 -0.284 0.955 151 86 68 0 0
2.0768 -2.5483 -14.5815 -0.225 -0.967 0.117 61 22 13 0 0
2.1212 -2.4969 -15.2432 -0.001 -0.997 0.076 26 5 4 0 0
2.0741 -2.8769 -15.2764 0.396 0.168 0.903 75 24 8 0 0
1.8937 -4.2086 -15.1175 -0.166 -0.772 0.613 73 30 25 0 0
1.8944 -4.2183 -15.1515 -0.156 -0.864 0.479 58 20 17 0 0
1.8812 -4.3191 -15.1488 -0.042 -0.829 0.558 45 22 21 0 0
1.9358 -4.1955 -15.8267 -0.960 -0.277 -0.029 22 10 10 0 0
1.9263 -4.2532 -15.7899 -0.741 -0.671 -0.040 23 11 11 0 0
1.9711 -4.2377 -16.5415 -0.246 -0.943 -0.226 108 93 89 0 0
1.9576 -4.4108 -16.6947 0.536 0.181 0.824 180 178 179 0 0
1.9371 -4.5869 -16.7329 -0.001 -0.766 0.643 194 194 194 0 0
2.0656 -2.1645 -14.0195 0.004 -0.417 0.909 146 74 55 0 0
2.0428 -2.4723 -14.3144 -0.469 -0.741 0.481 81 22 8 0 0
2.0915 -2.4967 -15.2408 -0.001 -0.997 0.076 26 5 4 0 0
2.0874 -2.5442 -15.2751 0.754 -0.456 0.473 29 9 6 0 0
1.8664 -4.2060 -15.1185 0.111 -0.588 0.801 56 16 15 0 0
1.8647 -4.2267 -15.1365 0.227 -0.654 0.721 52 20 17 0 0
1.8674 -4.2269 -15.1843 -0.018 -0.944 0.328 55 28 26 0 0
1.8644 -4.2539 -15.1933 0.144 -0.957 0.252 46 28 25 0 0
1.9135 -4.1657 -15.8687 -0.947 -0.321 0.006 20 8 8 0 0
1.9095 -4.1977 -15.8712 -0.937 -0.347 0.047 21 10 9 0 0
1.9465 -4.2159 -16.5728 -0.465 -0.875 -0.133 106 93 88 0 0
1.9574 -4.2211 -16.7804 0.429 -0.080 0.900 159 155 155 0 0
1.9093 -4.5388 -16.6455 0.651 -0.513 0.559 187 186 184 0 0
1.9074 -4.5613 -16.6630 0.596 -0.529 0.604 189 188 188 0 0
1.9051 -4.5993 -16.7092 0.350 -0.779 0.520 195 195 195 0 0
1.9073 -4.6033 -16.7572 0.169 -0.745 0.645 198 198 198 0 0
1.9060 -4.6229 -16.7795 0.169 -0.745 0.645 201 201 201 0 0
1.9038 -4.6471 -16.7941 0.007 -0.712 0.702 204 204 204 0 0
2.0549 -1.9077 -13.7508 0.004 -0.347 0.938 154 98 88 0 0
2.0167 -2.4586 -14.3282 -0.447 -0.656 0.608 84 24 9 0 0
2.0208 -2.5009 -14.4994 0.035 -0.932 0.360 56 19 15 0 0
2.0630 -2.5040 -15.2761 0.322 -0.947 -0.016 27 7 7 0 0
1.8545 -3.9378 -14.7869 0.825 -0.404 0.395 107 49 35 0 0
1.9004 -4.1316 -16.0709 -0.771 -0.636 0.022 36 16 13 0 0
1.8770 -4.5534 -16.6184 0.282 0.429 0.858 187 186 184 0 0
1.8707 -4.6099 -16.6341 -0.094 -0.499 0.862 193 191 192 0 0
1.8758 -4.6274 -16.7688 0.131 -0.663 0.737 202 202 202 0 0
1.8764 -4.6384 -16.8054 0.226 -0.938 0.263 204 204 204 0 0
1.9883 -2.4446 -14.2983 -0.609 -0.664 0.433 78 22 7 0 0
2.0400 -2.4826 -15.3478 -0.788 -0.551 0.274 27 9 7 0 0
1.8148 -4.1605 -15.0828 -0.179 -0.842 0.508 56 17 15 0 0
1.8419 -4.0656 -15.3648 -0.598 -0.758 -0.262 44 25 24 0 0
1.8483 -4.0469 -15.4409 -0.558 -0.783 -0.274 50 37 35 0 0
1.8808 -4.0865 -16.1367 -0.555 -0.794 0.249 37 17 14 0 0
1.8478 -4.5538 -16.6146 0.456 0.332 0.826 187 186 186 0 0
1.8383 -4.6524 -16.6693 0.161 -0.946 0.282 200 200 200 0 0
1.8432 -4.6570 -16.7712 0.059 -0.982 0.180 204 204 204 0 0
2.1981 -0.2823 -13.7036 0.423 -0.231 0.876 123 54 39 0 0
1.9526 -2.3960 -14.0481 -0.415 -0.559 0.718 96 23 6 0 0
1.9613 -2.4354 -14.3067 0.081 -0.769 0.634 83 24 10 0 0
1.9713 -2.4950 -14.6360 -0.214 -0.975 0.058 36 3 1 0 0
2.0194 -2.4345 -15.4061 -0.308 -0.791 0.528 25 8 6 0 0
1.8208 -4.0301 -15.4135 -0.443 -0.848 -0.290 48 36 35 0 0
1.8600 -4.0194 -16.1324 -0.731 -0.376 0.570 25 11 11 0 0
1.8540 -4.0886 -16.1822 -0.472 -0.807 0.355 49 28 26 0 0
1.8551 -4.3126 -16.7323 0.654 -0.170 0.737 172 171 169 0 0
1.8083 -4.6567 -16.6590 -0.079 -0.925 0.373 200 200 200 0 0
1.9731 -1.8847 -13.7690 0.265 -0.775 0.574 160 85 73 0 0
1.9572 -2.1181 -14.0194 0.065 -0.819 0.570 138 69 49 0 0
1.9371 -2.4110 -14.3331 -0.446 -0.694 0.566 84 23 9 0 0
1.7644 -4.0221 -14.8481 -0.170 -0.848 0.501 111 58 44 0 0
1.7822 -4.0567 -15.2748 -0.384 -0.896 -0.221 57 39 37 0 0
1.7898 -4.0310 -15.3605 -0.384 -0.882 -0.274 44 32 32 0 0
1.7966 -4.0092 -15.4409 -0.186 -0.911 -0.367 61 53 54 0 0
1.8313 -4.0041 -16.1010 -0.125 -0.746 0.655 24 13 12 0 0
1.8271 -4.0778 -16.1956 -0.211 -0.936 0.280 33 15 14 0 0
1.8252 -4.1004 -16.2129 -0.089 -0.663 0.743 39 18 17 0 0
1.8246 -4.1168 -16.2399 0.097 -0.765 0.636 47 21 20 0 0
1.7847 -4.6038 -16.6345 -0.171 -0.983 0.073 195 193 194 0 0
1.7712 -4.6816 -16.5602 -0.009 -0.712 0.702 198 198 198 0 0
1.7919 -4.5961 -16.7561 0.160 -0.895 0.415 200 200 200 0 0
1.7931 -4.6311 -16.8629 0.126 -0.959 0.252 207 207 207 0 0
2.2769 0.6821 -14.1102 0.259 0.395 0.882 210 212 214 0 0
1.9804 -1.5860 -13.7528 -0.060 -0.475 0.878 139 61 36 0 0
1.9056 -2.3290 -14.0775 -0.395 -0.695 0.601 97 25 10 0 0
1.8980 -2.3954 -14.0871 0.303 -0.435 0.848 95 24 6 0 0
1.9333 -2.4995 -15.0370 -0.448 -0.692 0.566 67 20 4 0 0
1.9343 -2.5317 -15.1365 0.327 -0.884 0.334 27 9 4 0 0
1.7361 -4.0373 -14.8710 -0.252 -0.682 0.686 127 80 64 0 0
1.7522 -4.0536 -15.2283 -0.417 -0.896 -0.153 58 38 37 0 0
1.7582 -4.0354 -15.3028 -0.390 -0.882 -0.264 40 29 28 0 0
1.7730 -3.9850 -15.4733 -0.234 -0.899 -0.370 52 44 46 0 0
1.8029 -4.0009 -16.1028 -0.125 -0.746 0.655 20 10 9 0 0
1.7990 -4.0729 -16.2002 -0.211 -0.936 0.280 24 11 10 0 0
1.7981 -4.0902 -16.2256 -0.413 -0.529 0.741 30 15 15 0 0
1.7962 -4.1128 -16.2428 -0.413 -0.529 0.741 37 17 17 0 0
1.7960 -4.1271 -16.2731 0.151 -0.918 0.366 39 19 19 0 0
1.8008 -4.1295 -16.3742 0.254 -0.961 0.110 35 28 26 0 0
1.8212 -4.1090 -16.7262 -0.339 -0.775 0.533 118 108 104 0 0
1.8111 -4.1988 -16.7457 0.403 0.083 0.912 159 157 157 0 0
1.7519 -4.6084 -16.5694 -0.376 -0.927 -0.011 192 191 192 0 0
1.7592 -4.6131 -16.7248 -0.462 -0.855 0.233 201 201 201 0 0
1.7495 -4.6870 -16.7113 -0.438 0.035 0.898 205 205 205 0 0
1.9568 -1.5435 -13.7538 -0.087 -0.590 0.803 143 72 36 0 0
1.8810 -2.3069 -14.1006 -0.186 -0.815 0.549 96 22 4 0 0
1.8793 -2.3285 -14.1190 -0.246 -0.695 0.676 98 26 4 0 0
1.8731 -2.3752 -14.1081 -0.000 -0.718 0.696 96 26 5 0 0
1.9013 -2.5511 -15.1095 -0.154 -0.779 0.608 32 12 7 0 0
1.9423 -2.3663 -15.4844 -0.097 -0.894 -0.437 22 7 4 0 0
1.7774 -3.8537 -15.8106 0.068 -0.938 0.340 15 6 7 0 0
1.7776 -3.8656 -15.8434 0.068 -0.938 0.340 24 19 19 0 0
1.7859 -3.8741 -16.0335 -0.633 -0.392 0.667 22 11 10 0 0
1.7838 -3.8981 -16.0489 -0.583 -0.625 0.519 19 9 8 0 0
1.7836 -3.9119 -16.0795 -0.335 -0.625 0.705 19 7 7 0 0
1.7674 -4.1244 -16.2741 -0.288 -0.667 0.687 28 15 15 0 0
1.7691 -4.1287 -16.3198 -0.318 -0.810 0.493 29 19 19 0 0
1.7707 -4.1340 -16.3641 -0.447 -0.885 0.128 33 27 28 0 0
1.7927 -4.0762 -16.6671 -0.398 -0.916 0.053 83 61 55 0 0
1.7930 -4.1014 -16.7350 -0.118 -0.794 0.596 122 113 111 0 0
1.7279 -4.6238 -16.7038 -0.212 -0.967 0.143 202 202 202 0 0
2.1454 0.2217 -13.8423 0.075 0.315 0.946 108 51 39 0 0
1.8525 -2.3067 -14.0984 -0.021 -0.724 0.690 96 21 2 0 0
1.8511 -2.3265 -14.1188 0.008 -0.694 0.720 98 27 5 0 0
1.8461 -2.3661 -14.1162 -0.168 -0.876 0.453 95 27 4 0 0
1.8776 -2.5191 -15.1470 0.452 -0.785 0.423 31 11 7 0 0
1.9414 -2.2451 -15.7809 0.138 -0.740 0.659 20 5 3 0 0
1.8247 -2.9457 -15.1182 -0.733 0.471 0.491 95 38 24 0 0
1.7042 -3.9980 -15.2541 -0.307 -0.877 -0.369 35 22 22 0 0
1.7683 -4.0760 -16.7719 -0.245 -0.852 0.463 127 120 118 0 0
1.7643 -4.1098 -16.7725 -0.082 -0.028 0.996 144 139 136 0 0
1.6946 -4.6840 -16.7646 0.122 0.097 0.988 207 207 207 0 0
2.0324 -0.3952 -13.6657 -0.038 -0.440 0.897 125 53 37 0 0
2.0003 -0.6945 -13.7453 -0.274 -0.404 0.873 164 95 79 0 0
1.8809 -1.7069 -13.7842 -0.106 -0.615 0.782 163 106 91 0 0
1.8271 -2.2648 -14.0579 -0.139 -0.627 0.766 75 11 4 0 0
1.8172 -2.3566 -14.0816 -0.235 -0.804 0.547 98 28 6 0 0
1.6796 -3.9791 -15.2784 -0.223 -0.898 -0.378 56 45 46 0 0
1.7316 -3.8282 -15.9937 -0.049 -0.995 -0.088 43 33 34 0 0
1.7360 -3.8174 -16.0606 -0.617 -0.237 0.750 36 24 24 0 0
1.7334 -3.8441 -16.0722 -0.524 -0.219 0.823 21 9 9 0 0
1.7404 -4.0668 -16.7833 -0.324 -0.535 0.781 134 127 126 0 0
2.0383 -0.1048 -13.6945 0.426 -0.361 0.830 119 53 37 0 0
2.0253 -0.2078 -13.6787 -0.162 -0.692 0.703 122 52 36 0 0
1.8251 -2.0399 -14.0527 -0.141 -0.635 0.760 129 57 36 0 0
1.7910 -2.3433 -14.0946 0.125 -0.852 0.508 98 26 5 0 0
1.8045 -2.3468 -14.3964 -0.273 -0.542 0.795 81 30 12 0 0
1.7101 -4.0569 -16.7417 -0.588 -0.707 0.394 120 112 111 0 0
1.9649 -0.4642 -13.6770 -0.157 -0.572 0.805 143 81 53 0 0
1.7901 -2.0306 -13.8899 -0.393 -0.567 0.724 152 67 35 0 0
1.7969 -2.0360 -14.0547 -0.141 -0.635 0.760 115 37 16 0 0
1.7768 -2.3404 -14.4015 -0.273 -0.542 0.795 82 30 18 0 0
1.6031 -3.9252 -14.6875 -0.449 -0.651 0.612 109 52 33 0 0
1.6828 -4.0439 -16.7591 -0.588 -0.707 0.394 130 123 122 0 0
1.6395 -4.3619 -16.6305 0.630 -0.149 0.762 175 174 172 0 0
1.9188 -0.6221 -13.7271 -0.106 -0.728 0.677 162 98 75 0 0
1.9174 -0.6422 -13.7488 -0.106 -0.728 0.677 158 90 72 0 0
1.7570 -2.0686 -13.8876 -0.231 -0.637 0.736 158 81 62 0 0
1.7688 -2.0202 -14.0271 0.226 -0.077 0.971 146 70 49 0 0
1.7661 -2.0482 -14.0385 0.147 -0.318 0.937 113 34 13 0 0
1.5770 -3.9163 -14.6971 -0.449 -0.651 0.612 109 52 35 0 0
1.6558 -4.0039 -16.7109 -0.643 -0.764 -0.040 95 83 78 0 0
1.9152 -0.3541 -13.6138 0.455 -0.671 0.585 124 54 36 0 0
1.9092 -0.4263 -13.6679 -0.174 -0.460 0.871 110 54 36 0 0
1.8897 -0.6176 -13.7293 0.033 -0.773 0.633 155 85 66 0 0
1.8880 -0.6396 -13.7491 -0.234 -0.613 0.754 135 61 42 0 0
1.7243 -2.1051 -13.8869 -0.347 -0.768 0.538 152 90 74 0 0
1.7424 -2.3989 -15.0969 -0.465 -0.755 0.463 35 11 10 0 0
1.7788 -2.2689 -15.5913 -0.115 -0.993 0.035 52 31 29 0 0
1.8865 -0.3457 -13.6197 -0.146 -0.630 0.763 124 55 38 0 0
1.8864 -0.3580 -13.6492 -0.085 -0.340 0.937 114 51 37 0 0
1.7129 -2.3400 -14.9355 -0.446 -0.875 0.188 57 27 15 0 0
1.7136 -2.3475 -14.9723 -0.394 -0.907 0.146 39 7 2 0 0
1.7145 -2.3540 -15.0105 -0.394 -0.907 0.146 68 32 20 0 0
1.6101 -3.2299 -14.9182 0.286 -0.621 0.730 101 39 18 0 0
1.5370 -3.8509 -14.8746 -0.238 -0.814 0.530 124 71 58 0 0
1.5363 -3.8662 -14.9003 -0.099 -0.625 0.774 111 55 42 0 0
1.5913 -3.7622 -15.9239 -0.542 -0.841 0.002 56 47 45 0 0
1.5875 -4.1156 -16.7985 0.580 0.201 0.789 161 162 162 0 0
1.8545 -0.3810 -13.6661 0.013 -0.347 0.938 157 91 55 0 0
1.5682 -3.3659 -14.9686 0.145 -0.078 0.986 108 51 32 0 0
1.5656 -3.3933 -14.9789 0.007 -0.349 0.937 109 52 33 0 0
1.5107 -3.8526 -14.9163 -0.217 -0.704 0.676 97 42 29 0 0
1.5678 -3.7295 -15.9688 -0.502 -0.858 -0.107 37 24 22 0 0
1.5725 -3.9710 -16.7528 -0.559 -0.607 0.565 124 118 116 0 0
1.5752 -3.9933 -16.8803 -0.493 -0.370 0.787 154 152 153 0 0
1.6432 -2.3284 -14.6260 -0.440 -0.838 0.322 51 17 14 0 0
1.5422 -3.3399 -14.9538 0.107 -0.216 0.970 104 46 29 0 0
1.5404 -3.3624 -14.9706 0.089 -0.544 0.834 107 50 33 0 0
1.5264 -3.4915 -14.9850 0.119 -0.929 0.350 111 54 37 0 0
1.4847 -3.8304 -14.8975 -0.235 -0.346 0.908 110 53 38 0 0
1.5409 -3.7047 -15.9514 -0.555 -0.828 -0.082 39 26 25 0 0
1.5431 -3.7035 -16.0038 -0.368 -0.882 -0.293 38 22 19 0 0
1.5460 -3.9400 -16.7442 -0.598 -0.634 0.490 112 104 104 0 0
1.5445 -3.9608 -16.7656 -0.521 -0.544 0.658 132 127 127 0 0
1.5412 -4.0041 -16.8057 -0.397 -0.416 0.818 151 148 149 0 0
1.5375 -4.0498 -16.8421 -0.281 -0.237 0.930 161 160 160 0 0
1.9555 0.9571 -13.9556 0.267 -0.051 0.963 211 211 214 0 0
1.7507 -0.7803 -13.6829 0.106 -0.083 0.991 118 54 31 0 0
1.7402 -0.8607 -13.6439 0.211 -0.070 0.975 140 69 39 0 0
1.6653 -1.5771 -13.7787 0.012 -0.723 0.691 162 96 78 0 0
1.6646 -1.5927 -13.8041 -0.149 -0.528 0.836 142 63 41 0 0
1.6103 -2.1254 -13.9398 0.124 -0.506 0.854 91 20 8 0 0
1.6169 -2.2234 -14.3914 0.176 -0.483 0.858 93 49 34 0 0
1.6115 -2.2792 -14.4143 -0.428 -0.489 0.760 93 44 19 0 0
1.6167 -2.3123 -14.6427 -0.532 -0.747 0.399 48 12 10 0 0
1.6438 -2.3795 -15.5363 -0.291 -0.813 0.504 7 1 1 0 0
1.5095 -3.4107 -15.0439 -0.222 -0.943 0.246 110 52 35 0 0
1.4996 -3.5040 -15.0593 -0.897 0.057 0.439 110 54 35 0 0
1.5145 -3.6883 -15.9724 -0.578 -0.814 -0.060 37 23 22 0 0
1.5171 -3.6844 -16.0288 -0.368 -0.882 -0.293 41 24 23 0 0
1.5286 -3.6755 -16.2985 0.057 -0.837 0.545 23 8 8 0 0
1.5158 -3.9421 -16.7377 -0.454 -0.381 0.805 122 116 117 0 0
1.5125 -3.9978 -16.8125 -0.456 -0.521 0.721 154 152 153 0 0
1.5128 -4.0083 -16.8501 -0.066 -0.278 0.958 159 157 158 0 0
1.4595 -4.3877 -16.5698 0.405 -0.271 0.873 180 180 180 0 0
1.9227 0.9495 -13.9465 0.302 -0.045 0.952 204 201 201 0 0
1.6647 -1.3053 -13.7279 -0.115 -0.514 0.850 132 52 27 0 0
1.6612 -1.3386 -13.7350 0.050 -0.585 0.809 128 54 34 0 0
1.5876 -2.2254 -14.3865 0.176 -0.483 0.858 87 44 29 0 0
1.5814 -2.2977 -14.4344 -0.439 -0.898 0.011 107 58 24 0 0
1.6029 -2.2798 -14.9524 -0.488 -0.834 0.258 54 21 13 0 0
1.6024 -2.2942 -14.9810 -0.293 -0.934 0.205 42 10 5 0 0
1.6073 -2.4317 -15.5150 -0.081 -0.683 0.726 8 2 2 0 0
1.4832 -3.3643 -14.9627 -0.279 -0.329 0.902 103 46 30 0 0
1.4896 -3.6503 -15.9741 -0.732 -0.682 0.011 40 30 28 0 0
1.4889 -3.6662 -16.0016 -0.486 -0.874 0.021 35 21 20 0 0
1.4990 -3.6755 -16.2954 0.057 -0.837 0.545 23 8 7 0 0
1.4842 -3.9888 -16.8235 -0.518 -0.590 0.620 156 154 155 0 0
1.4835 -4.0052 -16.8519 0.083 -0.273 0.959 160 158 159 0 0
1.8944 0.9833 -13.9326 0.301 -0.069 0.951 206 203 203 0 0
1.8896 0.9392 -13.9349 0.347 -0.050 0.936 160 145 143 0 0
1.5575 -2.2541 -14.4389 -0.228 -0.819 0.526 91 49 33 0 0
1.5724 -2.2866 -14.9415 -0.274 -0.929 0.248 73 39 26 0 0
1.5729 -2.2940 -14.9786 -0.212 -0.961 0.180 68 27 13 0 0
1.5750 -2.2914 -15.0280 -0.217 -0.975 0.055 99 53 32 0 0
1.5777 -2.4293 -15.5153 -0.127 -0.699 0.704 8 2 2 0 0
1.4647 -3.2687 -14.9469 -0.175 -0.072 0.982 100 45 28 0 0
1.4605 -3.3060 -14.9442 -0.303 -0.079 0.950 141 91 78 0 0
1.4541 -3.3897 -15.0197 0.076 -0.844 0.531 105 47 30 0 0
1.4533 -3.4057 -15.0453 0.218 -0.838 0.500 107 47 29 0 0
1.4180 -3.7028 -14.9712 -0.279 -0.464 0.841 114 55 39 0 0
1.4790 -3.6172 -16.3790 0.285 -0.877 0.385 24 9 9 0 0
1.3844 -4.5337 -16.5423 0.155 -0.388 0.909 197 196 197 0 0
1.6309 -1.0655 -13.6789 0.329 -0.641 0.693 136 57 29 0 0
1.5442 -1.9420 -13.9244 0.203 -0.795 0.571 162 87 62 0 0
1.5489 -1.9313 -14.0216 0.089 -0.385 0.919 142 61 33 0 0
1.5343 -2.1634 -14.3217 -0.103 -0.986 0.132 89 47 32 0 0
1.5354 -2.1663 -14.3622 0.173 -0.688 0.705 97 51 35 0 0
1.5290 -2.2405 -14.4081 0.193 -0.652 0.733 63 24 16 0 0
1.5454 -2.2701 -14.9590 -0.340 -0.868 0.362 79 42 32 0 0
1.4658 -3.0466 -15.0954 -0.391 0.455 0.800 95 32 14 0 0
1.4406 -3.2301 -14.9484 -0.175 -0.072 0.982 97 33 15 0 0
1.4332 -3.2985 -14.9514 -0.288 -0.125 0.949 141 90 76 0 0
1.4299 -3.3307 -14.9554 -0.210 -0.147 0.967 137 77 59 0 0
1.4267 -3.3617 -14.9608 -0.210 -0.147 0.967 122 65 46 0 0
1.4243 -3.4089 -15.0382 0.218 -0.838 0.500 103 41 24 0 0
1.3916 -3.6916 -14.9838 -0.624 -0.298 0.722 115 55 38 0 0
1.3524 -4.5630 -16.5451 0.139 -0.501 0.854 200 200 202 0 0
1.7396 0.2444 -13.5847 0.260 -0.478 0.839 119 53 39 0 0
1.5430 -1.7027 -13.9722 0.034 -0.701 0.713 196 156 149 0 0
1.5026 -2.1718 -14.2657 0.190 -0.876 0.442 83 42 32 0 0
1.5058 -2.1808 -14.3870 0.234 -0.409 0.882 95 49 34 0 0
1.4060 -3.2905 -14.9593 -0.266 0.025 0.964 107 52 37 0 0
1.4020 -3.3267 -14.9581 -0.292 0.021 0.956 128 72 57 0 0
1.3986 -3.3597 -14.9609 -0.216 -0.016 0.976 108 51 34 0 0
1.3960 -3.3869 -14.9713 -0.210 -0.147 0.967 97 38 21 0 0
1.3931 -3.4161 -14.9790 0.006 -0.339 0.941 104 41 25 0 0
1.3938 -3.4220 -15.0180 0.216 -0.673 0.707 102 39 21 0 0
1.3729 -3.6103 -14.9982 0.525 0.317 0.790 108 52 35 0 0
1.7995 0.9939 -13.8933 0.508 -0.218 0.833 111 80 75 0 0
1.7957 0.9558 -13.9009 0.508 -0.218 0.833 113 70 64 0 0
1.7127 0.2808 -13.5750 -0.009 -0.093 0.996 121 57 39 0 0
1.7108 0.2571 -13.5943 0.245 -0.659 0.712 121 54 37 0 0
1.6751 -0.1313 -13.7669 0.293 -0.841 0.455 155 96 63 0 0
1.6744 -0.1463 -13.7942 0.293 -0.841 0.455 144 68 37 0 0
1.3823 -3.2483 -14.9657 -0.009 0.006 1.000 96 35 15 0 0
1.3654 -3.4218 -15.0156 -0.373 -0.525 0.765 103 38 19 0 0
1.3758 -3.8749 -16.7727 -0.077 -0.132 0.988 145 142 143 0 0
1.5862 -0.6552 -13.6693 0.192 -0.297 0.935 118 55 34 0 0
1.5432 -1.0630 -13.6746 -0.095 -0.488 0.868 117 48 28 0 0
1.3384 -3.4126 -15.0253 0.322 -0.638 0.700 101 36 17 0 0
1.3485 -3.8698 -16.8314 -0.292 0.034 0.956 153 151 152 0 0
1.6361 0.0974 -13.6887 0.189 -0.256 0.948 124 56 38 0 0
1.6086 -0.1842 -13.7531 0.375 -0.354 0.857 123 75 49 0 0
1.3181 -3.6247 -15.9936 0.102 -0.851 0.515 15 6 7 0 0
1.3268 -3.6850 -16.4716 0.030 -0.467 0.884 40 20 18 0 0
1.2664 -4.3284 -16.6968 -0.294 -0.804 0.517 193 193 195 0 0
1.5804 -0.1588 -13.7336 0.307 -0.367 0.878 113 63 39 0 0
1.3925 -2.1818 -14.4643 -0.278 -0.955 0.100 58 21 10 0 0
1.4071 -2.2448 -15.1622 -0.290 -0.957 -0.004 48 19 10 0 0
1.4084 -2.2454 -15.2083 -0.304 -0.952 0.026 33 10 5 0 0
1.2785 -3.4333 -14.9920 0.355 -0.236 0.904 97 34 16 0 0
1.2582 -3.6424 -15.0376 -0.269 -0.963 0.022 104 54 38 0 0
1.2615 -3.6791 -15.2724 -0.415 -0.882 -0.222 46 36 37 0 0
1.2889 -3.6350 -16.0264 0.523 -0.760 0.385 18 9 10 0 0
1.2892 -3.8554 -16.7935 -0.077 -0.020 0.997 154 152 153 0 0
1.2831 -3.9175 -16.8047 -0.260 -0.044 0.965 162 160 161 0 0
1.2640 -4.0976 -16.7917 -0.595 -0.769 0.235 178 178 178 0 0
1.6839 1.1344 -13.7584 0.536 -0.109 0.837 207 205 206 0 0
1.6785 1.0828 -13.7543 0.517 -0.162 0.841 169 150 150 0 0
1.6708 1.0140 -13.7347 0.560 -0.115 0.821 105 69 66 0 0
1.6142 0.4916 -13.6362 0.454 0.138 0.880 122 55 38 0 0
1.5500 -0.1595 -13.7307 -0.022 -0.285 0.958 144 102 67 0 0
1.5469 -0.1928 -13.7402 0.047 -0.237 0.970 116 65 43 0 0
1.4358 -1.2738 -13.7424 0.055 -0.511 0.858 126 67 52 0 0
1.4334 -1.3011 -13.7558 0.235 -0.592 0.771 156 101 90 0 0
1.4136 -1.4952 -13.7610 -0.324 -0.435 0.840 157 77 47 0 0
1.3646 -2.1734 -14.4717 -0.264 -0.963 0.053 101 53 28 0 0
1.3744 -2.1881 -14.8593 -0.381 -0.918 0.114 46 14 8 0 0
1.2923 -3.1070 -15.2832 -0.185 0.314 0.931 94 31 13 0 0
1.2314 -3.6329 -15.0479 -0.110 -0.991 -0.073 106 57 43 0 0
1.2726 -3.4743 -15.9016 0.091 -0.709 0.699 12 3 4 0 0
1.2715 -3.4920 -15.9267 0.197 -0.702 0.685 12 3 4 0 0
1.2564 -3.6672 -16.0272 0.477 -0.708 0.521 28 19 21 0 0
1.2571 -3.8707 -16.7665 -0.141 -0.401 0.905 157 155 156 0 0
1.6343 0.9555 -13.7636 0.387 -0.686 0.616 96 48 36 0 0
1.6322 0.9298 -13.7823 0.505 -0.558 0.659 102 49 37 0 0
1.6305 0.9068 -13.8033 0.457 -0.406 0.791 107 51 37 0 0
1.6279 0.8774 -13.8186 0.511 -0.451 0.732 112 50 33 0 0
1.5810 0.4728 -13.6167 0.451 -0.189 0.872 122 55 38 0 0
1.5247 -0.1031 -13.6993 -0.183 -0.552 0.814 137 66 39 0 0
1.5225 -0.1295 -13.7156 0.032 -0.293 0.956 143 73 35 0 0
1.4829 -0.5081 -13.6807 0.081 -0.107 0.991 129 61 39 0 0
1.4067 -1.2735 -13.7404 -0.251 -0.484 0.839 153 96 85 0 0
1.3873 -1.4751 -13.7800 -0.129 -0.434 0.892 148 66 38 0 0
1.3835 -1.5129 -13.7819 -0.420 -0.621 0.662 148 71 43 0 0
1.3509 -1.8757 -13.9386 -0.408 -0.774 0.484 150 83 66 0 0
1.3571 -2.1949 -15.3123 -0.322 -0.937 -0.132 25 11 11 0 0
1.3685 -2.1308 -15.4867 -0.228 -0.200 0.953 6 0 2 0 0
1.3572 -2.2524 -15.5259 -0.517 0.230 0.825 14 9 11 0 0
1.1993 -3.6600 -15.0081 -0.738 -0.227 0.636 107 59 48 0 0
1.1992 -3.6701 -15.0413 -0.681 -0.288 0.673 102 60 54 0 0
1.1979 -3.6889 -15.0627 -0.433 -0.859 0.272 66 32 29 0 0
1.1940 -3.7451 -15.1272 -0.520 -0.688 0.506 51 31 29 0 0
1.2378 -3.4932 -15.7722 0.351 -0.929 -0.120 14 5 6 0 0
1.2265 -3.6720 -16.0174 0.521 -0.474 0.710 20 11 13 0 0
1.6398 1.3239 -13.7541 0.484 0.033 0.874 213 214 215 0 0
1.5528 0.4929 -13.6329 -0.657 -0.678 0.329 122 55 38 0 0
1.5418 0.3881 -13.6194 -0.170 -0.717 0.676 123 55 36 0 0
1.4343 -0.6910 -13.6640 -0.008 -0.098 0.995 135 78 52 0 0
1.3784 -1.2668 -13.7450 -0.251 -0.484 0.839 168 114 106 0 0
1.3216 -1.8797 -13.9318 -0.198 -0.940 0.280 147 76 61 0 0
1.3118 -2.0171 -14.0782 -0.161 -0.781 0.603 85 19 8 0 0
1.3213 -2.2951 -15.4694 -0.222 -0.648 0.729 14 9 13 0 0
1.2549 -2.9278 -15.3717 -0.264 0.151 0.953 82 31 16 0 0
1.2535 -2.9762 -15.4997 0.629 -0.519 0.578 91 29 12 0 0
1.2135 -3.2871 -15.1799 -0.525 0.421 0.740 94 30 14 0 0
1.1859 -3.5069 -14.9786 -0.392 -0.837 0.381 100 35 15 0 0
1.1870 -3.5082 -15.0238 -0.692 -0.573 0.440 103 39 18 0 0
1.1861 -3.5240 -15.0495 -0.666 -0.605 0.437 104 42 24 0 0
1.2091 -3.5092 -15.8462 0.171 -0.962 0.215 13 4 5 0 0
1.2030 -3.8213 -16.7830 -0.221 -0.433 0.874 158 156 157 0 0
1.5697 0.9492 -13.7118 0.078 -0.451 0.889 102 47 34 0 0
1.5671 0.9194 -13.7267 0.078 -0.451 0.889 104 46 32 0 0
1.3499 -1.2616 -13.7481 -0.128 -0.525 0.841 157 100 90 0 0
1.2989 -2.1730 -15.2869 -0.346 -0.929 -0.129 27 12 12 0 0
1.3120 -2.1015 -15.5177 -0.510 -0.335 0.792 3 1 2 0 0
1.2347 -2.8419 -15.3859 0.356 -0.189 0.915 38 23 18 0 0
1.1674 -3.4348 -15.0733 -0.192 0.025 0.981 98 33 14 0 0
1.1666 -3.4491 -15.1010 -0.502 -0.280 0.818 101 36 16 0 0
1.1649 -3.4709 -15.1188 0.428 -0.020 0.903 100 36 18 0 0
1.1480 -3.6326 -15.0873 0.047 -0.347 0.937 100 60 53 0 0
1.1516 -3.6607 -15.3350 -0.430 -0.895 -0.121 33 29 29 0 0
1.1539 -3.6530 -15.3941 -0.279 -0.929 -0.243 28 26 27 0 0
1.1768 -3.5134 -15.7378 0.471 -0.869 -0.153 14 5 6 0 0
1.1481 -4.0392 -16.6556 -0.378 0.008 0.926 173 173 173 0 0
1.5376 0.9262 -13.7723 0.542 -0.712 0.447 107 48 32 0 0
1.5071 0.6321 -13.7142 0.224 -0.800 0.556 117 52 34 0 0
1.4880 0.4582 -13.6380 0.323 -0.709 0.627 120 53 36 0 0
1.3733 -0.7127 -13.6793 -0.112 -0.102 0.988 154 93 75 0 0
1.3217 -1.2537 -13.7540 -0.132 -0.616 0.777 140 81 68 0 0
1.3191 -1.2825 -13.7659 -0.128 -0.525 0.841 151 77 56 0 0
1.2821 -2.0990 -15.5182 -0.061 -0.308 0.950 2 2 2 0 0
1.1195 -4.0324 -16.6630 -0.434 -0.143 0.890 176 176 177 0 0
1.5048 0.9306 -13.6907 0.454 -0.227 0.862 136 63 32 0 0
1.4978 0.8559 -13.7068 0.434 -0.316 0.844 113 52 34 0 0
1.4654 0.5342 -13.6641 -0.468 -0.785 0.406 117 51 34 0 0
1.4580 0.4648 -13.6419 -0.201 -0.447 0.872 118 52 35 0 0
1.4454 0.3343 -13.6458 0.251 -0.906 0.340 128 60 40 0 0
1.3488 -0.6624 -13.6856 -0.246 -0.089 0.965 122 61 39 0 0
1.3452 -0.6998 -13.6899 -0.246 -0.089 0.965 129 68 51 0 0
1.2667 -1.5780 -13.9989 0.485 0.386 0.785 153 78 56 0 0
1.2227 -2.0886 -14.2497 -0.309 -0.888 0.339 96 49 36 0 0
1.2455 -2.1670 -15.5264 -0.434 -0.417 0.799 3 3 3 0 0
1.2445 -2.1927 -15.5900 -0.636 -0.133 0.760 8 6 9 0 0
1.0916 -4.0202 -16.6789 -0.535 -0.229 0.813 177 177 179 0 0
1.4751 0.9528 -13.6668 0.534 -0.252 0.807 130 80 48 0 0
1.4683 0.8783 -13.6832 0.434 -0.316 0.844 147 76 44 0 0
1.4653 0.8445 -13.6943 0.434 -0.316 0.844 134 60 38 0 0
1.4140 0.3285 -13.6382 0.251 -0.906 0.340 127 59 38 0 0
1.1965 -2.0268 -14.1007 -0.221 -0.494 0.841 99 25 8 0 0
1.0853 -3.6434 -16.0951 -0.257 -0.944 0.208 13 8 8 0 0
1.1040 -3.5729 -16.6150 0.215 -0.511 0.832 112 103 101 0 0
1.1019 -3.5976 -16.6309 0.150 -0.453 0.879 116 110 108 0 0
1.0680 -3.9756 -16.7456 -0.121 -0.034 0.992 178 178 180 0 0
1.4360 0.8690 -13.6726 0.384 -0.210 0.899 134 77 45 0 0
1.4328 0.8331 -13.6819 0.434 -0.316 0.844 146 76 41 0 0
1.3965 0.4646 -13.6372 -0.153 -0.215 0.964 116 50 34 0 0
1.3922 0.4202 -13.6378 0.292 -0.166 0.942 119 52 35 0 0
1.2043 -1.6128 -13.9565 0.344 0.335 0.877 153 72 52 0 0
1.1994 -1.6612 -13.9465 0.094 0.343 0.935 150 66 37 0 0
1.1681 -2.0549 -14.2397 -0.448 -0.824 0.347 93 46 35 0 0
1.0769 -3.5329 -16.5661 -0.117 -0.941 0.317 103 92 88 0 0
1.0737 -3.5752 -16.6085 0.215 -0.511 0.832 118 114 110 0 0
1.4448 1.4394 -12.9854 0.523 -0.504 0.687 214 214 216 0 0
1.4407 1.3951 -12.9885 0.176 -0.666 0.725 214 214 216 0 0
1.3517 0.3190 -13.6249 -0.096 -0.951 0.293 121 53 33 0 0
1.3280 0.0666 -13.6373 -0.309 -0.777 0.548 136 65 33 0 0
1.3265 0.0462 -13.6595 -0.276 -0.625 0.731 165 102 69 0 0
1.2512 -0.7508 -13.6738 0.125 -0.386 0.914 154 87 52 0 0
1.2474 -0.7915 -13.6746 0.206 -0.527 0.824 146 70 33 0 0
1.2453 -0.8167 -13.6909 0.152 -0.661 0.735 140 58 26 0 0
1.2444 -0.8322 -13.7169 -0.030 -0.447 0.894 141 57 29 0 0
1.2048 -1.2628 -13.7772 -0.135 -0.322 0.937 146 64 35 0 0
1.1633 -1.7149 -13.8436 -0.002 -0.243 0.970 158 77 51 0 0
1.1433 -2.0888 -14.5953 -0.433 -0.828 0.355 56 19 10 0 0
1.1428 -2.1010 -14.6257 -0.343 -0.861 0.376 86 49 41 0 0
1.0437 -3.3087 -15.3729 0.106 0.499 0.860 102 46 30 0 0
1.0467 -3.5261 -16.5206 0.245 -0.791 0.561 109 97 95 0 0
1.0435 -3.5774 -16.6021 0.215 -0.511 0.832 128 123 120 0 0
1.4164 1.4772 -12.9352 0.532 -0.511 0.675 214 213 214 0 0
1.4143 1.4511 -12.9533 0.532 -0.511 0.675 214 212 213 0 0
1.4122 1.4248 -12.9713 0.523 -0.504 0.687 208 206 206 0 0
1.4103 1.4004 -12.9907 0.268 -0.713 0.648 191 184 184 0 0
1.2993 0.0887 -13.6145 -0.155 -0.733 0.663 134 65 38 0 0
1.2536 -0.4115 -13.6742 -0.005 -0.557 0.831 120 47 21 0 0
1.2505 -0.4457 -13.6822 0.090 -0.335 0.938 114 45 22 0 0
1.2131 -0.8476 -13.6992 0.285 -0.542 0.790 142 58 24 0 0
1.1366 -1.6890 -13.8271 0.236 -0.633 0.738 153 78 55 0 0
1.1353 -1.7075 -13.8492 0.303 -0.411 0.860 137 56 33 0 0
1.1156 -2.0758 -14.6080 -0.441 -0.880 0.174 72 35 23 0 0
1.0163 -3.5305 -16.5110 0.282 -0.751 0.596 128 120 121 0 0
1.0142 -3.5729 -16.6058 -0.399 -0.600 0.694 135 131 129 0 0
1.0205 -3.5467 -16.8047 -0.205 0.016 0.979 150 148 149 0 0
1.3823 1.4486 -12.9098 0.123 -0.826 0.550 211 208 209 0 0
1.3796 1.4102 -12.9572 0.523 -0.504 0.687 158 136 132 0 0
1.3770 1.3792 -12.9711 -0.296 -0.913 0.280 136 103 97 0 0
1.3536 1.0340 -13.4416 0.414 -0.845 0.339 58 53 52 0 0
1.3530 1.0211 -13.4712 0.397 -0.844 0.360 71 66 64 0 0
1.3540 1.0236 -13.5143 0.106 -0.985 0.135 74 70 69 0 0
1.1075 -1.6920 -13.8215 -0.194 -0.684 0.703 159 82 58 0 0
1.0990 -1.8019 -13.9134 -0.422 -0.854 0.305 137 69 47 0 0
0.9751 -3.5226 -15.8539 -0.012 -0.992 0.126 30 28 31 0 0
0.9754 -3.5280 -15.8963 -0.012 -0.992 0.126 31 29 33 0 0
0.9891 -3.5007 -16.4997 -0.123 -0.916 0.383 135 127 126 0 0
0.9809 -3.6006 -16.5611 -0.290 -0.500 0.816 143 139 138 0 0
0.9391 -4.0832 -16.7255 -0.288 0.055 0.956 193 193 195 0 0
1.3514 1.4494 -12.9083 0.449 -0.497 0.743 173 153 149 0 0
1.3491 1.4212 -12.9246 0.488 -0.465 0.739 140 104 98 0 0
1.3459 1.3845 -12.9338 -0.056 -0.840 0.539 121 72 64 0 0
1.3255 1.1084 -13.2200 0.268 -0.894 0.358 32 19 16 0 0
1.3226 1.0415 -13.4051 -0.055 -0.974 0.219 72 69 70 0 0
1.2621 0.3389 -13.6366 0.444 -0.588 0.676 116 50 33 0 0
1.1906 -0.4473 -13.6762 -0.006 -0.271 0.963 119 55 30 0 0
1.1822 -0.5372 -13.6710 -0.246 -0.410 0.878 121 46 23 0 0
1.0722 -1.7910 -13.9655 -0.244 -0.705 0.666 108 34 16 0 0
1.0675 -1.8466 -13.9896 -0.264 -0.734 0.626 96 24 12 0 0
0.9582 -3.5093 -16.4839 0.120 -0.738 0.664 140 135 135 0 0
0.9541 -3.5512 -16.4741 0.051 -0.536 0.843 142 137 137 0 0
0.9563 -3.6034 -16.8736 -0.321 -0.039 0.946 168 166 169 0 0
0.9250 -3.9226 -16.7586 -0.229 0.101 0.968 186 186 188 0 0
1.3154 1.3877 -12.9345 -0.123 -0.880 0.459 114 49 38 0 0
1.3154 1.3819 -12.9692 -0.286 -0.933 0.217 111 45 32 0 0
1.2931 1.1064 -13.1360 0.453 -0.835 0.313 18 11 12 0 0
1.2934 1.1031 -13.1733 0.260 -0.906 0.334 39 33 37 0 0
1.2929 1.0918 -13.2037 0.260 -0.906 0.334 64 62 63 0 0
1.2926 1.0828 -13.2362 0.270 -0.940 0.206 55 54 56 0 0
1.2926 1.0510 -13.4112 -0.003 -0.962 0.273 70 69 74 0 0
1.2233 0.2491 -13.6338 0.011 -0.512 0.859 110 47 31 0 0
1.1157 -0.9497 -13.7141 0.175 -0.157 0.972 154 66 27 0 0
