ply
format ascii 1.0
element vertex 846
property float x
property float y
property float z
property float nx
property float ny
property float nz
property uchar diffuse_red
property uchar diffuse_green
property uchar diffuse_blue
property uchar class
property uchar detection
end_header
4.2675 -0.9338 -15.8035 0.784 0.584 0.208 16 12 13 0 0
4.6003 -1.1464 -16.8137 0.222 0.135 0.966 141 139 139 0 0
4.7341 -1.2010 -16.7823 0.721 -0.191 0.666 161 159 162 0 0
4.9379 -1.2872 -16.7779 0.493 0.572 0.656 182 182 182 0 0
-0.6615 1.3598 -12.5027 0.574 -0.163 0.802 129 46 24 0 0
-0.1807 1.1551 -12.5192 0.531 0.232 0.815 134 50 24 0 0
-0.1531 1.1425 -12.5313 0.733 0.031 0.679 129 45 19 0 0
0.0379 1.0608 -12.5419 0.797 -0.192 0.573 138 54 27 0 0
1.1856 0.5019 -13.5589 0.311 -0.602 0.735 5 2 3 0 0
2.4095 -0.0374 -13.8529 0.188 0.174 0.967 139 52 24 0 0
2.4961 -0.0752 -13.8701 0.295 0.046 0.954 142 55 27 0 0
3.1524 -0.4502 -15.2224 0.745 0.658 -0.109 83 51 43 0 0
3.2940 -0.5493 -15.7678 -0.117 -0.837 0.534 11 4 5 0 0
3.3271 -0.5632 -15.7659 -0.248 -0.763 0.597 18 10 10 0 0
3.8874 -0.7900 -15.6214 0.820 0.204 0.534 15 10 10 0 0
3.8973 -0.7966 -15.6539 0.857 -0.111 0.503 12 6 6 0 0
4.0590 -0.8673 -15.6856 -0.211 -0.389 0.897 26 20 22 0 0
4.1778 -0.9142 -15.6383 0.434 -0.361 0.825 31 29 30 0 0
4.2002 -0.9246 -15.6503 0.669 -0.242 0.702 16 14 15 0 0
4.2177 -0.9334 -15.6702 0.736 -0.126 0.665 10 8 9 0 0
4.2355 -0.9424 -15.6897 0.746 0.056 0.664 9 7 8 0 0
4.2530 -0.9512 -15.7098 0.679 0.365 0.637 10 7 8 0 0
4.2739 -0.9610 -15.7242 0.600 0.527 0.601 10 6 7 0 0
4.2987 -0.9721 -15.7320 0.344 0.593 0.728 11 7 9 0 0
4.4212 -1.0965 -16.7424 0.240 0.433 0.869 99 94 98 0 0
4.7053 -1.2181 -16.7594 0.655 -0.358 0.666 158 156 159 0 0
4.7219 -1.2267 -16.7824 0.704 -0.367 0.609 162 160 163 0 0
4.8310 -1.2738 -16.7944 0.458 0.455 0.764 176 174 175 0 0
-0.4149 1.2184 -12.5703 0.303 -0.089 0.949 131 47 21 0 0
-0.1657 1.1161 -12.5306 0.539 0.023 0.842 134 50 24 0 0
-0.0869 1.0799 -12.5705 0.455 -0.078 0.887 137 53 27 0 0
0.0273 1.0340 -12.5395 0.798 -0.256 0.546 137 53 27 0 0
1.1132 0.4993 -13.5835 0.110 -0.393 0.913 5 4 2 0 0
1.1406 0.4870 -13.5940 0.265 -0.486 0.833 5 3 1 0 0
2.6291 -0.1665 -13.9376 0.839 0.242 0.488 127 40 15 0 0
2.7913 -0.2382 -13.9817 0.765 0.175 0.620 142 69 31 0 0
3.5669 -0.6783 -15.5263 -0.379 0.265 0.886 22 11 15 0 0
3.8799 -0.8099 -15.5181 0.542 0.537 0.647 9 2 4 0 0
3.9074 -0.8218 -15.5227 0.579 0.532 0.618 8 3 4 0 0
3.9046 -0.8279 -15.6230 0.999 -0.007 0.045 11 4 2 0 0
3.9132 -0.8341 -15.6576 0.606 -0.222 0.764 27 18 17 0 0
4.1997 -0.9567 -15.6802 0.637 0.602 0.481 46 45 47 0 0
4.2232 -0.9674 -15.6903 0.532 0.666 0.524 30 30 34 0 0
4.2459 -0.9778 -15.7018 0.465 0.662 0.587 18 16 20 0 0
4.2700 -0.9886 -15.7108 0.532 0.666 0.524 12 8 12 0 0
-0.2001 1.1001 -12.5124 0.472 -0.059 0.879 126 42 16 0 0
-0.1749 1.0885 -12.5268 0.615 -0.261 0.744 129 45 19 0 0
-0.0959 1.0522 -12.5665 0.394 -0.103 0.913 134 50 24 0 0
0.2082 0.9231 -12.5822 0.471 -0.445 0.761 133 49 23 0 0
0.8525 0.5877 -13.4479 0.903 0.411 0.127 10 6 7 0 0
1.1204 0.4605 -13.6424 0.459 -0.774 0.435 32 9 6 0 0
1.6414 0.2301 -13.7908 0.638 -0.288 0.714 139 53 26 0 0
2.4577 -0.1176 -13.8457 0.446 0.327 0.833 132 42 16 0 0
2.5103 -0.1380 -13.8219 0.454 0.053 0.889 132 43 15 0 0
2.8004 -0.2700 -13.9545 0.670 0.277 0.688 133 49 21 0 0
3.0214 -0.3823 -14.2151 0.661 -0.149 0.735 89 36 21 0 0
3.0348 -0.3898 -14.2400 0.890 0.151 0.430 95 44 30 0 0
3.8386 -0.8192 -15.4687 0.559 0.501 0.661 10 3 6 0 0
3.8719 -0.8329 -15.4641 0.588 0.624 0.515 11 2 5 0 0
3.9165 -0.8535 -15.4894 0.564 0.609 0.558 9 3 4 0 0
3.8950 -0.8505 -15.5711 0.869 0.315 0.381 12 5 4 0 0
3.9074 -0.8578 -15.5995 0.950 0.210 0.233 13 5 3 0 0
3.9005 -0.8629 -15.7068 0.992 -0.055 -0.113 94 83 83 0 0
3.9892 -0.8969 -15.6620 -0.100 -0.275 0.956 70 62 60 0 0
3.9925 -0.9015 -15.7051 -0.288 -0.675 0.680 25 21 18 0 0
4.4706 -1.1206 -15.9460 0.996 0.079 0.040 28 26 27 0 0
4.4728 -1.1250 -15.9923 0.996 0.079 0.040 32 30 30 0 0
4.4729 -1.1287 -16.0423 0.999 0.037 0.020 35 33 31 0 0
4.7017 -1.2793 -16.7749 0.529 -0.271 0.804 164 162 163 0 0
4.7188 -1.2881 -16.7968 0.447 -0.143 0.883 168 166 167 0 0
0.2118 0.8885 -12.6039 0.762 -0.401 0.508 129 45 19 0 0
0.2357 0.8774 -12.6188 0.404 -0.595 0.695 132 48 22 0 0
0.8710 0.5568 -13.3351 0.694 0.569 0.442 8 4 5 0 0
1.0808 0.4434 -13.6714 0.595 0.185 0.782 38 11 7 0 0
1.4054 0.3037 -13.7179 0.355 -0.201 0.913 150 68 38 0 0
1.4453 0.2872 -13.7136 0.069 -0.408 0.911 146 61 26 0 0
1.6297 0.2041 -13.7896 0.800 -0.133 0.585 140 55 28 0 0
2.1805 -0.0309 -13.8391 0.606 -0.353 0.713 131 43 18 0 0
2.6122 -0.2157 -13.8864 -0.089 -0.388 0.917 132 43 18 0 0
2.6415 -0.2284 -13.8910 0.662 0.076 0.745 126 36 10 0 0
2.8157 -0.3067 -13.9611 0.753 0.209 0.624 130 49 23 0 0
2.8419 -0.3183 -13.9691 0.568 0.220 0.793 133 57 25 0 0
3.0183 -0.4100 -14.2030 0.871 -0.019 0.490 127 73 52 0 0
3.0315 -0.4174 -14.2282 0.824 0.003 0.567 103 51 35 0 0
3.2511 -0.5974 -15.3965 0.910 0.373 -0.179 90 71 71 0 0
3.2421 -0.5982 -15.4565 0.925 0.346 -0.155 88 69 71 0 0
3.8902 -0.8780 -15.5595 0.651 0.524 0.549 15 7 5 0 0
4.4676 -1.1559 -16.0308 0.928 0.342 0.147 40 39 39 0 0
4.4742 -1.2080 -16.6877 0.728 -0.222 0.649 106 105 106 0 0
4.4993 -1.2191 -16.6957 0.415 0.382 0.825 114 112 115 0 0
4.5172 -1.2362 -16.8224 -0.094 -0.539 0.837 133 131 133 0 0
4.5517 -1.2500 -16.8132 0.112 -0.283 0.953 138 136 137 0 0
4.6951 -1.3065 -16.7648 0.721 0.032 0.693 164 162 163 0 0
0.8837 0.5519 -12.9181 0.387 -0.314 0.867 62 9 2 0 0
1.4182 0.2662 -13.7297 0.290 -0.402 0.869 163 79 42 0 0
1.6225 0.1766 -13.7832 0.686 -0.214 0.696 146 62 32 0 0
2.7827 -0.3216 -13.9460 0.621 -0.170 0.765 129 45 19 0 0
2.8268 -0.3421 -13.9730 0.383 -0.196 0.903 127 47 20 0 0
3.0073 -0.4286 -14.1166 0.959 0.203 0.199 128 51 18 0 0
3.2575 -0.6289 -15.3688 0.938 -0.197 -0.284 81 61 58 0 0
3.2334 -0.6251 -15.4510 0.938 -0.197 -0.284 89 71 72 0 0
3.2177 -0.6239 -15.5212 0.937 -0.283 -0.205 88 71 72 0 0
3.8517 -0.8773 -15.3635 0.410 -0.088 0.908 89 32 6 0 0
3.9291 -0.9113 -15.3844 0.462 0.219 0.860 34 5 1 0 0
4.4296 -1.1546 -15.8263 0.830 -0.361 0.426 48 47 49 0 0
4.4377 -1.1607 -15.8621 0.818 -0.243 0.522 47 47 50 0 0
4.4580 -1.1856 -16.0770 0.947 -0.284 0.154 37 34 34 0 0
4.4538 -1.2235 -16.5973 0.762 0.254 0.595 88 85 83 0 0
4.4625 -1.2300 -16.6344 0.719 -0.142 0.681 97 96 95 0 0
4.4847 -1.2443 -16.6999 0.751 -0.148 0.644 112 110 111 0 0
4.5355 -1.2626 -16.6616 0.357 0.294 0.887 118 116 118 0 0
4.5468 -1.2739 -16.7469 0.021 -0.704 0.710 131 129 128 0 0
-1.4424 1.5349 -12.3659 0.741 -0.510 0.437 121 43 25 0 0
-1.4190 1.5237 -12.3836 0.416 -0.517 0.748 121 42 25 0 0
-1.3404 1.4903 -12.3925 0.332 -0.023 0.943 121 43 23 0 0
0.8180 0.5472 -12.9334 0.728 -0.453 0.514 72 10 1 0 0
0.9682 0.4574 -13.2842 0.502 -0.469 0.727 12 8 9 0 0
0.9615 0.4566 -13.3309 0.686 0.409 0.602 14 10 11 0 0
0.9826 0.4464 -13.3481 0.808 0.304 0.505 14 10 11 0 0
1.2046 0.3289 -13.6691 0.239 -0.185 0.953 170 116 103 0 0
1.4068 0.2399 -13.7281 0.327 0.067 0.943 142 57 24 0 0
1.5871 0.1583 -13.8092 0.906 -0.269 0.326 142 56 28 0 0
3.0410 -0.4809 -14.2260 0.858 0.058 0.510 124 67 45 0 0
3.1749 -0.5362 -14.2171 0.700 -0.117 0.705 116 69 56 0 0
3.2811 -0.6692 -15.3626 0.873 -0.369 -0.318 86 68 67 0 0
3.3029 -0.6794 -15.3772 0.474 -0.870 -0.138 87 72 73 0 0
3.1932 -0.6534 -15.6336 0.990 -0.135 -0.040 86 71 71 0 0
3.1910 -0.6565 -15.6845 0.992 -0.129 0.000 91 73 71 0 0
3.8015 -0.8874 -15.3753 0.816 0.288 0.502 167 99 60 0 0
3.8434 -0.9035 -15.3576 0.533 0.195 0.823 145 80 41 0 0
4.3785 -1.1531 -15.6958 0.622 -0.522 0.584 53 50 57 0 0
4.4026 -1.1753 -15.8517 0.542 -0.590 0.598 47 47 49 0 0
4.4272 -1.2412 -16.5707 0.371 0.354 0.859 77 73 71 0 0
5.1179 -1.5419 -16.7300 0.023 0.493 0.870 203 203 203 0 0
-1.4520 1.5062 -12.3621 0.479 -0.740 0.472 119 43 25 0 0
-0.8221 1.2334 -12.4965 0.468 0.197 0.861 130 45 24 0 0
-0.5573 1.1209 -12.5244 0.468 0.009 0.884 130 46 22 0 0
-0.1237 0.9360 -12.5803 0.237 -0.189 0.953 133 49 23 0 0
0.9491 0.4336 -13.2908 0.210 -0.519 0.829 15 11 12 0 0
0.9976 0.4112 -13.3184 0.156 -0.619 0.770 15 11 12 0 0
1.5772 0.1316 -13.8059 0.876 -0.323 0.359 144 59 32 0 0
2.4889 -0.2497 -13.8290 0.385 -0.224 0.895 140 46 21 0 0
2.5713 -0.2857 -13.8504 0.027 0.045 0.999 152 61 32 0 0
2.6034 -0.2992 -13.8516 0.066 -0.099 0.993 142 50 23 0 0
2.6164 -0.3066 -13.8766 0.364 0.504 0.784 137 47 20 0 0
2.9085 -0.4348 -13.9617 0.428 0.457 0.780 124 40 16 0 0
2.9172 -0.4409 -13.9922 0.347 0.554 0.757 131 45 19 0 0
2.9744 -0.4654 -14.0015 0.611 0.485 0.626 154 84 46 0 0
3.1693 -0.5628 -14.2084 0.618 0.176 0.766 82 30 14 0 0
3.2043 -0.5804 -14.2467 0.696 0.538 0.475 117 70 56 0 0
3.2682 -0.6983 -15.4102 0.636 -0.740 -0.220 92 73 72 0 0
3.3644 -0.7494 -15.5495 -0.061 0.785 0.616 58 20 11 0 0
4.2591 -1.1282 -15.6305 0.105 -0.313 0.944 10 6 7 0 0
4.3713 -1.1871 -15.7859 0.661 -0.704 0.259 43 43 43 0 0
4.4119 -1.2142 -15.9149 0.645 -0.483 0.592 44 44 45 0 0
4.4280 -1.2226 -15.9373 0.289 -0.463 0.838 57 57 57 0 0
4.4375 -1.2331 -16.0209 0.889 -0.344 0.302 30 30 31 0 0
4.3635 -1.2485 -16.6092 0.980 -0.033 -0.195 69 64 60 0 0
4.4199 -1.2683 -16.5620 0.952 0.217 0.218 77 73 71 0 0
4.4504 -1.2808 -16.5604 0.761 0.197 0.618 87 85 83 0 0
4.4429 -1.2829 -16.6257 0.159 0.670 0.725 95 93 94 0 0
5.3618 -1.6559 -16.5043 0.816 -0.167 0.554 207 207 207 0 0
-0.8019 1.1920 -12.5043 0.393 -0.082 0.916 127 42 21 0 0
-0.5578 1.0900 -12.5127 0.287 -0.231 0.930 130 46 22 0 0
-0.2023 0.9382 -12.5654 0.499 -0.091 0.862 134 50 24 0 0
-0.1684 0.9236 -12.5717 0.206 -0.125 0.970 130 46 20 0 0
0.1717 0.7778 -12.6295 0.502 -0.317 0.805 133 49 25 0 0
0.4819 0.6488 -12.6329 0.345 -0.052 0.937 161 92 73 0 0
0.8571 0.4713 -12.9058 0.287 -0.450 0.846 64 9 2 0 0
1.0555 0.3302 -13.6422 0.386 -0.176 0.905 133 67 33 0 0
1.6206 0.0812 -13.8234 -0.070 -0.198 0.978 179 127 102 0 0
1.6496 0.0686 -13.8310 -0.238 -0.247 0.939 153 116 93 0 0
2.0437 -0.0877 -13.7379 0.672 -0.055 0.739 132 47 17 0 0
2.5003 -0.2821 -13.7997 0.622 -0.235 0.747 142 51 20 0 0
2.5423 -0.3020 -13.8299 0.779 0.364 0.511 147 54 22 0 0
3.1647 -0.5897 -14.1985 0.618 0.176 0.766 127 69 47 0 0
4.2647 -1.1621 -15.6501 0.383 -0.275 0.882 11 8 10 0 0
4.2912 -1.1734 -15.6551 0.690 -0.442 0.573 39 38 39 0 0
4.3677 -1.2789 -16.5804 0.971 -0.055 -0.233 67 62 58 0 0
-1.1597 1.3139 -12.4278 0.455 0.193 0.869 125 44 23 0 0
-0.2128 0.9110 -12.5626 0.410 -0.045 0.911 132 50 26 0 0
-0.1808 0.8971 -12.5707 0.240 -0.079 0.968 131 47 23 0 0
-0.1354 0.8787 -12.5664 0.372 -0.415 0.830 133 49 25 0 0
0.1620 0.7508 -12.6262 0.715 -0.107 0.691 137 53 29 0 0
0.6580 0.5354 -12.7496 0.501 0.186 0.845 150 81 57 0 0
0.8369 0.4482 -12.9132 0.204 -0.689 0.695 59 8 1 0 0
1.0266 0.3093 -13.6594 0.311 -0.243 0.919 149 74 34 0 0
2.0165 -0.1049 -13.7145 0.672 -0.055 0.739 132 46 22 0 0
2.0893 -0.1379 -13.7506 0.394 -0.210 0.895 138 50 22 0 0
2.1461 -0.1593 -13.7237 0.586 0.005 0.810 143 56 24 0 0
2.2167 -0.1916 -13.7616 0.446 -0.169 0.879 140 51 20 0 0
2.5377 -0.3292 -13.8205 0.545 0.110 0.831 145 55 25 0 0
2.9703 -0.5175 -13.9337 0.464 0.679 0.569 129 47 20 0 0
4.1256 -1.1277 -15.5677 0.861 -0.404 0.310 36 17 15 0 0
4.1403 -1.1358 -15.5921 0.877 -0.061 0.477 27 14 15 0 0
4.2892 -1.2209 -15.8833 0.405 -0.898 0.173 45 45 47 0 0
4.4370 -1.3062 -16.1819 0.912 -0.407 0.057 33 28 24 0 0
4.4079 -1.3148 -16.4368 0.953 -0.151 -0.262 59 51 49 0 0
4.3815 -1.3118 -16.5347 0.953 -0.151 -0.262 69 62 60 0 0
5.1362 -1.6317 -16.6271 0.736 -0.503 0.453 203 203 205 0 0
0.2878 0.6660 -12.6443 0.423 -0.022 0.906 135 55 32 0 0
0.4684 0.5872 -12.6961 0.610 -0.105 0.785 170 107 94 0 0
0.6396 0.5148 -12.7172 0.659 -0.612 0.437 152 85 53 0 0
0.8059 0.4286 -12.9316 0.518 -0.521 0.679 59 8 3 0 0
0.9093 0.3564 -13.2916 0.131 0.007 0.991 10 6 7 0 0
0.7962 0.3704 -13.6917 -0.098 -0.193 0.976 10 6 7 0 0
1.0120 0.2838 -13.6612 0.311 -0.243 0.919 141 62 18 0 0
1.3927 0.1246 -13.6863 0.377 -0.037 0.925 142 53 22 0 0
1.4355 0.1075 -13.6787 0.737 0.003 0.676 148 56 31 0 0
1.4480 0.1002 -13.7052 0.691 -0.056 0.721 132 47 27 0 0
2.0071 -0.1311 -13.7109 0.538 -0.138 0.832 150 75 48 0 0
2.0750 -0.1626 -13.7529 0.290 -0.347 0.892 137 46 20 0 0
2.4856 -0.3349 -13.7876 0.251 0.011 0.968 146 56 23 0 0
2.5546 -0.3665 -13.8255 0.528 0.249 0.812 143 51 22 0 0
2.9963 -0.5571 -13.9259 0.686 0.567 0.456 127 48 23 0 0
3.0158 -0.5665 -13.9422 0.632 0.593 0.500 127 45 18 0 0
3.3132 -0.7262 -14.3929 0.836 0.442 0.324 113 65 52 0 0
3.6329 -0.9344 -15.3247 0.429 0.183 0.885 139 78 40 0 0
3.6618 -0.9466 -15.3276 0.817 -0.073 0.572 149 85 41 0 0
3.6846 -0.9570 -15.3396 0.434 -0.270 0.860 145 76 36 0 0
3.7083 -0.9676 -15.3503 0.681 -0.155 0.716 152 85 54 0 0
4.1337 -1.1623 -15.5835 0.877 -0.061 0.477 17 6 6 0 0
4.2886 -1.2493 -15.8642 -0.020 -0.851 0.525 44 44 46 0 0
4.3727 -1.2927 -15.9703 0.382 -0.836 0.393 41 42 44 0 0
4.3835 -1.2997 -16.0018 0.476 -0.814 0.333 38 40 39 0 0
4.9046 -1.5695 -16.6690 0.789 -0.109 0.605 190 190 190 0 0
4.9217 -1.5783 -16.6903 0.631 -0.434 0.643 191 191 192 0 0
4.9526 -1.5907 -16.6857 0.786 -0.401 0.470 194 194 196 0 0
5.1162 -1.6547 -16.6427 0.644 -0.749 0.156 202 202 204 0 0
5.1344 -1.6681 -16.7151 0.870 -0.349 0.349 206 206 205 0 0
-0.1720 0.8267 -12.6130 0.365 -0.610 0.703 131 46 23 0 0
0.1010 0.7136 -12.6213 0.528 -0.274 0.804 130 46 22 0 0
0.4783 0.5508 -12.7115 0.637 0.002 0.771 154 88 67 0 0
0.5195 0.5340 -12.7090 0.571 -0.263 0.777 155 81 58 0 0
0.5874 0.5054 -12.7180 0.530 -0.520 0.670 140 67 40 0 0
0.7992 0.4010 -12.9253 0.781 -0.217 0.585 56 6 2 0 0
2.0156 -0.1663 -13.7269 0.484 -0.553 0.679 138 55 29 0 0
2.4524 -0.3499 -13.7724 0.199 -0.143 0.970 159 69 34 0 0
2.4734 -0.3632 -13.8288 0.910 -0.104 0.400 154 64 30 0 0
2.8203 -0.5075 -13.8467 0.579 -0.169 0.797 134 46 21 0 0
2.8309 -0.5142 -13.8746 0.531 -0.148 0.834 132 44 19 0 0
3.0270 -0.6015 -13.9536 0.115 0.465 0.878 133 49 23 0 0
3.2727 -0.7209 -14.1743 0.693 -0.126 0.709 137 79 52 0 0
3.2845 -0.7280 -14.2008 0.672 -0.133 0.729 105 54 33 0 0
3.3358 -0.7575 -14.3021 0.785 0.563 0.259 120 74 59 0 0
3.6775 -0.9836 -15.3321 0.443 -0.511 0.737 149 87 54 0 0
3.7010 -0.9942 -15.3429 0.301 -0.446 0.843 172 120 94 0 0
3.7218 -1.0040 -15.3580 0.309 -0.561 0.768 154 106 94 0 0
3.8190 -1.0395 -15.3023 0.624 -0.645 0.442 154 107 92 0 0
4.0663 -1.1561 -15.4811 0.654 -0.152 0.742 98 44 27 0 0
4.3950 -1.3313 -15.9620 0.293 0.208 0.933 37 38 38 0 0
4.8836 -1.5881 -16.6330 0.248 -0.644 0.724 186 186 186 0 0
4.9063 -1.5984 -16.6436 0.230 -0.336 0.913 189 189 189 0 0
5.0988 -1.6784 -16.6534 0.781 -0.106 0.615 204 204 206 0 0
5.1257 -1.6897 -16.6554 0.893 -0.095 0.440 204 204 204 0 0
5.1295 -1.6950 -16.7018 0.700 -0.441 0.562 205 205 205 0 0
5.1444 -1.7033 -16.7268 0.700 -0.441 0.562 207 207 207 0 0
5.1525 -1.7098 -16.7651 0.519 -0.694 0.498 206 206 206 0 0
-0.1527 0.7865 -12.6204 0.331 -0.233 0.914 135 50 28 0 0
0.7746 0.3792 -12.9372 0.414 -0.257 0.873 57 7 1 0 0
0.7496 0.3808 -13.0397 0.717 -0.649 -0.256 13 1 1 0 0
0.6813 0.3931 -13.2265 0.910 -0.284 -0.302 11 7 7 0 0
1.9931 -0.1884 -13.7387 0.217 -0.702 0.678 136 48 21 0 0
2.0230 -0.2012 -13.7441 0.367 -0.442 0.818 140 56 27 0 0
2.5649 -0.4303 -13.8235 0.188 -0.311 0.932 152 65 32 0 0
2.9300 -0.5864 -13.8976 0.492 0.483 0.724 124 38 12 0 0
3.1603 -0.6871 -13.9712 0.315 0.118 0.942 145 69 33 0 0
3.3354 -0.7818 -14.2432 0.060 -0.645 0.761 95 50 35 0 0
3.5087 -0.9448 -15.3352 0.214 0.463 0.860 76 23 10 0 0
3.6620 -1.0079 -15.3372 0.462 -0.504 0.730 148 89 68 0 0
3.6846 -1.0182 -15.3496 0.405 -0.522 0.751 166 121 106 0 0
3.7745 -1.0515 -15.3055 0.738 -0.542 0.402 217 178 171 0 0
3.7950 -1.0611 -15.3208 0.796 -0.281 0.535 166 121 107 0 0
4.2217 -1.2756 -15.7884 0.933 -0.324 -0.158 37 36 39 0 0
4.4263 -1.3764 -15.9879 0.751 0.158 0.641 24 22 22 0 0
4.6924 -1.5321 -16.5409 0.834 -0.457 0.308 151 150 152 0 0
4.7123 -1.5550 -16.7152 0.357 -0.115 0.927 171 171 173 0 0
4.7609 -1.5719 -16.6789 0.053 0.133 0.990 177 177 178 0 0
4.8640 -1.6115 -16.6472 0.248 -0.644 0.724 185 185 185 0 0
4.8827 -1.6207 -16.6655 0.412 -0.591 0.694 188 188 188 0 0
5.1158 -1.7198 -16.7054 0.858 -0.345 0.381 206 206 205 0 0
5.1405 -1.7350 -16.7653 0.720 -0.623 0.306 207 207 207 0 0
-0.1810 0.7684 -12.5966 0.316 -0.200 0.928 130 46 20 0 0
0.5523 0.4572 -12.7270 0.618 -0.179 0.765 142 66 45 0 0
0.7529 0.3564 -12.9460 0.267 -0.742 0.614 60 8 2 0 0
0.6766 0.3272 -13.6556 0.712 -0.647 -0.274 9 8 6 0 0
1.2649 0.0856 -13.6643 0.623 -0.074 0.779 162 91 45 0 0
1.2856 0.0757 -13.6818 0.623 -0.074 0.779 164 91 41 0 0
1.3062 0.0657 -13.6993 0.623 -0.074 0.779 161 84 33 0 0
1.3316 0.0543 -13.7115 0.645 -0.034 0.764 157 75 25 0 0
2.0076 -0.2255 -13.7476 0.343 -0.379 0.859 143 55 27 0 0
2.4229 -0.3946 -13.7377 0.581 0.082 0.809 142 51 21 0 0
2.4543 -0.4147 -13.8221 0.809 -0.142 0.570 144 53 23 0 0
2.9151 -0.6065 -13.8599 0.526 -0.243 0.815 129 43 15 0 0
3.1165 -0.6985 -13.9716 0.031 0.088 0.996 135 55 28 0 0
3.2910 -0.7895 -14.2022 0.582 -0.115 0.805 129 64 37 0 0
3.3141 -0.7999 -14.2133 0.069 -0.325 0.943 131 72 48 0 0
3.3112 -0.8027 -14.2602 0.105 -0.654 0.749 119 68 50 0 0
3.3283 -0.8114 -14.2795 0.143 -0.711 0.689 111 66 51 0 0
3.3453 -0.8200 -14.2990 0.228 -0.704 0.673 110 68 55 0 0
3.6457 -1.0320 -15.3435 0.462 -0.504 0.730 100 48 37 0 0
3.6645 -1.0412 -15.3617 0.462 -0.504 0.730 136 87 73 0 0
3.7688 -1.0783 -15.2959 0.854 -0.079 0.514 185 146 132 0 0
3.7831 -1.0863 -15.3206 0.880 -0.048 0.472 194 154 138 0 0
4.0685 -1.2092 -15.3921 0.752 -0.104 0.651 74 14 2 0 0
4.2176 -1.3029 -15.7754 0.955 -0.216 -0.205 28 27 31 0 0
4.6950 -1.5657 -16.5668 0.793 -0.246 0.558 155 155 157 0 0
4.7124 -1.5746 -16.5876 0.641 -0.187 0.744 160 160 162 0 0
4.6997 -1.5759 -16.6632 0.842 0.024 0.539 164 164 166 0 0
4.7132 -1.5838 -16.6915 0.840 0.215 0.498 169 169 171 0 0
5.0823 -1.7350 -16.6932 0.940 0.024 0.341 204 204 204 0 0
5.0971 -1.7433 -16.7184 0.579 -0.366 0.729 206 206 206 0 0
5.0839 -1.7446 -16.7974 0.930 -0.260 0.260 207 207 207 0 0
-0.1558 0.7264 -12.5985 0.224 0.056 0.973 129 45 20 0 0
0.7190 0.3342 -13.0058 0.895 -0.424 -0.135 32 5 4 0 0
0.7139 0.3325 -13.0496 0.837 -0.521 -0.168 8 1 3 0 0
0.6998 0.3336 -13.1028 0.806 -0.565 -0.175 42 36 38 0 0
0.9393 0.1892 -13.6429 0.641 -0.587 0.495 147 70 30 0 0
1.1977 0.0803 -13.6840 0.612 -0.206 0.763 161 109 71 0 0
1.2760 0.0488 -13.6781 0.569 -0.096 0.817 144 86 44 0 0
1.3014 0.0374 -13.6904 0.567 -0.200 0.799 143 80 38 0 0
1.3222 0.0274 -13.7077 0.567 -0.200 0.799 159 90 43 0 0
1.3469 0.0162 -13.7206 0.398 -0.120 0.910 156 78 31 0 0
1.3717 0.0049 -13.7334 0.311 -0.303 0.901 146 60 26 0 0
1.9921 -0.2498 -13.7512 0.290 -0.273 0.917 138 53 26 0 0
2.0171 -0.2610 -13.7624 0.290 -0.273 0.917 143 57 29 0 0
2.8023 -0.5903 -13.8650 0.269 -0.662 0.700 140 49 18 0 0
2.8628 -0.6155 -13.8703 0.133 -0.100 0.986 147 58 30 0 0
3.3022 -0.8244 -14.2134 0.525 -0.219 0.823 124 53 19 0 0
3.6783 -1.0737 -15.3223 0.835 0.005 0.551 73 27 18 0 0
3.7774 -1.1131 -15.3110 0.844 -0.128 0.521 164 123 108 0 0
3.8180 -1.1284 -15.2952 0.288 0.227 0.931 178 129 109 0 0
4.1956 -1.3338 -15.8899 0.974 0.223 0.028 13 14 18 0 0
4.1985 -1.3431 -15.9838 0.137 0.066 0.988 12 14 14 0 0
4.3311 -1.4081 -16.1093 0.898 0.310 0.311 22 20 21 0 0
4.7372 -1.6184 -16.6254 -0.200 0.069 0.977 167 167 169 0 0
4.8553 -1.6706 -16.6719 -0.077 -0.435 0.897 187 187 187 0 0
4.9382 -1.6957 -16.5706 0.802 -0.302 0.516 190 190 192 0 0
4.9663 -1.7118 -16.6238 0.802 -0.302 0.516 196 196 198 0 0
5.0501 -1.7599 -16.7855 0.590 -0.584 0.558 206 206 206 0 0
0.5275 0.4056 -12.7259 0.466 -0.332 0.820 145 71 48 0 0
0.7083 0.3077 -13.0035 0.948 -0.311 -0.071 23 3 1 0 0
0.7042 0.3057 -13.0462 0.930 -0.344 -0.129 6 2 5 0 0
0.9627 0.1482 -13.6439 0.488 -0.278 0.827 157 78 50 0 0
1.2663 0.0219 -13.6746 0.569 -0.096 0.817 120 55 33 0 0
2.5916 -0.5308 -13.8270 0.808 -0.018 0.589 148 57 27 0 0
3.6660 -1.0947 -15.2760 0.906 -0.106 0.410 93 41 25 0 0
3.7688 -1.1392 -15.3056 0.839 -0.258 0.479 126 79 68 0 0
3.7860 -1.1480 -15.3259 0.741 -0.315 0.593 152 105 85 0 0
3.8502 -1.1695 -15.2738 0.805 0.149 0.574 173 120 95 0 0
4.1745 -1.3610 -15.9543 0.355 0.401 0.844 10 11 11 0 0
4.5468 -1.5811 -16.7387 0.376 0.443 0.814 141 141 143 0 0
4.8425 -1.6958 -16.6734 -0.289 0.197 0.937 186 186 186 0 0
4.9301 -1.7218 -16.5636 0.783 -0.529 0.327 188 188 190 0 0
4.9443 -1.7299 -16.5899 0.613 -0.553 0.564 191 191 193 0 0
5.0020 -1.7532 -16.5876 -0.106 0.606 0.788 196 196 198 0 0
5.0887 -1.7974 -16.6892 0.705 -0.625 0.337 206 206 206 0 0
5.0950 -1.8035 -16.7308 0.749 0.352 0.561 206 206 206 0 0
0.5046 0.3832 -12.7356 0.519 -0.284 0.806 148 72 47 0 0
0.6956 0.2819 -13.0032 0.813 -0.582 -0.028 16 2 2 0 0
0.6904 0.2802 -13.0471 0.825 -0.560 -0.079 7 2 4 0 0
0.6043 0.2970 -13.2518 0.788 -0.436 -0.434 8 4 5 0 0
1.2786 -0.0152 -13.6871 0.635 -0.118 0.764 124 57 38 0 0
1.2986 -0.0250 -13.7053 0.635 -0.118 0.764 139 67 47 0 0
1.3187 -0.0347 -13.7234 0.635 -0.118 0.764 124 50 25 0 0
2.4978 -0.5204 -13.8053 0.478 0.102 0.872 150 61 25 0 0
2.5861 -0.5575 -13.8186 0.746 -0.108 0.657 156 67 29 0 0
3.8354 -1.1896 -15.2316 0.497 -0.118 0.860 115 69 57 0 0
3.8519 -1.1982 -15.2528 0.684 -0.185 0.705 147 99 80 0 0
3.8211 -1.2024 -15.4409 0.428 -0.343 0.836 165 110 92 0 0
4.1496 -1.3874 -16.0251 0.296 0.239 0.925 8 8 10 0 0
4.3482 -1.4693 -16.0395 0.816 0.465 0.344 19 19 20 0 0
4.5068 -1.5907 -16.6835 0.825 0.191 0.532 121 121 119 0 0
4.5428 -1.6089 -16.7240 0.400 0.527 0.750 138 136 139 0 0
4.5701 -1.6202 -16.7275 0.352 0.445 0.823 146 144 147 0 0
4.8973 -1.7420 -16.6026 -0.011 0.439 0.898 187 187 189 0 0
5.0948 -1.8268 -16.6551 0.640 -0.101 0.762 205 205 205 0 0
5.0940 -1.8313 -16.7101 0.857 0.294 0.424 206 206 206 0 0
5.0878 -1.8346 -16.7756 0.905 -0.419 -0.071 207 207 207 0 0
-0.3980 0.7334 -12.5585 0.610 -0.261 0.748 131 49 25 0 0
0.4234 0.3893 -12.6888 0.588 -0.258 0.767 152 77 59 0 0
0.4436 0.3795 -12.7070 0.682 -0.201 0.703 153 77 53 0 0
1.2833 -0.0501 -13.7080 0.457 -0.440 0.774 122 69 44 0 0
1.6314 -0.1920 -13.7202 -0.148 -0.147 0.978 136 73 48 0 0
3.1362 -0.8155 -13.8830 0.340 0.296 0.893 120 34 14 0 0
3.1457 -0.8220 -13.9121 0.905 0.275 0.324 123 37 14 0 0
3.8179 -1.2131 -15.2401 0.894 -0.029 0.448 63 19 6 0 0
3.8598 -1.2494 -15.4563 0.406 -0.316 0.857 175 121 94 0 0
4.1728 -1.3956 -15.6735 0.492 0.327 0.807 64 62 63 0 0
4.1945 -1.4055 -15.6864 0.617 0.305 0.726 35 34 36 0 0
4.2097 -1.4137 -15.7099 0.867 0.208 0.452 18 16 19 0 0
4.2264 -1.4224 -15.7309 0.916 -0.085 0.391 12 10 13 0 0
4.3542 -1.4991 -16.0089 0.790 0.392 0.471 61 61 63 0 0
4.5384 -1.5766 -16.0428 -0.075 -0.459 0.885 46 45 43 0 0
4.5921 -1.5990 -16.0498 -0.075 -0.459 0.885 65 61 58 0 0
5.0739 -1.8498 -16.6724 0.517 0.407 0.753 205 205 205 0 0
5.0899 -1.8583 -16.6953 0.686 -0.057 0.725 205 205 205 0 0
5.0933 -1.8639 -16.7424 0.805 -0.184 0.564 208 208 208 0 0
-2.8727 1.7150 -12.3947 0.862 -0.228 0.453 113 46 29 0 0
-2.8773 1.7132 -12.4360 0.496 0.201 0.845 113 47 31 0 0
-1.5414 1.1791 -12.3816 0.457 -0.340 0.822 122 44 24 0 0
-0.4243 0.7112 -12.5701 0.376 -0.292 0.879 129 47 23 0 0
0.2296 0.4413 -12.6371 0.603 -0.258 0.755 139 64 46 0 0
0.2491 0.4317 -12.6560 0.603 -0.258 0.755 143 72 53 0 0
0.4326 0.3498 -12.7427 0.255 -0.361 0.897 139 64 40 0 0
1.0717 0.0064 -13.6846 0.482 -0.100 0.871 104 57 38 0 0
1.6246 -0.2230 -13.7541 0.265 0.336 0.904 147 70 23 0 0
2.0390 -0.3869 -13.7182 0.702 -0.106 0.704 130 52 28 0 0
2.1489 -0.4342 -13.7501 0.363 -0.100 0.926 143 56 21 0 0
2.9961 -0.7845 -13.8434 0.637 0.291 0.713 138 55 24 0 0
3.2035 -0.8736 -13.9032 0.733 -0.014 0.680 138 55 27 0 0
3.6803 -1.1344 -14.6567 0.917 0.400 -0.016 57 9 5 0 0
4.1928 -1.4288 -15.6214 0.716 0.194 0.671 48 47 48 0 0
4.2090 -1.4373 -15.6431 0.837 0.183 0.516 27 26 28 0 0
4.3084 -1.5113 -16.0165 0.207 -0.247 0.947 36 35 39 0 0
4.4863 -1.5872 -16.0622 -0.130 -0.362 0.923 19 17 19 0 0
4.5183 -1.5997 -16.0571 -0.052 -0.465 0.884 30 30 32 0 0
4.5396 -1.6606 -16.6337 0.880 0.466 0.090 121 118 117 0 0
-1.8991 1.2916 -12.3653 0.599 0.289 0.746 118 45 28 0 0
-1.5594 1.1532 -12.3848 0.387 -0.436 0.812 122 45 25 0 0
-1.3219 1.0519 -12.4468 0.397 0.178 0.900 125 45 23 0 0
-1.2105 1.0090 -12.4268 0.492 -0.092 0.866 125 44 22 0 0
-1.1979 1.0014 -12.4533 0.287 -0.089 0.954 125 45 23 0 0
-0.3235 0.6381 -12.5785 0.651 -0.531 0.542 129 46 22 0 0
0.2739 0.3905 -12.6574 0.566 0.055 0.823 153 88 71 0 0
0.3313 0.3656 -12.6774 0.182 0.031 0.983 170 107 90 0 0
0.4473 0.3189 -12.6780 0.391 -0.422 0.818 141 63 40 0 0
0.6283 0.2064 -13.1092 0.579 -0.750 0.321 23 20 22 0 0
1.8244 -0.3265 -13.6712 0.711 -0.019 0.703 96 29 9 0 0
2.3325 -0.5389 -13.7584 0.413 -0.024 0.910 148 59 27 0 0
2.4542 -0.5892 -13.7729 0.263 0.071 0.962 146 56 22 0 0
3.1287 -0.8687 -13.8618 0.584 -0.359 0.728 134 48 23 0 0
3.1458 -0.8773 -13.8808 0.285 -0.304 0.909 145 56 29 0 0
3.5928 -1.0747 -14.0716 0.685 -0.604 0.407 127 56 28 0 0
3.6106 -1.0835 -14.0891 0.428 -0.427 0.796 109 41 22 0 0
3.9663 -1.3639 -15.5831 0.760 -0.482 0.435 45 12 10 0 0
4.1679 -1.4461 -15.5944 0.653 0.125 0.747 19 14 15 0 0
-2.2196 1.3885 -12.3497 0.585 -0.423 0.693 119 45 30 0 0
-1.5456 1.1100 -12.4361 0.881 -0.302 0.364 123 45 24 0 0
-0.7387 0.7778 -12.5279 0.632 0.072 0.771 124 42 18 0 0
0.2641 0.3638 -12.6542 0.257 -0.034 0.966 164 99 82 0 0
0.3210 0.3390 -12.6747 0.215 0.172 0.961 168 102 85 0 0
0.9132 0.0129 -13.6268 0.711 -0.213 0.670 155 95 80 0 0
1.1835 -0.1057 -13.7353 0.525 -0.171 0.834 163 101 88 0 0
1.7862 -0.3367 -13.6202 0.713 -0.530 0.459 120 50 30 0 0
1.7942 -0.3428 -13.6513 0.737 -0.112 0.667 94 30 18 0 0
2.3256 -0.5653 -13.7519 0.458 0.163 0.874 144 56 24 0 0
3.1081 -0.8906 -13.8732 0.592 -0.173 0.787 137 49 22 0 0
4.1983 -1.4995 -15.7184 0.618 -0.719 0.317 10 7 8 0 0
4.3524 -1.5876 -16.0009 0.674 -0.111 0.730 37 38 43 0 0
4.3973 -1.6032 -15.9743 0.661 0.535 0.526 44 45 50 0 0
-1.6615 1.1261 -12.4085 0.407 -0.027 0.913 122 45 27 0 0
0.3757 0.2782 -12.7601 0.367 -0.146 0.919 143 71 46 0 0
0.6081 0.1674 -12.9492 0.844 0.230 0.484 42 12 4 0 0
1.7858 -0.3693 -13.6465 0.737 -0.112 0.667 84 18 8 0 0
2.5824 -0.7052 -13.8298 0.891 0.040 0.453 142 51 19 0 0
2.6351 -0.7317 -13.8872 0.480 -0.064 0.875 143 54 22 0 0
3.1816 -0.9501 -13.8852 0.420 0.354 0.835 157 72 40 0 0
3.6645 -1.1723 -14.1937 0.820 0.455 0.348 77 20 11 0 0
3.8581 -1.3618 -15.3841 0.561 -0.170 0.810 64 13 3 0 0
3.9634 -1.4330 -15.6932 0.811 -0.117 0.573 14 2 2 0 0
4.1664 -1.5197 -15.7511 0.365 -0.899 0.242 8 5 6 0 0
4.3536 -1.6160 -15.9788 0.832 -0.337 0.440 36 37 42 0 0
-1.9438 1.2098 -12.3666 0.833 -0.173 0.526 119 46 29 0 0
-1.0803 0.8559 -12.4660 0.342 -0.122 0.932 122 40 19 0 0
0.3645 0.2518 -12.7582 0.398 -0.151 0.905 148 76 52 0 0
0.3906 0.2402 -12.7706 0.215 -0.304 0.928 146 77 55 0 0
2.5163 -0.7031 -13.7739 0.696 -0.375 0.612 139 50 19 0 0
2.5300 -0.7109 -13.7978 0.511 -0.373 0.775 143 54 22 0 0
3.0898 -0.9407 -13.8661 0.584 -0.359 0.728 146 56 27 0 0
3.7947 -1.3561 -15.2768 0.852 -0.419 0.314 97 41 18 0 0
3.8486 -1.3875 -15.3803 0.583 -0.161 0.797 64 18 10 0 0
4.4173 -1.6685 -15.9495 0.496 0.344 0.797 37 38 43 0 0
4.5569 -1.8031 -16.7781 0.313 -0.103 0.944 137 136 136 0 0
4.5675 -1.8105 -16.8116 0.813 -0.098 0.574 148 145 146 0 0
-0.7647 0.7006 -12.4402 0.636 -0.364 0.680 126 44 20 0 0
0.3840 0.2125 -12.7643 0.433 -0.142 0.890 142 74 55 0 0
0.9759 -0.1226 -13.7993 0.652 0.048 0.757 118 38 13 0 0
1.8730 -0.4715 -13.7184 0.423 -0.455 0.784 164 85 34 0 0
2.5289 -0.7387 -13.7841 0.631 -0.125 0.766 140 50 22 0 0
2.6024 -0.7749 -13.8566 0.646 0.104 0.756 147 58 23 0 0
3.7775 -1.3144 -14.6055 0.997 -0.024 0.079 99 67 42 0 0
3.7787 -1.3189 -14.6479 0.992 0.002 0.128 84 51 34 0 0
3.7835 -1.3244 -14.6851 0.992 0.002 0.128 60 27 19 0 0
3.7927 -1.3311 -14.7161 0.996 -0.041 0.075 45 9 5 0 0
3.8022 -1.3421 -14.7912 0.988 0.082 0.133 67 24 12 0 0
3.7732 -1.3743 -15.2450 0.816 -0.499 0.292 75 20 11 0 0
3.7825 -1.3811 -15.2771 0.852 -0.419 0.314 67 13 5 0 0
3.8034 -1.3953 -15.3381 0.588 -0.601 0.541 62 12 4 0 0
4.4392 -1.7110 -15.9911 0.669 0.100 0.736 33 34 39 0 0
4.5193 -1.8180 -16.7712 0.105 -0.020 0.994 120 118 121 0 0
4.5449 -1.8288 -16.7778 0.158 -0.128 0.979 130 128 129 0 0
-0.0513 0.3664 -12.6401 0.476 -0.022 0.879 140 56 32 0 0
0.5010 0.1181 -12.9406 0.636 -0.322 0.702 58 10 4 0 0
0.8427 -0.0784 -13.5662 0.460 -0.126 0.879 136 52 23 0 0
0.8565 -0.0863 -13.5916 0.945 -0.088 0.316 148 82 66 0 0
0.9770 -0.1529 -13.7838 0.593 0.363 0.719 129 46 21 0 0
1.0172 -0.1685 -13.7804 0.213 -0.050 0.976 110 43 25 0 0
1.7918 -0.4655 -13.6769 0.183 -0.176 0.967 173 99 53 0 0
3.7963 -1.3637 -14.7379 0.985 0.085 0.148 107 53 30 0 0
3.8022 -1.3696 -14.7738 0.985 0.085 0.148 99 43 20 0 0
3.7704 -1.4060 -15.2774 0.852 -0.419 0.314 55 10 3 0 0
4.5169 -1.8459 -16.7537 0.780 0.379 0.498 115 113 114 0 0
4.5372 -1.8555 -16.7698 0.615 0.396 0.681 127 125 125 0 0
4.6755 -1.9013 -16.6768 0.929 -0.234 0.287 158 156 160 0 0
4.6952 -1.9159 -16.7461 0.969 -0.133 0.210 171 169 171 0 0
4.7026 -1.9226 -16.7855 0.739 0.178 0.650 175 174 175 0 0
5.0229 -2.0483 -16.7721 0.897 -0.227 0.380 208 208 207 0 0
-1.4724 0.9178 -12.4279 0.223 -0.284 0.932 121 43 21 0 0
0.8571 -0.1164 -13.5769 0.631 -0.381 0.676 152 97 82 0 0
1.8653 -0.5269 -13.6983 0.444 0.179 0.878 175 100 50 0 0
2.4412 -0.7547 -13.6993 0.455 0.264 0.851 127 45 22 0 0
2.8740 -0.9369 -13.8109 0.468 0.049 0.882 156 66 33 0 0
3.8144 -1.3957 -14.6937 0.951 0.277 0.138 83 22 5 0 0
3.8212 -1.4017 -14.7281 0.951 0.277 0.138 78 20 6 0 0
3.9567 -1.5439 -15.6272 0.986 -0.145 0.085 43 22 20 0 0
4.6524 -1.8587 -16.0301 0.958 0.245 0.152 32 31 36 0 0
4.7221 -1.9550 -16.7275 0.875 -0.066 0.480 174 173 173 0 0
-3.7496 1.7865 -12.3921 0.031 0.381 0.924 109 51 39 0 0
-3.7553 1.7807 -12.4722 0.917 -0.297 0.268 108 49 36 0 0
-3.7428 1.7729 -12.5011 0.591 -0.560 0.581 107 47 36 0 0
-0.5963 0.5237 -12.5901 0.430 0.086 0.899 126 44 20 0 0
-0.3519 0.4270 -12.5934 0.316 -0.413 0.854 136 56 32 0 0
-0.0750 0.3135 -12.6374 0.473 -0.278 0.836 132 52 31 0 0
0.8456 -0.1429 -13.5753 0.812 -0.346 0.470 140 91 76 0 0
0.9780 -0.2129 -13.7543 0.593 0.363 0.719 129 49 27 0 0
2.4021 -0.7681 -13.6916 0.293 0.141 0.946 146 64 27 0 0
2.9056 -0.9770 -13.7961 0.794 -0.123 0.595 158 69 34 0 0
3.0339 -1.0356 -13.8773 0.662 0.205 0.721 151 63 29 0 0
3.1283 -1.0729 -13.8777 0.221 -0.228 0.948 166 81 51 0 0
3.5480 -1.2484 -13.9789 0.705 -0.470 0.531 139 85 72 0 0
3.9474 -1.5697 -15.6229 0.955 -0.277 0.108 25 10 8 0 0
4.5760 -1.8494 -15.9433 0.406 -0.097 0.909 44 43 48 0 0
4.6979 -1.9779 -16.7500 0.754 -0.124 0.645 173 173 173 0 0
7.8982 -3.2175 -16.5291 0.510 -0.343 0.789 219 217 218 0 0
-1.1899 0.7305 -12.5379 0.206 -0.483 0.851 126 44 23 0 0
-0.3269 0.3855 -12.5958 0.413 0.164 0.896 125 43 22 0 0
-0.0841 0.2862 -12.6335 0.616 -0.479 0.625 132 50 29 0 0
0.3497 0.1043 -12.7469 0.600 -0.243 0.763 152 82 60 0 0
0.3736 0.0934 -12.7614 0.711 -0.288 0.641 140 74 52 0 0
0.4642 0.0400 -12.9382 0.239 0.223 0.945 52 10 1 0 0
0.7974 -0.1589 -13.6128 0.458 -0.529 0.714 138 89 75 0 0
2.9155 -1.0071 -13.7682 0.598 0.045 0.800 157 67 32 0 0
3.0810 -1.0837 -13.8829 0.555 -0.121 0.823 157 71 38 0 0
3.1338 -1.1058 -13.8963 0.282 0.267 0.921 148 61 33 0 0
3.9462 -1.5831 -15.4634 0.941 -0.319 0.113 46 15 5 0 0
3.9494 -1.5886 -15.5056 0.941 -0.319 0.113 30 9 5 0 0
3.9499 -1.5935 -15.5523 0.977 0.081 0.199 22 7 7 0 0
3.9659 -1.6458 -16.0095 0.538 -0.544 0.643 11 9 11 0 0
4.6857 -2.0034 -16.7502 0.608 0.065 0.791 172 173 170 0 0
7.8767 -3.2506 -16.6811 0.581 -0.752 0.311 220 218 219 0 0
-0.1011 0.2613 -12.6370 0.789 -0.006 0.615 135 53 32 0 0
0.1075 0.1728 -12.7034 0.583 -0.330 0.743 166 106 92 0 0
0.2791 0.1031 -12.7272 0.367 -0.349 0.862 145 65 37 0 0
0.2960 0.0943 -12.7486 0.362 -0.249 0.898 152 76 53 0 0
0.3230 0.0825 -12.7602 0.423 -0.201 0.883 158 89 70 0 0
2.3614 -0.8173 -13.7522 0.463 -0.292 0.837 179 109 81 0 0
2.9087 -1.0328 -13.7617 0.598 0.045 0.800 144 56 26 0 0
3.1627 -1.1490 -13.9254 0.789 0.273 0.551 153 66 37 0 0
3.8528 -1.4822 -14.5410 0.923 0.382 0.035 53 10 8 0 0
3.8608 -1.4886 -14.5732 0.859 0.480 0.181 52 10 6 0 0
3.8688 -1.4950 -14.6055 0.728 0.588 0.353 51 11 7 0 0
3.8828 -1.5029 -14.6289 0.823 0.523 0.220 50 11 8 0 0
3.8871 -1.5084 -14.6668 0.935 0.353 0.012 51 10 7 0 0
3.9351 -1.5657 -15.0445 0.938 -0.342 0.054 71 23 12 0 0
3.9359 -1.5706 -15.0890 0.938 -0.342 0.054 81 35 22 0 0
3.9367 -1.5754 -15.1337 0.938 -0.342 0.054 98 53 37 0 0
3.9328 -1.5792 -15.1857 0.893 -0.449 0.002 101 57 40 0 0
3.9263 -1.6256 -15.6660 0.889 -0.455 0.049 13 3 5 0 0
3.9508 -1.6557 -15.8678 0.410 -0.248 0.878 6 2 3 0 0
3.9495 -1.6704 -16.0165 0.538 -0.544 0.643 12 9 11 0 0
-3.6893 1.6576 -12.3898 0.431 -0.566 0.703 108 50 38 0 0
-1.3594 0.7349 -12.5091 0.622 0.069 0.780 124 44 22 0 0
-1.3361 0.7240 -12.5267 0.622 0.069 0.780 123 42 21 0 0
-0.6444 0.4504 -12.5593 0.667 -0.100 0.738 130 48 24 0 0
-0.6243 0.4405 -12.5787 0.527 0.060 0.848 129 47 23 0 0
-0.3098 0.3162 -12.5930 0.381 0.081 0.921 129 47 23 0 0
1.4596 -0.4853 -13.6617 0.306 -0.304 0.902 138 81 49 0 0
1.6998 -0.5800 -13.6704 0.631 -0.103 0.769 131 52 25 0 0
2.2058 -0.7831 -13.7227 0.207 -0.021 0.978 171 94 57 0 0
2.3481 -0.8419 -13.7534 0.463 -0.292 0.837 157 86 67 0 0
3.0872 -1.1400 -13.8438 0.602 0.442 0.665 156 69 40 0 0
3.1088 -1.1498 -13.8568 0.602 0.442 0.665 158 71 41 0 0
3.1622 -1.1762 -13.9105 0.760 0.295 0.579 163 76 48 0 0
3.8656 -1.4988 -14.3745 0.842 0.514 0.163 55 10 4 0 0
3.8799 -1.5067 -14.3970 0.901 0.409 0.145 53 10 4 0 0
3.8872 -1.5129 -14.4298 0.907 0.402 0.125 52 10 5 0 0
3.8915 -1.5184 -14.4671 0.954 0.296 0.042 52 10 6 0 0
3.8934 -1.5234 -14.5080 0.943 0.332 0.001 51 11 6 0 0
3.9267 -1.5911 -15.0393 0.915 -0.399 0.063 96 54 44 0 0
3.9273 -1.5960 -15.0842 0.893 -0.450 0.027 90 50 42 0 0
3.9280 -1.6008 -15.1289 0.927 -0.371 0.061 78 40 30 0 0
4.6662 -2.0500 -16.6893 0.729 -0.411 0.547 164 164 163 0 0
7.8500 -3.2949 -16.6977 0.585 -0.695 0.419 219 217 218 0 0
-1.4017 0.7242 -12.4585 0.524 0.094 0.847 124 44 22 0 0
-0.6219 0.4094 -12.5644 0.507 -0.226 0.832 129 47 23 0 0
1.3727 -0.4780 -13.6244 0.297 -0.335 0.894 153 100 82 0 0
1.4210 -0.4996 -13.6506 0.416 -0.242 0.876 127 69 48 0 0
1.4473 -0.5110 -13.6612 0.347 -0.026 0.937 123 57 34 0 0
2.3330 -0.8660 -13.7570 0.314 -0.317 0.895 141 65 49 0 0
3.0262 -1.1432 -13.8256 0.477 0.290 0.830 143 62 37 0 0
3.0744 -1.1640 -13.8451 0.370 0.428 0.825 150 64 37 0 0
3.0950 -1.1735 -13.8594 0.233 0.400 0.886 152 64 37 0 0
3.1228 -1.1848 -13.8642 0.340 0.427 0.838 159 69 41 0 0
3.8733 -1.5229 -14.3034 0.853 0.360 0.377 59 11 2 0 0
3.8840 -1.5300 -14.3308 0.879 0.425 0.214 53 10 3 0 0
3.9132 -1.6059 -14.9510 0.880 -0.457 0.126 88 50 42 0 0
3.9162 -1.6113 -14.9918 0.880 -0.457 0.126 85 44 37 0 0
3.9187 -1.6166 -15.0336 0.882 -0.470 0.028 78 38 31 0 0
3.9201 -1.6217 -15.0771 0.928 -0.372 0.023 58 20 15 0 0
4.5491 -1.9792 -16.1577 0.649 0.170 0.742 32 33 33 0 0
4.5580 -1.9863 -16.1925 0.892 -0.025 0.451 55 56 54 0 0
4.9349 -2.1912 -16.7506 -0.246 0.009 0.969 205 205 205 0 0
7.8348 -3.3169 -16.7112 0.602 -0.707 0.372 219 217 218 0 0
-0.5175 0.3325 -12.6078 0.456 -0.148 0.878 127 45 21 0 0
0.2100 0.0383 -12.7183 0.627 -0.111 0.771 147 67 41 0 0
1.3656 -0.5052 -13.6181 0.803 0.196 0.563 155 105 87 0 0
1.3790 -0.5130 -13.6433 0.604 0.089 0.792 107 67 49 0 0
1.8086 -0.6877 -13.7175 0.351 0.056 0.935 141 58 32 0 0
2.4122 -0.9274 -13.7674 0.430 -0.081 0.899 175 105 75 0 0
3.4435 -1.3614 -14.0846 -0.401 -0.790 0.464 154 72 40 0 0
3.6524 -1.4298 -13.9638 0.689 -0.056 0.722 153 98 59 0 0
3.8243 -1.5199 -14.1859 0.739 0.337 0.584 117 49 28 0 0
3.8481 -1.5301 -14.1943 0.862 -0.004 0.506 92 27 13 0 0
3.8617 -1.5378 -14.2175 0.862 -0.004 0.506 70 14 4 0 0
3.9697 -1.7238 -15.5875 0.695 -0.193 0.693 8 2 4 0 0
3.9806 -1.7312 -15.6177 0.822 -0.027 0.569 7 3 4 0 0
4.0403 -1.7494 -15.5699 0.749 0.565 0.346 8 3 5 0 0
4.0046 -1.7466 -15.6748 0.974 0.074 0.216 8 4 5 0 0
4.0025 -1.7512 -15.7263 0.972 -0.052 0.231 7 3 4 0 0
4.4828 -1.9772 -16.1018 0.575 -0.264 0.774 55 53 58 0 0
4.5393 -2.0047 -16.1541 0.328 -0.347 0.878 32 34 33 0 0
4.5403 -2.0102 -16.2027 0.625 -0.687 0.371 62 62 60 0 0
-1.7344 0.7888 -12.4515 0.127 -0.495 0.860 121 43 26 0 0
-0.9697 0.4863 -12.5116 0.546 -0.329 0.770 127 45 24 0 0
-0.9580 0.4789 -12.5386 0.516 -0.305 0.800 128 46 25 0 0
-0.9284 0.4662 -12.5501 0.586 -0.078 0.807 127 45 24 0 0
0.1969 0.0125 -12.7183 0.549 -0.336 0.765 145 66 40 0 0
0.6627 -0.2665 -13.6462 0.477 -0.204 0.855 152 100 91 0 0
1.3649 -0.5340 -13.6047 0.827 0.248 0.504 154 109 90 0 0
1.9674 -0.7752 -13.6789 0.349 -0.092 0.933 143 60 28 0 0
2.3471 -0.9299 -13.7508 0.539 -0.082 0.838 149 72 35 0 0
2.4114 -0.9551 -13.7535 0.388 0.220 0.895 175 105 74 0 0
3.4286 -1.3892 -14.1311 -0.381 0.558 0.737 153 66 34 0 0
3.8929 -1.6701 -15.0826 0.952 -0.303 0.030 45 21 17 0 0
4.0257 -1.7688 -15.5268 0.552 0.164 0.818 8 4 5 0 0
4.0516 -1.7794 -15.5329 0.559 0.236 0.795 8 4 5 0 0
4.0861 -1.7920 -15.5250 0.630 -0.106 0.769 8 4 5 0 0
4.0808 -1.7959 -15.5811 0.915 -0.161 0.370 8 4 5 0 0
4.0479 -1.8300 -16.0218 0.753 0.056 0.655 12 12 14 0 0
-1.7692 0.7677 -12.4685 0.194 -0.507 0.839 121 43 25 0 0
-0.7024 0.3496 -12.5253 0.863 0.069 0.500 121 41 16 0 0
-0.0889 0.0965 -12.6760 0.669 -0.443 0.596 143 64 43 0 0
0.0935 0.0204 -12.7293 0.898 0.087 0.431 152 81 62 0 0
0.1597 -0.0024 -12.7037 0.677 -0.435 0.594 151 75 52 0 0
0.1785 -0.0118 -12.7234 0.644 -0.400 0.652 145 66 41 0 0
0.3379 -0.0771 -12.7578 0.674 -0.154 0.722 136 61 37 0 0
0.3453 -0.0832 -12.7884 0.607 -0.222 0.763 120 39 18 0 0
0.6520 -0.2934 -13.6436 0.581 -0.143 0.801 149 100 91 0 0
1.8407 -0.7576 -13.6915 0.354 0.171 0.919 146 64 32 0 0
2.3353 -0.9549 -13.7503 0.392 -0.113 0.913 151 78 40 0 0
2.5514 -1.0403 -13.7694 0.389 -0.185 0.903 131 56 31 0 0
3.0696 -1.2443 -13.8053 0.445 0.096 0.890 127 50 33 0 0
3.0929 -1.2545 -13.8159 0.445 0.096 0.890 129 51 32 0 0
3.1219 -1.2660 -13.8190 0.794 0.141 0.592 133 54 35 0 0
3.3148 -1.3845 -14.2288 -0.459 -0.762 0.457 167 88 57 0 0
3.9121 -1.6255 -14.3259 0.985 -0.065 0.158 114 62 42 0 0
3.9078 -1.6338 -14.4188 0.959 -0.284 0.027 94 56 44 0 0
3.9076 -1.6385 -14.4626 0.959 -0.284 0.027 89 57 45 0 0
3.8595 -1.6705 -14.9338 0.672 -0.723 0.158 63 31 20 0 0
3.8743 -1.6835 -15.0019 0.735 -0.668 0.114 40 23 19 0 0
4.0469 -1.7908 -15.3800 0.054 0.131 0.990 9 5 7 0 0
4.0832 -1.8036 -15.3694 0.007 -0.034 0.999 9 5 7 0 0
4.0416 -1.8566 -16.0123 0.753 0.056 0.655 13 13 15 0 0
4.3851 -2.0619 -16.6895 0.892 -0.311 -0.329 84 80 76 0 0
4.6409 -2.1396 -16.4924 -0.334 -0.262 0.905 142 142 138 0 0
-1.7785 0.7388 -12.4644 0.333 -0.226 0.915 119 42 22 0 0
-1.0589 0.4590 -12.4906 0.379 -0.200 0.904 126 44 23 0 0
-1.0373 0.4486 -12.5091 0.496 -0.256 0.830 126 44 23 0 0
0.6322 -0.3179 -13.6507 0.552 -0.351 0.756 144 94 87 0 0
2.3246 -0.9801 -13.7485 0.490 0.002 0.872 133 61 30 0 0
2.9079 -1.2052 -13.7533 0.373 0.232 0.898 157 87 49 0 0
2.9321 -1.2156 -13.7631 0.779 -0.312 0.543 147 72 52 0 0
3.0694 -1.2713 -13.7902 0.235 -0.222 0.946 132 56 38 0 0
3.9017 -1.6450 -14.2813 0.969 -0.151 0.195 112 59 35 0 0
7.7867 -3.3997 -16.6697 0.914 -0.197 0.355 220 218 219 0 0
-1.9197 0.7611 -12.4565 0.256 -0.249 0.934 119 44 25 0 0
-1.0716 0.4319 -12.4897 0.435 -0.279 0.856 127 45 24 0 0
-1.0470 0.4207 -12.5056 0.458 -0.316 0.831 125 43 22 0 0
-0.9904 0.3962 -12.5309 0.580 0.029 0.814 126 44 23 0 0
-0.1120 0.0435 -12.6728 0.636 -0.323 0.700 141 61 42 0 0
0.1826 -0.0760 -12.7319 0.320 -0.251 0.914 145 69 43 0 0
0.4816 -0.2853 -13.5949 0.617 -0.743 0.262 5 4 6 0 0
0.5113 -0.3065 -13.6840 0.499 -0.188 0.846 150 76 55 0 0
0.6392 -0.3496 -13.6294 0.436 -0.418 0.797 153 103 93 0 0
0.8389 -0.4425 -13.7779 0.600 -0.357 0.716 130 66 42 0 0
0.8790 -0.4576 -13.7748 0.543 -0.592 0.596 166 100 78 0 0
2.9311 -1.2469 -13.7901 0.410 -0.387 0.826 147 64 24 0 0
4.4182 -2.1300 -16.6400 -0.299 -0.288 0.910 95 91 87 0 0
4.4583 -2.1433 -16.6207 -0.538 0.045 0.842 104 103 98 0 0
4.7886 -2.2788 -16.7010 0.776 -0.010 0.630 203 203 203 0 0
-1.0866 0.4055 -12.4907 0.435 -0.279 0.856 125 43 21 0 0
-1.0625 0.3945 -12.5070 0.458 -0.316 0.831 126 44 23 0 0
-1.0030 0.3692 -12.5299 0.356 -0.365 0.860 128 46 25 0 0
-0.9488 0.3455 -12.5572 0.292 -0.218 0.931 125 43 22 0 0
0.1677 -0.1013 -12.7337 0.320 -0.251 0.914 138 63 36 0 0
0.4684 -0.3117 -13.5948 0.842 -0.536 -0.057 6 3 3 0 0
0.8296 -0.4697 -13.7738 0.791 -0.026 0.611 131 68 47 0 0
2.3370 -1.0434 -13.7443 0.255 0.074 0.964 126 46 24 0 0
2.8697 -1.2548 -13.8127 0.601 -0.114 0.791 132 56 32 0 0
3.0936 -1.3402 -13.8099 0.208 -0.205 0.956 154 84 49 0 0
3.1242 -1.3520 -13.8109 0.640 -0.560 0.526 153 84 58 0 0
3.8872 -1.8185 -15.3879 0.478 -0.094 0.873 27 26 31 0 0
3.9702 -1.8514 -15.3982 0.272 -0.266 0.925 63 63 66 0 0
3.9923 -1.8612 -15.4102 0.262 -0.368 0.892 71 71 74 0 0
4.0152 -1.8711 -15.4210 0.262 -0.368 0.892 70 70 73 0 0
4.1647 -1.9384 -15.5122 0.454 -0.538 0.711 15 15 18 0 0
4.3727 -2.0655 -15.9408 0.453 -0.239 0.859 29 29 36 0 0
4.4571 -2.1147 -16.0937 0.769 -0.437 0.467 24 23 28 0 0
4.4695 -2.1226 -16.1222 0.772 -0.226 0.595 38 38 41 0 0
4.4811 -2.1303 -16.1522 0.388 0.052 0.920 57 59 58 0 0
4.5295 -2.1451 -16.1183 0.913 -0.380 0.149 71 69 70 0 0
4.4048 -2.1554 -16.6423 -0.253 -0.342 0.905 97 92 88 0 0
4.7649 -2.3021 -16.7227 0.719 -0.252 0.648 202 202 202 0 0
-0.8570 0.2680 -12.6513 0.614 -0.244 0.751 127 45 24 0 0
0.1536 -0.1269 -12.7345 0.334 -0.054 0.941 147 75 47 0 0
0.4011 -0.3238 -13.6511 -0.169 0.159 0.973 10 4 6 0 0
0.6894 -0.4357 -13.6685 0.524 0.138 0.841 157 110 80 0 0
0.8861 -0.5231 -13.7792 0.714 0.115 0.691 154 108 77 0 0
2.1217 -0.9863 -13.7058 0.434 0.129 0.892 143 69 41 0 0
2.1433 -0.9962 -13.7203 0.722 -0.026 0.692 142 67 39 0 0
2.6680 -1.2017 -13.7674 0.524 0.243 0.816 169 104 48 0 0
3.1004 -1.3733 -13.8267 0.690 -0.439 0.576 176 109 83 0 0
3.1976 -1.4099 -13.8221 -0.012 0.063 0.998 152 73 39 0 0
3.2412 -1.4247 -13.8056 0.140 -0.470 0.872 146 79 58 0 0
3.2662 -1.4443 -13.8959 0.922 -0.388 -0.021 122 53 33 0 0
3.1820 -1.4387 -14.1338 0.989 0.091 -0.113 184 147 138 0 0
3.7746 -1.7912 -15.2648 0.719 -0.562 0.409 6 6 8 0 0
3.9453 -1.8683 -15.3720 0.501 0.176 0.847 35 35 40 0 0
3.9849 -1.8869 -15.4032 0.603 -0.030 0.797 55 54 59 0 0
4.0049 -1.8963 -15.4186 0.603 -0.030 0.797 72 71 75 0 0
4.1451 -1.9616 -15.5249 0.331 -0.462 0.823 19 17 23 0 0
4.4595 -2.1480 -16.1190 0.522 -0.754 0.399 43 43 44 0 0
4.4402 -2.1726 -16.4048 0.830 -0.531 -0.169 71 65 60 0 0
4.3599 -2.1692 -16.6484 0.659 -0.752 0.033 87 82 78 0 0
4.3798 -2.1786 -16.6651 -0.073 -0.354 0.932 99 94 90 0 0
-2.2489 0.7868 -12.4634 0.613 -0.317 0.724 115 42 25 0 0
-2.2252 0.7757 -12.4818 0.513 -0.029 0.858 113 40 23 0 0
-0.2323 -0.0040 -12.6727 0.298 -0.331 0.896 132 52 30 0 0
0.3937 -0.3161 -13.3284 -0.073 -0.711 0.699 10 4 5 0 0
0.4300 -0.3613 -13.6073 0.495 0.383 0.780 12 3 5 0 0
0.6839 -0.4639 -13.6605 0.524 0.138 0.841 162 113 82 0 0
0.8179 -0.5259 -13.7582 0.660 0.258 0.706 139 77 55 0 0
2.4135 -1.1312 -13.7429 0.368 -0.031 0.929 144 61 35 0 0
2.4385 -1.1418 -13.7528 0.264 -0.037 0.964 130 49 27 0 0
2.8644 -1.3125 -13.8299 0.734 -0.046 0.678 164 82 29 0 0
3.0995 -1.4046 -13.8536 0.505 -0.458 0.731 140 55 25 0 0
3.1156 -1.4130 -13.8736 0.417 -0.424 0.804 169 83 39 0 0
3.1519 -1.4261 -13.8669 0.087 -0.148 0.985 169 94 58 0 0
3.1917 -1.4680 -14.1048 0.965 0.210 -0.155 160 117 109 0 0
3.1829 -1.4708 -14.1587 0.986 0.137 -0.099 202 171 164 0 0
3.8329 -1.7116 -14.1012 0.550 -0.176 0.816 79 12 1 0 0
3.8330 -1.7405 -14.3573 0.713 -0.698 -0.062 49 35 34 0 0
3.8203 -1.7426 -14.4189 0.609 -0.789 -0.082 47 39 39 0 0
3.9566 -1.9032 -15.3823 0.603 -0.030 0.797 40 39 44 0 0
3.9765 -1.9125 -15.3978 0.603 -0.030 0.797 51 50 55 0 0
4.4136 -2.1953 -16.4303 0.761 -0.612 -0.216 73 66 60 0 0
4.3429 -2.1940 -16.6571 0.772 -0.633 -0.056 89 84 80 0 0
4.3934 -2.2148 -16.6715 -0.299 0.115 0.947 110 108 104 0 0
-2.2659 0.7597 -12.4654 0.581 0.064 0.811 114 41 24 0 0
-0.1968 -0.0434 -12.6276 0.729 -0.405 0.552 133 52 32 0 0
0.0722 -0.1551 -12.7121 0.384 -0.471 0.794 146 67 46 0 0
0.0069 -0.1460 -12.8495 0.531 -0.168 0.831 145 73 53 0 0
0.0598 -0.1689 -12.8747 0.343 -0.150 0.927 147 87 68 0 0
0.3529 -0.3305 -13.3173 0.356 -0.671 0.651 11 6 7 0 0
0.4474 -0.4003 -13.6153 0.403 -0.059 0.913 110 55 30 0 0
0.6346 -0.4763 -13.6588 0.386 -0.178 0.905 155 92 65 0 0
0.6664 -0.4890 -13.6652 0.319 -0.079 0.944 174 122 89 0 0
0.6835 -0.4980 -13.6871 0.465 0.165 0.870 124 65 50 0 0
3.8452 -1.7452 -14.1097 0.825 0.323 0.463 74 12 3 0 0
3.6758 -1.7737 -14.9227 0.506 -0.758 0.412 33 33 33 0 0
3.7275 -1.8102 -15.0713 0.819 -0.534 0.209 8 8 10 0 0
3.9620 -1.9315 -15.3554 0.925 0.074 0.373 39 39 43 0 0
3.9634 -1.9371 -15.3998 0.935 -0.068 0.347 47 47 50 0 0
4.0420 -1.9795 -15.5103 0.589 -0.183 0.787 12 10 15 0 0
4.3423 -2.2217 -16.6368 0.721 -0.485 0.495 90 85 80 0 0
-2.3256 0.7535 -12.4267 0.526 -0.164 0.834 114 41 24 0 0
-2.2955 0.7406 -12.4401 0.643 -0.173 0.746 113 40 23 0 0
-2.2739 0.7301 -12.4601 0.248 -0.076 0.966 112 39 22 0 0
-0.7785 0.1506 -12.5827 0.686 -0.123 0.717 126 44 23 0 0
-0.2200 -0.0668 -12.6367 0.498 -0.634 0.592 136 55 35 0 0
-0.0143 -0.1699 -12.8571 0.268 -0.312 0.911 143 72 49 0 0
0.0178 -0.1829 -12.8643 0.179 -0.389 0.904 154 90 72 0 0
0.0341 -0.1916 -12.8867 0.464 -0.577 0.673 160 98 80 0 0
0.6127 -0.5003 -13.6680 0.385 0.297 0.874 160 98 75 0 0
0.6476 -0.5138 -13.6712 0.306 0.069 0.950 174 122 88 0 0
1.2218 -0.7332 -13.6905 0.375 0.008 0.927 131 79 52 0 0
2.1317 -1.0772 -13.6903 0.143 -0.254 0.957 102 38 24 0 0
3.8632 -1.7801 -14.1099 0.751 0.439 0.493 73 22 13 0 0
3.6902 -1.7986 -14.8391 0.738 -0.659 0.148 19 19 20 0 0
3.7241 -1.8577 -15.2412 0.716 -0.500 0.486 4 4 6 0 0
3.7528 -1.8741 -15.2897 0.628 -0.566 0.534 50 50 52 0 0
3.8735 -1.9303 -15.3818 0.426 0.054 0.903 27 28 32 0 0
4.0273 -2.0093 -15.5621 0.424 0.184 0.887 35 33 37 0 0
4.3370 -2.2486 -16.6247 0.767 -0.492 0.411 91 86 81 0 0
4.3516 -2.2571 -16.6508 0.323 -0.124 0.938 104 99 96 0 0
4.7915 -2.4220 -16.6385 0.516 0.439 0.736 202 202 203 0 0
-2.3173 0.7192 -12.4085 0.837 -0.419 0.351 114 41 24 0 0
-2.2896 0.7027 -12.4611 0.206 0.322 0.924 113 40 23 0 0
-1.2139 0.2923 -12.5035 0.386 -0.413 0.825 124 43 22 0 0
-0.8138 0.1343 -12.5647 0.462 0.051 0.885 125 44 23 0 0
-0.2581 -0.0819 -12.6223 0.516 -0.290 0.806 130 50 27 0 0
-0.2184 -0.1012 -12.6603 0.658 -0.435 0.615 136 59 41 0 0
0.0054 -0.2092 -12.8636 0.269 -0.146 0.952 155 94 76 0 0
0.6412 -0.5418 -13.6640 0.300 0.181 0.937 173 117 86 0 0
1.2126 -0.7598 -13.6865 0.375 0.008 0.927 130 76 52 0 0
1.3250 -0.8017 -13.6818 0.230 0.084 0.970 154 63 23 0 0
1.8323 -0.9957 -13.7063 0.083 -0.106 0.991 120 40 17 0 0
2.3853 -1.2026 -13.6926 0.108 -0.030 0.994 129 56 31 0 0
2.9338 -1.4192 -13.7770 0.387 -0.074 0.919 129 45 22 0 0
2.9573 -1.4292 -13.7876 0.387 -0.074 0.919 143 59 26 0 0
3.0092 -1.4505 -13.8022 0.228 -0.026 0.973 178 109 73 0 0
3.2844 -1.5743 -13.9746 0.816 0.576 0.047 136 65 53 0 0
3.8325 -1.7900 -14.0531 0.779 -0.205 0.593 88 16 4 0 0
3.8451 -1.7975 -14.0772 0.660 0.327 0.676 77 15 6 0 0
3.8645 -1.8065 -14.0918 0.660 0.327 0.676 79 29 21 0 0
4.3232 -2.2620 -16.5251 0.701 -0.681 -0.210 75 68 59 0 0
4.3152 -2.2666 -16.5902 0.866 -0.489 -0.107 81 77 70 0 0
4.3452 -2.2838 -16.6407 0.914 -0.269 0.302 104 100 97 0 0
4.3952 -2.3164 -16.7598 0.777 0.094 0.623 149 148 146 0 0
4.6036 -2.3940 -16.7510 0.742 -0.169 0.648 194 194 196 0 0
-2.3331 0.6962 -12.3724 0.828 0.323 0.458 115 44 26 0 0
-2.2847 0.6694 -12.4456 0.570 0.282 0.772 116 43 26 0 0
-2.2543 0.6564 -12.4587 0.530 0.279 0.801 117 44 27 0 0
-1.7892 0.4822 -12.4541 0.557 -0.216 0.802 117 42 23 0 0
-0.2613 -0.1150 -12.6503 0.471 -0.182 0.863 127 49 27 0 0
-0.1240 -0.1736 -12.7097 0.267 -0.097 0.959 170 113 100 0 0
-0.1078 -0.1823 -12.7320 0.191 -0.324 0.926 153 95 77 0 0
-0.0075 -0.2354 -12.8632 0.209 -0.064 0.976 159 100 84 0 0
1.1507 -0.7594 -13.6205 0.845 -0.451 0.288 151 93 68 0 0
1.8119 -1.0190 -13.7155 0.089 -0.546 0.833 120 54 28 0 0
3.3104 -1.6066 -13.9241 0.832 0.288 0.474 130 62 51 0 0
3.5431 -1.7204 -14.1491 0.954 -0.298 -0.021 131 88 82 0 0
3.8581 -1.8313 -14.0846 0.549 0.371 0.748 81 37 29 0 0
3.8234 -1.8290 -14.1764 0.854 -0.441 -0.277 79 53 45 0 0
3.6380 -1.8263 -14.7480 0.761 -0.614 0.209 38 38 40 0 0
