ply
format ascii 1.0
element vertex 839
property float x
property float y
property float z
property float nx
property float ny
property float nz
property uchar diffuse_red
property uchar diffuse_green
property uchar diffuse_blue
property uchar class
property uchar detection
end_header
-3.8800 0.4496 -15.0312 -0.501 -0.046 0.864 82 23 15 0 0
-3.8941 0.4296 -15.0448 -0.556 -0.267 0.787 83 26 16 0 0
-3.9027 0.4225 -15.0725 -0.426 -0.431 0.795 87 31 18 0 0
-3.9142 0.4089 -15.0931 -0.454 -0.537 0.711 91 38 24 0 0
-3.9263 0.3936 -15.1118 -0.467 -0.651 0.598 89 40 29 0 0
-3.9577 0.3599 -15.1815 -0.280 -0.884 0.374 84 42 34 0 0
-3.9669 0.3516 -15.2081 -0.280 -0.884 0.374 78 38 31 0 0
-4.0135 0.3235 -15.3931 -0.264 -0.843 0.468 54 36 34 0 0
-4.0300 0.4284 -15.8841 -0.921 -0.368 0.129 37 31 32 0 0
-2.7992 1.5837 -12.3408 -0.140 -0.745 0.652 126 50 34 0 0
-2.8103 1.5700 -12.3588 -0.140 -0.745 0.652 130 54 38 0 0
-3.1480 1.0126 -12.3934 -0.116 -0.268 0.957 124 46 26 0 0
-3.1942 0.9527 -12.4587 -0.585 0.066 0.808 124 45 28 0 0
-3.3075 0.7666 -12.4736 -0.293 -0.256 0.921 120 48 36 0 0
-3.3384 0.7403 -12.5673 -0.039 0.177 0.984 153 82 65 0 0
-3.3811 0.6670 -12.5616 -0.508 -0.030 0.861 183 108 95 0 0
-3.4362 0.5767 -12.5698 -0.201 -0.233 0.952 83 23 3 0 0
-3.4557 0.6185 -12.8432 -0.215 -0.977 0.012 55 39 36 0 0
-3.4526 0.8271 -13.5899 0.179 -0.847 0.500 16 6 4 0 0
-3.5434 0.6913 -13.6511 -0.946 -0.234 0.224 122 67 35 0 0
-3.8739 0.5047 -15.0025 -0.736 -0.430 0.522 79 22 13 0 0
-3.8845 0.4931 -15.0252 -0.416 -0.201 0.887 81 24 13 0 0
-3.8999 0.4699 -15.0353 -0.348 -0.165 0.923 83 26 15 0 0
-3.9154 0.4466 -15.0451 -0.427 -0.295 0.855 86 30 17 0 0
-3.9282 0.4297 -15.0620 -0.218 -0.357 0.908 91 37 24 0 0
-3.9426 0.4089 -15.0747 -0.495 -0.409 0.767 91 40 28 0 0
-3.9815 0.3711 -15.1754 -0.468 -0.842 0.267 81 41 33 0 0
-3.9904 0.3637 -15.2029 -0.558 -0.761 0.332 70 32 26 0 0
-3.9989 0.4141 -15.4402 -0.755 -0.510 0.413 55 34 32 0 0
-4.0068 0.4092 -15.4712 -0.516 -0.509 0.689 50 35 35 0 0
-4.0199 0.3918 -15.4881 -0.600 -0.702 0.383 44 32 32 0 0
-3.1263 1.0979 -12.3939 0.049 -0.207 0.977 123 45 25 0 0
-3.1402 1.0883 -12.4438 0.102 -0.618 0.779 124 46 26 0 0
-3.2212 0.9525 -12.4453 -0.880 -0.312 0.359 123 44 27 0 0
-3.2548 0.8892 -12.4206 -0.315 -0.306 0.898 123 44 27 0 0
-3.3249 0.7868 -12.4778 -0.540 -0.487 0.686 122 50 38 0 0
-3.3776 0.7230 -12.5680 -0.279 0.016 0.960 146 71 51 0 0
-3.4572 0.5889 -12.5670 0.025 -0.138 0.990 80 22 2 0 0
-3.4802 0.5483 -12.5603 -0.376 -0.522 0.766 51 10 2 0 0
-3.4529 0.8777 -13.5907 -0.213 0.363 0.907 18 8 7 0 0
-3.4712 0.8478 -13.5943 -0.274 -0.020 0.962 16 6 4 0 0
-3.4702 0.8618 -13.6392 -0.560 -0.381 0.736 17 6 4 0 0
-3.6260 0.6612 -13.8630 -0.411 -0.756 0.510 66 14 7 0 0
-3.5977 0.8645 -14.4292 -0.794 -0.607 -0.034 113 50 30 0 0
-3.6736 0.7649 -14.5315 -0.243 -0.480 0.843 61 14 6 0 0
-3.8942 0.5242 -15.0055 -0.475 -0.765 0.434 80 23 12 0 0
-3.9145 0.4894 -15.0030 -0.398 -0.540 0.741 81 25 13 0 0
-3.9268 0.4737 -15.0211 -0.398 -0.540 0.741 85 29 16 0 0
-3.9408 0.4539 -15.0350 -0.291 -0.384 0.876 90 36 23 0 0
-3.9507 0.4441 -15.0595 -0.445 -0.439 0.780 94 42 29 0 0
-3.9631 0.4281 -15.0774 -0.543 -0.459 0.703 91 41 30 0 0
-3.9754 0.4125 -15.0958 -0.780 -0.384 0.494 89 41 31 0 0
-4.0122 0.3799 -15.2023 -0.618 -0.716 0.325 65 29 23 0 0
-4.0340 0.4129 -15.4564 -0.555 -0.693 0.459 44 32 32 0 0
-4.0446 0.4016 -15.4801 -0.329 -0.778 0.535 32 22 23 0 0
-4.0502 0.4026 -15.5178 -0.639 -0.683 0.353 22 12 13 0 0
-4.2044 0.3885 -16.4100 -0.412 -0.911 0.016 57 40 39 0 0
-4.2867 0.3606 -16.8121 -0.406 -0.882 -0.241 157 156 159 0 0
-2.8451 1.5933 -12.2942 0.067 -0.913 0.403 124 48 32 0 0
-3.1368 1.1341 -12.4111 -0.185 -0.371 0.910 125 46 27 0 0
-3.3639 0.7699 -12.4789 -0.664 -0.671 0.328 132 65 53 0 0
-3.3822 0.7400 -12.4820 0.091 -0.622 0.778 142 78 67 0 0
-3.4409 0.9563 -13.6178 -0.903 -0.346 0.256 13 3 3 0 0
-3.4667 0.9092 -13.6053 -0.534 0.373 0.759 17 7 6 0 0
-3.4570 0.9435 -13.6694 -0.583 -0.017 0.812 17 7 5 0 0
-3.6896 0.7942 -14.5444 -0.414 -0.260 0.872 60 13 6 0 0
-3.7119 0.9181 -15.1264 -0.876 -0.442 0.194 77 22 12 0 0
-3.7162 0.9219 -15.1660 -0.974 -0.167 0.152 79 25 13 0 0
-3.7209 0.9245 -15.2046 -0.964 -0.140 0.226 80 26 14 0 0
-3.9726 0.4597 -15.0584 -0.328 -0.753 0.570 93 41 30 0 0
-3.9833 0.4480 -15.0810 -0.416 -0.703 0.577 90 41 31 0 0
-3.9942 0.4356 -15.1029 -0.500 -0.698 0.514 88 41 31 0 0
-4.0156 0.4121 -15.1481 -0.655 -0.672 0.345 81 38 31 0 0
-4.0268 0.3992 -15.1695 -0.684 -0.669 0.292 69 30 24 0 0
-4.0336 0.3968 -15.2025 -0.702 -0.620 0.352 69 33 28 0 0
-4.0557 0.4301 -15.4567 -0.555 -0.693 0.459 33 23 23 0 0
-4.0655 0.4208 -15.4826 -0.555 -0.693 0.459 21 12 13 0 0
-4.1012 0.3476 -15.4361 -0.760 -0.617 0.203 19 9 10 0 0
-4.1128 0.3487 -15.5104 -0.783 -0.623 0.000 19 9 10 0 0
-4.2290 0.4008 -16.4038 -0.455 -0.890 0.004 50 37 37 0 0
-3.1629 1.1465 -12.4373 -0.727 -0.371 0.577 123 45 25 0 0
-3.1874 1.1030 -12.4299 0.088 -0.407 0.909 123 45 25 0 0
-3.3992 0.7611 -12.4869 -0.132 -0.258 0.957 143 78 68 0 0
-3.3994 0.7714 -12.5249 -0.557 -0.756 0.343 150 86 74 0 0
-3.4088 0.7613 -12.5452 -0.320 -0.797 0.512 150 79 62 0 0
-3.4179 0.7516 -12.5659 -0.320 -0.797 0.512 150 75 52 0 0
-3.5335 0.6124 -12.7662 -0.494 -0.726 0.479 81 46 39 0 0
-3.4559 0.9855 -13.6299 -0.894 -0.314 0.319 11 3 3 0 0
-3.4875 0.9495 -13.6916 -0.588 0.052 0.807 18 7 5 0 0
-3.7101 0.8127 -14.5464 -0.153 -0.191 0.970 59 12 5 0 0
-3.7711 0.9167 -15.2856 0.743 0.094 0.662 79 24 11 0 0
-3.9949 0.4744 -15.0563 -0.290 -0.844 0.452 92 41 30 0 0
-4.0048 0.4646 -15.0809 -0.290 -0.844 0.452 89 41 32 0 0
-4.0147 0.4548 -15.1056 -0.290 -0.844 0.452 88 41 32 0 0
-4.0322 0.4264 -15.1099 -0.472 -0.832 0.292 85 41 32 0 0
-4.0401 0.4214 -15.1400 -0.567 -0.774 0.282 74 32 25 0 0
-4.0487 0.4148 -15.1683 -0.609 -0.744 0.274 66 29 22 0 0
-4.1004 0.4202 -15.4994 -0.975 -0.195 0.103 19 8 9 0 0
-4.2517 0.4179 -16.4034 -0.557 -0.826 -0.085 46 35 35 0 0
-3.1932 1.1498 -12.4560 -0.589 -0.124 0.798 124 46 26 0 0
-3.2228 1.0949 -12.4391 -0.530 0.122 0.839 125 47 27 0 0
-3.4100 0.7963 -12.5040 -0.372 0.106 0.922 141 78 68 0 0
-3.4272 0.7686 -12.5092 -0.327 -0.060 0.943 156 92 80 0 0
-3.4292 0.7749 -12.5437 -0.084 -0.874 0.478 149 77 61 0 0
-3.4613 0.8592 -13.0337 -0.806 -0.356 -0.472 49 41 41 0 0
-3.4714 1.0139 -13.6413 -0.612 -0.698 0.372 11 4 3 0 0
-3.7417 0.8050 -14.5215 0.183 -0.340 0.923 57 11 4 0 0
-3.7657 0.8855 -14.9502 -0.364 -0.778 0.512 65 18 10 0 0
-3.9775 0.5572 -15.0575 -0.201 -0.374 0.905 91 39 26 0 0
-3.9922 0.5358 -15.0696 -0.201 -0.374 0.905 90 40 28 0 0
-4.0299 0.4723 -15.0711 -0.067 -0.776 0.627 89 42 33 0 0
-4.0928 0.4648 -15.4214 -0.975 -0.205 0.083 26 14 16 0 0
-4.0966 0.4705 -15.4642 -0.977 -0.089 0.193 18 8 9 0 0
-4.0752 0.6319 -15.9070 -0.947 -0.089 0.310 26 17 18 0 0
-4.2829 0.4297 -16.4357 -0.657 -0.745 0.115 53 38 39 0 0
-3.1141 1.3205 -12.4105 -0.046 -0.632 0.774 124 47 27 0 0
-3.1939 1.1974 -12.4536 -0.498 -0.360 0.789 123 45 25 0 0
-3.2194 1.1622 -12.4822 -0.059 -0.271 0.961 127 49 29 0 0
-3.3134 1.0067 -12.4966 -0.049 -0.107 0.993 121 42 25 0 0
-3.4412 0.7966 -12.5200 -0.169 -0.020 0.985 149 85 72 0 0
-3.4468 0.7950 -12.5477 0.008 -0.668 0.744 148 77 61 0 0
-3.4590 0.7785 -12.5625 0.008 -0.668 0.744 146 71 50 0 0
-3.4919 1.0306 -13.6418 -0.663 -0.689 0.293 11 4 3 0 0
-3.5353 0.9798 -13.7215 -0.561 -0.270 0.783 21 6 4 0 0
-3.7870 0.9034 -14.9513 -0.405 -0.898 0.169 66 17 8 0 0
-3.7687 1.0057 -15.2006 -0.377 -0.896 0.235 82 26 13 0 0
-4.0557 0.4785 -15.0596 -0.185 -0.819 0.544 88 42 32 0 0
-4.0766 0.5309 -15.3677 -0.925 -0.129 0.358 55 34 33 0 0
-4.0861 0.5224 -15.3944 -0.944 -0.186 0.271 45 29 30 0 0
-4.0911 0.5251 -15.4337 -0.939 -0.096 0.330 30 18 20 0 0
-4.1063 0.5025 -15.4448 -0.983 -0.144 0.117 20 8 10 0 0
-4.0797 0.7102 -16.0147 -0.673 -0.647 0.358 42 33 34 0 0
-4.0865 0.7090 -16.0513 -0.624 -0.759 0.187 37 27 28 0 0
-3.1372 1.3292 -12.4048 -0.046 -0.632 0.774 123 47 26 0 0
-3.1857 1.2539 -12.4295 0.157 -0.400 0.903 121 44 24 0 0
-3.3839 0.9304 -12.4765 -0.434 -0.095 0.896 116 39 23 0 0
-3.4024 0.8997 -12.4793 -0.311 -0.190 0.931 121 45 31 0 0
-3.6700 0.8307 -13.8203 -0.296 -0.494 0.818 94 49 38 0 0
-3.6921 0.8043 -13.8591 -0.205 -0.431 0.879 117 68 34 0 0
-3.7056 0.7853 -13.8730 -0.244 -0.773 0.586 87 32 7 0 0
-3.7941 0.6930 -14.0750 -0.071 -0.985 -0.158 85 30 16 0 0
-3.9164 0.7738 -15.0779 0.569 0.036 0.821 79 23 10 0 0
-3.9481 0.7105 -15.0455 0.672 -0.027 0.740 80 24 11 0 0
-3.9732 0.6634 -15.0302 0.676 -0.077 0.733 81 25 12 0 0
-4.0903 0.5678 -15.3899 -0.925 -0.129 0.358 51 31 30 0 0
-4.0998 0.5594 -15.4169 -0.944 -0.186 0.271 36 22 21 0 0
-4.1111 0.5465 -15.4388 -0.982 -0.053 0.179 22 10 12 0 0
-4.1162 0.5492 -15.4782 -0.983 -0.033 0.181 19 6 8 0 0
-4.0917 0.7378 -15.9886 -0.683 -0.024 0.730 38 30 30 0 0
-4.1010 0.7305 -16.0181 -0.673 -0.647 0.358 41 31 32 0 0
-4.1075 0.7303 -16.0558 -0.522 -0.819 0.239 33 23 24 0 0
-4.3356 0.4450 -16.4121 -0.808 -0.491 0.325 45 32 31 0 0
-4.2997 0.6624 -16.9549 -0.363 -0.899 -0.245 118 114 113 0 0
-4.2786 0.7361 -17.0863 -0.258 -0.889 -0.378 135 133 134 0 0
-4.5077 0.2560 -16.7720 -0.621 -0.783 -0.034 174 176 176 0 0
-2.9907 1.6280 -12.4027 -0.423 -0.391 0.818 122 47 28 0 0
-3.1765 1.3126 -12.4072 -0.217 -0.372 0.902 122 45 25 0 0
-3.1961 1.2799 -12.4091 -0.073 -0.314 0.947 120 43 23 0 0
-3.2117 1.2559 -12.4182 -0.073 -0.314 0.947 122 45 25 0 0
-3.2288 1.2287 -12.4246 -0.011 -0.402 0.915 124 47 27 0 0
-3.2444 1.2047 -12.4336 -0.065 -0.229 0.971 125 47 27 0 0
-3.2638 1.1832 -12.4737 0.149 -0.289 0.946 124 46 26 0 0
-3.3674 1.0054 -12.4691 -0.386 -0.177 0.906 120 41 24 0 0
-3.5727 1.0219 -13.7305 -0.436 -0.775 0.458 22 5 4 0 0
-3.7998 0.7056 -13.9735 0.105 -0.817 0.568 98 40 27 0 0
-3.8369 0.9362 -14.9853 -0.451 -0.870 -0.197 74 19 9 0 0
-3.8127 1.0399 -15.2006 -0.388 -0.921 -0.015 82 26 12 0 0
-3.9494 0.7627 -15.0481 0.544 0.123 0.830 80 23 11 0 0
-3.9811 0.6993 -15.0155 0.563 0.020 0.827 81 25 11 0 0
-4.0417 0.5789 -14.9565 -0.323 -0.909 0.265 88 33 18 0 0
-4.0832 0.5202 -14.9984 -0.448 -0.299 0.842 89 42 30 0 0
-4.0899 0.5185 -15.0316 0.000 -0.523 0.853 88 41 31 0 0
-4.1033 0.6069 -15.4146 -0.867 -0.033 0.498 45 28 25 0 0
-4.1167 0.5887 -15.4307 -0.975 -0.107 0.194 31 17 15 0 0
-4.1220 0.5910 -15.4695 -0.987 -0.077 0.144 23 12 12 0 0
-4.1275 0.5927 -15.5079 -0.992 -0.011 0.128 32 17 18 0 0
-4.1135 0.7406 -15.9343 -0.895 -0.431 0.119 32 22 22 0 0
-4.1155 0.7517 -15.9847 -0.822 -0.328 0.466 44 36 33 0 0
-4.1240 0.7466 -16.0166 -0.542 -0.760 0.359 47 38 36 0 0
-4.1308 0.7458 -16.0535 -0.522 -0.819 0.239 36 25 27 0 0
-4.4094 0.5235 -16.9230 0.017 0.595 0.803 158 158 158 0 0
-3.0204 1.6228 -12.3857 -0.114 -0.614 0.781 122 47 28 0 0
-3.1250 1.4443 -12.3862 -0.140 -0.125 0.982 122 45 27 0 0
-3.1790 1.3565 -12.4013 -0.187 -0.251 0.950 122 45 27 0 0
-3.1944 1.3329 -12.4109 -0.291 -0.197 0.936 121 44 24 0 0
-3.2330 1.2685 -12.4157 -0.073 -0.314 0.947 123 46 26 0 0
-3.2556 1.2287 -12.4117 -0.756 -0.461 0.464 125 47 27 0 0
-3.2650 1.2188 -12.4323 -0.650 -0.302 0.698 122 43 23 0 0
-3.2756 1.2060 -12.4506 -0.583 -0.306 0.753 122 44 24 0 0
-3.2961 1.1708 -12.4503 -0.130 -0.513 0.848 123 45 25 0 0
-3.3763 1.0342 -12.4514 -0.436 -0.479 0.762 121 42 25 0 0
-3.5505 1.0625 -13.5629 -0.863 -0.487 -0.132 4 0 1 0 0
-3.8152 0.7344 -13.9860 -0.377 -0.751 0.543 97 41 27 0 0
-3.7592 0.8826 -14.1649 -0.088 -0.892 0.443 79 23 11 0 0
-3.8188 0.8912 -14.5417 -0.406 -0.814 0.415 55 11 5 0 0
-3.8053 1.0695 -15.0717 -0.604 -0.782 0.155 71 19 8 0 0
-3.8601 0.9495 -14.9815 -0.327 -0.924 -0.199 75 20 9 0 0
-3.8323 1.0631 -15.2069 -0.652 -0.713 -0.257 81 25 12 0 0
-3.9874 0.7389 -15.0048 0.602 0.073 0.795 81 25 10 0 0
-4.0683 0.5825 -14.9425 -0.444 -0.892 -0.080 90 35 20 0 0
-4.1177 0.6428 -15.4357 -0.923 -0.041 0.384 40 21 19 0 0
-4.1268 0.6354 -15.4638 -0.988 -0.086 0.125 33 16 15 0 0
-4.1287 0.6465 -15.5125 -0.992 -0.011 0.128 37 20 20 0 0
-4.1380 0.7524 -15.9280 -0.610 -0.792 0.028 39 31 30 0 0
-4.1364 0.7732 -15.9894 -0.185 -0.828 0.529 52 42 40 0 0
-4.1467 0.7632 -16.0157 -0.542 -0.760 0.359 60 49 47 0 0
-4.1507 0.7697 -16.0611 -0.643 -0.713 0.280 49 37 37 0 0
-4.1711 0.7847 -16.2310 -0.487 -0.873 -0.001 18 6 8 0 0
-4.1848 0.7662 -16.2479 -0.438 -0.740 0.511 18 7 6 0 0
-4.1975 0.7504 -16.2680 -0.329 -0.680 0.655 19 8 6 0 0
-4.2109 0.7327 -16.2859 0.008 -0.545 0.839 20 8 8 0 0
-3.2931 1.2269 -12.4550 -0.650 -0.302 0.698 121 44 24 0 0
-3.5644 1.0948 -13.5778 -0.883 -0.439 -0.166 4 0 1 0 0
-3.7100 0.9057 -13.7814 -0.238 -0.294 0.926 93 49 26 0 0
-3.7244 0.8845 -13.7932 -0.365 -0.403 0.839 81 39 29 0 0
-3.8409 0.9060 -14.5398 -0.463 -0.722 0.514 56 13 6 0 0
-3.8610 0.9883 -14.9342 -0.744 -0.648 -0.162 69 18 6 0 0
-3.8273 1.0865 -15.0717 -0.604 -0.782 0.155 73 19 9 0 0
-3.8891 0.9485 -14.9627 -0.433 -0.888 -0.153 77 20 10 0 0
-4.0187 0.7315 -14.9790 0.489 0.135 0.862 81 25 10 0 0
-4.1212 0.5657 -15.0116 -0.201 -0.400 0.894 87 43 31 0 0
-4.1280 0.6892 -15.4683 -0.970 -0.022 0.242 40 19 17 0 0
-4.1246 0.7625 -15.6964 -0.220 -0.432 0.875 42 24 25 0 0
-4.1591 0.7899 -15.9887 -0.010 -0.858 0.514 52 41 40 0 0
-4.1694 0.7800 -16.0151 -0.319 -0.842 0.436 58 47 45 0 0
-4.1766 0.7785 -16.0511 -0.582 -0.796 0.164 56 44 42 0 0
-4.2213 0.7651 -16.2647 -0.329 -0.680 0.655 19 8 6 0 0
-4.4418 0.5769 -16.9049 -0.002 0.063 0.998 152 152 153 0 0
-3.1417 1.5173 -12.3909 0.137 -0.087 0.987 121 45 27 0 0
-3.1845 1.4433 -12.3887 -0.035 -0.333 0.942 123 46 27 0 0
-3.2265 1.3709 -12.3874 -0.307 -0.714 0.629 121 44 27 0 0
-3.2354 1.3620 -12.4089 -0.335 -0.685 0.647 121 44 26 0 0
-3.6233 0.8452 -12.9067 0.808 -0.428 0.405 59 35 33 0 0
-3.8641 0.9180 -14.5351 -0.676 -0.548 0.493 56 13 6 0 0
-3.8680 0.9230 -14.5741 -0.321 -0.947 0.016 65 18 10 0 0
-3.8753 0.9935 -14.8525 -0.458 -0.828 0.324 45 12 4 0 0
-3.8776 1.0179 -14.9474 -0.239 -0.376 0.896 70 18 8 0 0
-3.8555 1.0881 -15.0556 -0.565 -0.785 0.253 74 20 9 0 0
-4.1256 0.5794 -14.9036 0.133 -0.288 0.948 91 38 23 0 0
-4.1507 0.5313 -14.8867 -0.756 -0.504 0.418 88 39 24 0 0
-4.1443 0.5783 -15.0072 -0.040 -0.466 0.884 85 43 30 0 0
-4.1596 0.6653 -15.3869 -0.931 -0.335 -0.141 49 27 24 0 0
-4.1654 0.7153 -15.5878 -0.781 -0.317 0.537 48 29 27 0 0
-4.1441 0.8031 -15.7596 -0.331 -0.883 0.332 28 16 17 0 0
-4.1526 0.7980 -15.7910 -0.329 -0.903 0.276 18 7 9 0 0
-4.1945 0.7905 -16.0072 -0.248 -0.916 0.315 61 50 48 0 0
-4.2100 0.8191 -16.1919 -0.786 -0.399 0.472 21 9 9 0 0
-4.2181 0.8155 -16.2261 -0.802 -0.439 0.405 18 6 7 0 0
-4.2433 0.7842 -16.2666 -0.328 -0.610 0.721 20 8 7 0 0
-4.3018 0.7185 -16.3827 -0.642 -0.442 0.627 37 19 16 0 0
-4.3072 0.7223 -16.4260 -0.587 -0.375 0.718 39 20 17 0 0
-4.4995 0.5387 -16.9162 -0.390 0.234 0.891 163 163 164 0 0
-3.1856 1.4792 -12.3474 -0.270 -0.392 0.879 121 44 26 0 0
-3.6182 0.7754 -12.4799 -0.628 -0.578 0.520 156 82 61 0 0
-3.8259 0.8534 -13.9251 -0.631 -0.625 0.460 59 12 5 0 0
-3.8663 0.8103 -14.0128 -0.805 -0.138 0.577 93 39 25 0 0
-3.8815 0.9444 -14.5451 -0.649 -0.579 0.493 57 14 8 0 0
-3.8945 1.0166 -14.8589 -0.314 -0.942 0.117 49 14 5 0 0
-3.9071 1.0002 -14.8767 0.056 -0.451 0.891 63 16 6 0 0
-3.8776 1.1046 -15.0550 -0.663 -0.746 0.063 76 19 9 0 0
-3.8800 1.1141 -15.1002 -0.754 -0.653 -0.077 78 21 10 0 0
-3.9157 1.0401 -15.0582 -0.994 -0.064 0.083 80 24 11 0 0
-4.1718 0.5484 -14.8873 -0.666 -0.051 0.745 88 39 26 0 0
-4.1677 0.5899 -15.0018 0.109 -0.441 0.891 85 44 33 0 0
-4.1857 0.5597 -15.0042 -0.094 -0.590 0.802 83 47 40 0 0
-4.1991 0.5413 -15.0193 -0.094 -0.590 0.802 90 63 58 0 0
-4.2124 0.5229 -15.0345 -0.094 -0.590 0.802 97 74 69 0 0
-4.2258 0.5044 -15.0496 -0.094 -0.590 0.802 87 62 56 0 0
-4.2336 0.5004 -15.0804 -0.194 -0.762 0.618 63 38 34 0 0
-4.1750 0.6988 -15.4051 -0.799 -0.585 0.140 52 30 27 0 0
-4.3350 0.7262 -16.4099 -0.264 -0.583 0.768 38 18 17 0 0
-4.4549 0.6831 -16.9515 0.659 -0.745 0.100 145 144 147 0 0
-4.4987 0.6022 -16.9326 -0.390 0.234 0.891 157 157 159 0 0
-4.5190 0.5660 -16.9281 -0.447 0.236 0.863 162 162 164 0 0
-3.1861 1.5510 -12.4213 -0.597 -0.278 0.753 121 44 24 0 0
-3.6861 0.7856 -12.7374 -0.750 -0.211 0.627 78 31 26 0 0
-3.6974 0.7711 -12.7540 -0.579 -0.179 0.795 87 43 36 0 0
-3.7070 0.7608 -12.7744 -0.572 0.008 0.820 85 44 39 0 0
-3.6859 1.0678 -13.6656 0.061 -0.020 0.998 19 5 4 0 0
-3.9068 0.9512 -14.5351 -0.602 -0.698 0.388 58 15 9 0 0
-3.9149 0.9460 -14.5637 -0.298 -0.946 0.128 66 18 10 0 0
-3.9592 0.9407 -14.7979 -0.671 -0.719 0.180 65 17 6 0 0
-3.9464 0.9883 -14.8817 0.535 -0.642 0.549 72 18 9 0 0
-4.1799 0.5832 -14.8721 -0.736 -0.211 0.643 90 40 27 0 0
-4.1914 0.6008 -14.9956 -0.066 -0.358 0.932 84 43 36 0 0
-4.2071 0.5763 -15.0043 -0.324 -0.454 0.830 82 50 44 0 0
-4.2205 0.5580 -15.0195 -0.324 -0.454 0.830 91 70 66 0 0
-4.2338 0.5397 -15.0347 -0.324 -0.454 0.830 96 76 72 0 0
-4.2492 0.5159 -15.0439 -0.094 -0.590 0.802 78 55 50 0 0
-4.2562 0.5138 -15.0769 -0.294 -0.759 0.581 60 36 33 0 0
-4.1941 0.7229 -15.4130 -0.799 -0.585 0.140 50 30 28 0 0
-4.2193 0.8087 -15.8386 -0.320 -0.944 0.079 38 34 33 0 0
-4.3228 0.8007 -16.3992 -0.306 -0.527 0.793 33 17 15 0 0
-4.3368 0.7817 -16.4157 -0.278 -0.626 0.729 33 16 15 0 0
-4.3543 0.7713 -16.4812 -0.083 -0.580 0.811 32 15 14 0 0
-3.5972 0.8986 -12.4440 -0.039 -0.746 0.665 125 60 49 0 0
-3.6067 0.8883 -12.4640 -0.144 -0.702 0.697 141 78 68 0 0
-3.6176 0.8749 -12.4813 -0.286 -0.584 0.760 154 90 77 0 0
-3.6914 0.7861 -12.6074 -0.480 -0.787 0.388 55 12 5 0 0
-3.7015 0.7988 -12.7061 -0.791 -0.559 0.250 64 16 12 0 0
-3.7073 0.7976 -12.7343 -0.689 -0.541 0.482 74 28 23 0 0
-3.7278 0.7736 -12.7721 -0.421 -0.084 0.903 84 44 37 0 0
-3.7072 1.0825 -13.6642 0.116 0.069 0.991 19 5 4 0 0
-3.9921 0.9290 -14.7685 -0.200 -0.859 0.471 66 18 9 0 0
-3.9955 0.9358 -14.8100 0.277 -0.801 0.531 73 19 11 0 0
-3.9906 0.9951 -14.9758 -0.680 -0.647 0.345 81 25 12 0 0
-4.1995 0.6041 -14.8768 -0.728 -0.305 0.614 89 40 26 0 0
-4.2128 0.6175 -14.9957 -0.176 -0.293 0.940 82 43 34 0 0
-4.2287 0.5926 -15.0038 -0.324 -0.454 0.830 78 46 39 0 0
-4.2429 0.5721 -15.0167 -0.211 -0.598 0.773 88 63 59 0 0
-4.2583 0.5482 -15.0259 -0.075 -0.778 0.623 86 64 60 0 0
-4.2704 0.5331 -15.0447 -0.103 -0.772 0.628 71 47 42 0 0
-4.2164 0.7388 -15.4119 -0.245 -0.953 -0.178 44 26 26 0 0
-4.2116 0.7681 -15.4802 -0.008 -0.989 -0.150 48 28 29 0 0
-4.2143 0.7777 -15.5272 -0.066 -0.964 -0.258 52 32 32 0 0
-4.2462 0.7795 -15.7124 -0.368 -0.774 0.514 39 30 31 0 0
-4.3383 0.8193 -16.3618 -0.160 -0.511 0.845 30 15 12 0 0
-4.3453 0.8190 -16.4000 -0.503 -0.346 0.792 27 14 12 0 0
-4.3586 0.8017 -16.4186 -0.572 -0.433 0.697 25 14 12 0 0
-4.3791 0.7836 -16.4750 -0.083 -0.580 0.811 22 11 10 0 0
-4.3921 0.7671 -16.4945 0.269 -0.583 0.767 19 10 8 0 0
-3.3493 1.3698 -12.4215 -0.248 0.046 0.968 120 43 26 0 0
-3.4089 1.2914 -12.5013 0.064 -0.388 0.919 121 42 25 0 0
-3.5693 1.0013 -12.4605 -0.045 -0.209 0.977 118 43 26 0 0
-3.7126 0.7976 -12.6040 -0.302 -0.889 0.345 54 11 4 0 0
-3.7362 0.8037 -12.7555 -0.269 -0.609 0.746 84 42 34 0 0
-3.7459 0.7931 -12.7756 -0.293 -0.450 0.844 84 45 37 0 0
-3.7360 1.1068 -13.7353 -0.196 0.233 0.953 34 7 6 0 0
-3.9163 0.9925 -14.3752 -0.197 -0.943 0.268 84 19 10 0 0
-4.0199 0.9296 -14.7519 -0.033 -0.929 0.369 65 18 10 0 0
-4.2175 0.6293 -14.8860 -0.727 -0.180 0.663 89 40 26 0 0
-4.2253 0.6251 -14.9162 -0.440 -0.783 0.439 87 41 28 0 0
-4.2465 0.7344 -15.3884 -0.670 -0.722 -0.172 42 24 24 0 0
-4.2699 0.7924 -15.7076 -0.460 -0.747 0.480 38 29 30 0 0
-4.3581 0.8448 -16.3710 -0.393 -0.735 0.552 25 12 11 0 0
-4.3660 0.8421 -16.4065 -0.557 -0.499 0.663 21 9 9 0 0
-3.3981 1.3304 -12.4051 0.104 -0.460 0.882 119 42 24 0 0
-3.5872 1.0209 -12.4640 -0.072 -0.135 0.988 120 45 29 0 0
-3.7247 0.8185 -12.5797 -0.308 -0.805 0.508 84 25 6 0 0
-3.7536 0.8247 -12.7604 -0.319 -0.768 0.555 87 45 38 0 0
-3.7628 0.8154 -12.7816 -0.325 -0.808 0.491 88 49 42 0 0
-3.9382 0.8174 -13.7638 -0.080 -0.344 0.936 75 22 3 0 0
-3.8987 1.0465 -14.2791 -0.918 -0.348 0.188 84 28 14 0 0
-4.0234 0.9298 -14.5984 0.076 -0.301 0.951 22 3 2 0 0
-4.0432 0.9418 -14.7472 0.113 -0.936 0.334 67 19 10 0 0
-4.2169 0.6866 -14.8946 -0.623 0.025 0.782 94 44 31 0 0
-4.2317 0.6644 -14.9057 -0.623 0.025 0.782 89 39 28 0 0
-4.2477 0.6390 -14.9134 -0.423 -0.793 0.439 87 42 31 0 0
-4.2598 0.6237 -14.9318 -0.772 -0.467 0.431 81 41 32 0 0
-4.3238 0.7960 -15.8404 0.232 -0.963 0.134 25 23 25 0 0
-4.3423 0.7822 -15.8993 0.171 -0.978 0.122 37 36 35 0 0
-4.4231 0.7475 -16.2373 -0.747 -0.416 0.518 19 8 8 0 0
-4.4431 0.7305 -16.2941 -0.583 -0.502 0.639 14 8 5 0 0
-4.4630 0.7139 -16.3516 -0.596 -0.716 0.364 14 8 5 0 0
-4.5270 0.6529 -16.5120 -0.263 -0.568 0.780 36 26 27 0 0
-3.6066 1.0369 -12.4645 -0.447 -0.037 0.894 116 40 24 0 0
-3.7831 0.8296 -12.7805 -0.224 -0.883 0.413 86 48 40 0 0
-3.9195 0.9024 -13.7661 -0.646 -0.469 0.602 124 84 58 0 0
-3.9300 0.8905 -13.7866 -0.646 -0.469 0.602 112 67 33 0 0
-3.9703 0.8769 -13.9662 -0.453 -0.761 0.465 100 43 31 0 0
-3.9796 0.8683 -13.9902 -0.113 -0.687 0.718 93 35 23 0 0
-4.2108 0.7421 -14.8665 0.299 -0.094 0.950 89 35 22 0 0
-4.2304 0.7074 -14.8644 0.404 -0.146 0.903 95 44 31 0 0
-4.2420 0.6935 -14.8844 -0.506 -0.633 0.586 90 41 27 0 0
-4.2528 0.6817 -14.9065 -0.506 -0.633 0.586 87 39 27 0 0
-4.2659 0.6638 -14.9221 -0.580 -0.491 0.650 86 42 32 0 0
-4.2843 0.6487 -14.9757 -0.381 -0.768 0.516 61 29 24 0 0
-4.2946 0.6381 -14.9992 -0.381 -0.768 0.516 54 25 21 0 0
-4.3044 0.6289 -15.0243 -0.228 -0.845 0.484 62 34 30 0 0
-4.3444 0.7995 -15.7879 0.239 -0.875 0.422 16 13 12 0 0
-4.3564 0.7855 -15.8091 0.102 -0.916 0.388 20 17 17 0 0
-4.3642 0.7824 -15.8427 -0.163 -0.963 0.215 27 25 25 0 0
-4.3760 0.7870 -15.9226 0.048 -0.998 -0.033 37 36 37 0 0
-4.4453 0.8618 -16.5438 -0.572 -0.657 0.491 12 6 6 0 0
-3.5470 1.1783 -12.4261 -0.759 -0.108 0.642 121 44 27 0 0
-3.5586 1.1632 -12.4424 -0.759 -0.108 0.642 120 44 28 0 0
-3.5728 1.1420 -12.4533 -0.517 -0.005 0.856 120 44 27 0 0
-3.5887 1.1168 -12.4610 -0.472 0.029 0.881 118 43 25 0 0
-3.6810 0.9595 -12.4721 -0.748 -0.307 0.589 139 77 65 0 0
-3.7028 0.9325 -12.5068 -0.100 -0.119 0.988 144 75 53 0 0
-3.7139 0.9184 -12.5236 -0.563 -0.264 0.783 146 74 50 0 0
-3.8186 0.7941 -12.7063 -0.070 -0.552 0.831 85 44 36 0 0
-3.8314 0.7759 -12.7195 -0.070 -0.552 0.831 84 45 36 0 0
-3.9155 0.9367 -13.6882 -0.627 -0.450 0.636 87 44 21 0 0
-3.9217 0.9355 -13.7187 -0.363 -0.759 0.540 69 28 14 0 0
-3.9372 0.9114 -13.7276 0.033 -0.346 0.938 96 50 34 0 0
-3.9385 0.9225 -13.7699 -0.434 -0.595 0.676 126 85 59 0 0
-3.9497 0.9091 -13.7890 -0.434 -0.595 0.676 112 66 30 0 0
-3.9945 0.8845 -13.9578 -0.573 -0.500 0.650 101 43 31 0 0
-4.0029 0.8783 -13.9841 -0.685 -0.660 0.308 95 35 23 0 0
-4.0771 0.9506 -14.6197 -0.722 -0.672 0.167 29 6 2 0 0
-4.2655 0.7044 -14.8783 -0.281 -0.901 0.331 88 37 26 0 0
-4.2770 0.6907 -14.8984 -0.306 -0.836 0.456 87 39 28 0 0
-4.2878 0.6790 -14.9206 -0.583 -0.562 0.587 84 42 31 0 0
-4.2971 0.6713 -14.9472 -0.715 -0.398 0.575 76 40 32 0 0
-4.3077 0.6599 -14.9699 -0.512 -0.460 0.726 55 25 21 0 0
-4.3199 0.6445 -14.9882 -0.512 -0.460 0.726 54 25 21 0 0
-4.2995 0.8713 -15.5914 -0.822 -0.561 -0.103 38 26 27 0 0
-4.3269 0.8515 -15.6793 -0.565 -0.683 0.463 28 19 19 0 0
-4.3372 0.8418 -15.7053 -0.508 -0.684 0.524 25 17 18 0 0
-4.3458 0.8366 -15.7363 -0.114 -0.782 0.613 20 14 14 0 0
-4.3583 0.8210 -15.7557 -0.135 -0.822 0.553 16 11 10 0 0
-4.3699 0.8079 -15.7780 -0.135 -0.822 0.553 28 23 21 0 0
-4.3805 0.7974 -15.8032 -0.340 -0.755 0.560 52 48 47 0 0
-4.3925 0.7833 -15.8244 -0.627 -0.644 0.438 67 63 61 0 0
-4.4016 0.7768 -15.8541 -0.642 -0.665 0.382 67 63 61 0 0
-4.4110 0.7881 -15.9416 -0.250 -0.925 -0.287 36 33 34 0 0
-4.4709 0.8720 -16.5350 -0.561 -0.580 0.591 17 10 10 0 0
-3.3817 1.5070 -12.3956 0.242 -0.543 0.804 120 43 26 0 0
-3.7185 0.9573 -12.5148 0.492 -0.277 0.825 152 82 60 0 0
-3.7828 0.8661 -12.5810 -0.224 -0.230 0.947 93 31 10 0 0
-3.8294 0.8180 -12.6845 -0.282 -0.358 0.890 76 31 26 0 0
-3.8428 0.7985 -12.6966 -0.282 -0.358 0.890 84 42 35 0 0
-3.9427 0.9507 -13.7179 -0.000 -0.828 0.561 68 26 11 0 0
-3.9581 0.9265 -13.7267 0.084 -0.308 0.948 94 49 33 0 0
-3.9602 0.9360 -13.7674 -0.286 -0.626 0.726 124 83 57 0 0
-3.9720 0.9210 -13.7850 -0.286 -0.626 0.726 112 65 28 0 0
-4.0015 0.8613 -13.7598 0.100 -0.546 0.832 76 23 3 0 0
-4.0413 1.0031 -14.4200 -0.408 -0.078 0.909 56 12 7 0 0
-4.0970 0.9710 -14.6236 -0.722 -0.672 0.167 32 7 3 0 0
-4.3121 0.6878 -14.9124 -0.644 -0.644 0.413 83 42 30 0 0
-4.3594 0.6300 -14.9897 -0.507 -0.417 0.754 66 37 34 0 0
-4.3186 0.9147 -15.6569 -0.808 -0.578 -0.112 22 15 15 0 0
-4.3593 0.8590 -15.7053 -0.748 -0.363 0.555 18 12 12 0 0
-4.3711 0.8455 -15.7270 -0.220 -0.585 0.780 17 11 11 0 0
-4.3838 0.8292 -15.7458 -0.402 -0.635 0.660 30 24 24 0 0
-4.3958 0.8150 -15.7668 -0.402 -0.635 0.660 63 58 56 0 0
-4.4036 0.8121 -15.8005 -0.748 -0.483 0.454 86 82 79 0 0
-4.4138 0.8029 -15.8271 -0.748 -0.483 0.454 93 88 85 0 0
-4.4252 0.7904 -15.8501 -0.545 -0.758 0.358 92 87 84 0 0
-4.4351 0.7819 -15.8777 -0.450 -0.864 0.227 87 83 81 0 0
-4.4435 0.8151 -16.0276 -0.242 -0.942 -0.234 22 14 13 0 0
-4.4148 0.9712 -16.3588 -0.205 -0.556 0.805 21 11 10 0 0
-4.4287 0.9522 -16.3754 -0.205 -0.556 0.805 21 11 10 0 0
-4.4417 0.9357 -16.3948 0.040 -0.560 0.828 22 12 11 0 0
-4.4974 0.8995 -16.5856 -0.430 -0.062 0.901 28 14 12 0 0
-3.7895 0.8998 -12.5678 -0.187 -0.300 0.935 132 58 14 0 0
-3.8226 0.8455 -12.5788 -0.460 -0.726 0.512 53 8 5 0 0
-3.8487 0.8341 -12.6851 -0.344 -0.335 0.877 75 31 25 0 0
-3.8620 0.8150 -12.6975 -0.344 -0.335 0.877 83 42 34 0 0
-3.8778 1.1082 -13.6925 -0.295 -0.501 0.814 61 16 5 0 0
-4.0247 0.8709 -13.7535 0.001 -0.506 0.862 75 23 3 0 0
-4.0999 1.0193 -14.6218 -0.377 -0.017 0.926 20 3 2 0 0
-4.3340 0.7031 -14.9110 -0.603 -0.666 0.439 82 42 32 0 0
-4.3677 0.6645 -14.9741 -0.518 -0.085 0.851 63 34 30 0 0
-4.3582 0.7769 -15.2711 -0.751 -0.616 -0.238 29 15 15 0 0
-4.3571 0.9058 -15.6648 -0.457 -0.713 0.531 15 8 8 0 0
-4.4077 0.8415 -15.7403 -0.220 -0.585 0.780 58 52 52 0 0
-4.4249 0.8132 -15.7455 -0.090 -0.765 0.637 90 85 83 0 0
-4.4269 0.8264 -15.7972 -0.851 -0.343 0.398 105 101 98 0 0
-4.4345 0.8242 -15.8317 -0.831 -0.375 0.411 106 101 98 0 0
-4.4470 0.8087 -15.8513 -0.635 -0.677 0.373 101 96 92 0 0
-4.4570 0.8001 -15.8788 -0.616 -0.755 0.226 98 92 89 0 0
-4.4272 0.9980 -16.3309 -0.141 -0.727 0.672 26 15 14 0 0
-4.5995 0.9210 -17.0266 0.014 -0.968 0.251 131 126 130 0 0
-3.4498 1.4968 -12.4194 -0.552 0.077 0.830 119 42 24 0 0
-3.5491 1.3235 -12.4215 -0.145 -0.081 0.986 119 41 24 0 0
-3.8419 0.8616 -12.5794 -0.607 -0.572 0.552 54 10 5 0 0
-3.8445 1.2010 -13.6373 -0.236 0.060 0.970 17 6 4 0 0
-3.8759 1.1663 -13.6999 0.054 -0.215 0.975 34 6 1 0 0
-4.0214 1.1333 -14.3828 -0.603 -0.241 0.760 99 28 13 0 0
-4.3503 0.7504 -14.9783 -0.474 0.020 0.880 65 32 28 0 0
-4.4016 0.7174 -15.1532 -0.850 -0.512 -0.125 40 25 25 0 0
-4.3463 0.9757 -15.6497 -0.951 -0.296 0.090 17 8 9 0 0
-4.3486 0.9881 -15.6999 -0.845 -0.533 -0.034 15 6 7 0 0
-4.3767 0.9299 -15.6724 0.019 -0.537 0.843 12 4 5 0 0
-4.4551 0.8082 -15.7207 0.250 -0.691 0.679 104 99 97 0 0
-4.4582 0.8184 -15.7689 -0.711 -0.643 0.284 114 110 107 0 0
-4.4653 0.8178 -15.8052 -0.570 -0.741 0.354 118 113 110 0 0
-4.4686 0.8278 -15.8534 -0.635 -0.677 0.373 115 110 107 0 0
-4.4790 0.8178 -15.8794 -0.616 -0.755 0.226 104 98 95 0 0
-4.4871 0.8145 -15.9128 -0.616 -0.755 0.226 84 76 74 0 0
-4.4692 1.0017 -16.3918 -0.252 -0.426 0.869 27 13 12 0 0
-3.6961 1.1487 -12.5222 -0.154 -0.634 0.758 115 45 33 0 0
-3.8053 0.9747 -12.5767 -0.092 -0.278 0.956 143 63 29 0 0
-3.8605 0.8793 -12.5815 -0.607 -0.572 0.552 55 11 4 0 0
-3.8817 0.8671 -12.6579 -0.801 -0.497 0.334 65 17 12 0 0
-3.8214 1.2980 -13.6485 -0.178 -0.954 0.241 16 7 6 0 0
-3.8342 1.2805 -13.6640 0.005 -0.722 0.692 19 8 7 0 0
-3.8674 1.2118 -13.6323 -0.205 -0.020 0.979 18 6 4 0 0
-4.1647 1.0115 -14.6140 -0.031 -0.206 0.978 33 8 3 0 0
-4.1954 0.9805 -14.6844 -0.451 -0.891 0.054 70 21 10 0 0
-4.3682 0.7766 -14.9885 -0.474 0.020 0.880 64 30 26 0 0
-4.4024 0.7548 -15.1051 -0.551 -0.768 0.326 56 33 33 0 0
-4.3717 0.9285 -15.4705 -0.931 -0.331 0.154 16 8 9 0 0
-4.4678 0.8325 -15.6920 0.200 -0.693 0.693 89 85 84 0 0
-4.4802 0.8169 -15.7113 -0.361 -0.856 0.370 112 108 107 0 0
-4.4873 0.8353 -15.8056 -0.690 -0.676 0.259 121 116 113 0 0
-4.4983 0.8241 -15.8299 -0.261 -0.948 0.181 118 113 109 0 0
-4.5004 0.8374 -15.8820 -0.674 -0.703 0.226 106 98 96 0 0
-4.4629 1.0409 -16.3014 -0.313 -0.938 0.146 27 15 15 0 0
-5.0722 0.1605 -16.8813 0.250 -0.166 0.954 198 198 200 0 0
-3.4785 1.5554 -12.4412 -0.609 0.051 0.791 118 41 23 0 0
-3.6644 1.2500 -12.5074 -0.393 -0.304 0.868 114 38 22 0 0
-3.7324 1.1371 -12.5282 -0.580 -0.494 0.648 122 57 44 0 0
-3.7941 1.0392 -12.5607 -0.221 0.169 0.961 143 72 53 0 0
-3.8282 0.9822 -12.5700 0.032 -0.390 0.920 146 64 30 0 0
-3.8984 0.8897 -12.6642 -0.801 -0.497 0.334 66 18 14 0 0
-3.8120 1.1726 -13.0594 -0.978 -0.014 -0.206 51 40 37 0 0
-3.8052 1.2036 -13.1169 -0.904 -0.235 -0.356 44 41 39 0 0
-3.7600 1.3303 -13.2593 -0.880 -0.228 -0.417 41 40 39 0 0
-3.8468 1.3026 -13.6379 -0.148 -0.951 0.271 16 7 6 0 0
-3.8585 1.2880 -13.6560 0.005 -0.722 0.692 18 8 7 0 0
-3.8762 1.2583 -13.6602 0.082 -0.406 0.910 18 6 5 0 0
-4.1579 1.0689 -14.5876 0.071 -0.920 0.386 19 3 0 0 0
-4.4039 0.7726 -15.0014 -0.499 0.086 0.862 57 27 24 0 0
-4.3902 1.0305 -15.7086 -0.753 -0.653 0.085 14 8 8 0 0
-4.4445 0.9182 -15.6583 0.126 -0.174 0.977 12 6 6 0 0
-4.4957 1.0505 -16.3306 -0.485 -0.485 0.727 24 12 12 0 0
-4.9465 0.3994 -16.7619 0.519 0.319 0.793 186 186 188 0 0
-3.7508 1.1559 -12.5309 -0.650 -0.518 0.557 120 56 39 0 0
-3.8100 1.0641 -12.5687 -0.221 0.169 0.961 143 72 53 0 0
-3.9180 0.9052 -12.6642 -0.722 -0.631 0.283 66 18 14 0 0
-3.8048 1.2711 -13.1624 -0.897 -0.249 -0.366 42 39 39 0 0
-3.7540 1.4127 -13.3179 -0.888 -0.218 -0.405 40 39 38 0 0
-3.8603 1.3223 -13.6096 -0.080 -0.953 0.293 9 2 1 0 0
-3.8710 1.3103 -13.6300 0.026 -0.913 0.406 16 7 5 0 0
-3.8830 1.2949 -13.6474 0.236 -0.787 0.570 19 8 7 0 0
-4.0706 1.2215 -14.4206 -0.433 -0.857 0.280 93 23 12 0 0
-4.4330 0.7683 -14.9791 -0.572 -0.436 0.695 58 29 25 0 0
-4.4631 0.7398 -15.0533 0.164 -0.695 0.700 56 33 33 0 0
-4.4684 0.9305 -15.6530 0.126 -0.174 0.977 17 11 11 0 0
-4.4815 0.9133 -15.6705 0.047 -0.323 0.945 26 20 20 0 0
-4.5858 0.9377 -16.2957 -0.018 -0.196 0.981 24 10 9 0 0
-4.5945 0.9335 -16.3292 -0.403 -0.885 0.233 25 10 8 0 0
-5.0246 0.3854 -16.9617 -0.821 -0.282 0.496 195 196 198 0 0
-3.7709 1.1704 -12.5301 -0.618 -0.569 0.542 119 56 39 0 0
-3.7900 1.1504 -12.5710 -0.643 -0.746 0.175 146 86 69 0 0
-3.8905 0.9833 -12.6022 -0.152 -0.762 0.630 88 28 3 0 0
-3.9328 0.9329 -12.6748 -0.776 -0.567 0.278 65 17 14 0 0
-3.9263 1.2688 -13.6400 0.382 -0.299 0.875 20 6 3 0 0
-3.9488 1.2572 -13.7240 -0.381 0.149 0.912 40 8 3 0 0
-4.1077 1.2303 -14.4796 -0.126 -0.520 0.845 64 13 6 0 0
-4.2306 1.0736 -14.6603 -0.139 -0.295 0.945 54 15 8 0 0
-4.4929 0.9411 -15.6457 0.144 -0.134 0.980 21 13 14 0 0
-4.5105 0.9110 -15.6491 -0.111 -0.548 0.829 26 20 20 0 0
-4.5814 0.9091 -16.0164 -0.155 -0.149 0.977 39 23 24 0 0
-3.4811 1.6891 -12.3957 0.220 -0.716 0.663 119 44 25 0 0
-3.6006 1.4914 -12.4373 -0.463 -0.710 0.531 117 38 21 0 0
-3.8888 1.0244 -12.5664 -0.228 -0.054 0.972 152 76 44 0 0
-3.9053 0.9969 -12.5718 -0.228 -0.054 0.972 138 65 22 0 0
-3.9119 0.9942 -12.5984 -0.470 -0.705 0.531 85 25 3 0 0
-4.1165 1.2465 -14.4125 0.426 -0.172 0.888 88 22 11 0 0
-4.1410 1.2323 -14.4987 -0.392 -0.352 0.850 55 12 8 0 0
-4.2278 1.1555 -14.7262 -0.746 -0.660 0.092 54 15 9 0 0
-4.4470 1.1105 -15.7395 0.026 -0.970 0.242 34 26 24 0 0
-4.6034 0.9275 -16.0177 -0.141 -0.140 0.980 42 24 25 0 0
-4.6167 0.9932 -16.2811 0.041 -0.063 0.997 23 10 9 0 0
-5.0728 0.4120 -16.9512 -0.405 -0.903 -0.145 196 196 198 0 0
-3.6207 1.5066 -12.4369 -0.617 -0.679 0.398 118 39 22 0 0
-3.6288 1.5002 -12.4604 -0.572 -0.626 0.530 119 41 24 0 0
-3.7368 1.3019 -12.4413 -0.231 -0.435 0.871 116 40 23 0 0
-3.8245 1.1941 -12.5816 -0.826 -0.512 0.234 148 85 71 0 0
-3.8497 1.1450 -12.5690 -0.010 -0.176 0.984 143 73 54 0 0
-3.8896 1.0730 -12.5658 -0.153 0.039 0.988 147 79 61 0 0
-3.9216 1.0206 -12.5789 -0.682 -0.194 0.706 135 61 19 0 0
-4.4747 1.0335 -15.4919 -0.687 -0.638 0.348 26 16 15 0 0
-4.6109 0.9671 -16.0053 -0.883 -0.207 0.421 45 28 28 0 0
-4.6231 0.9527 -16.0265 -0.556 0.026 0.831 42 24 25 0 0
-3.6364 1.5328 -12.4454 -0.399 -0.200 0.895 120 43 25 0 0
-3.6483 1.5172 -12.4614 -0.572 -0.626 0.530 119 43 24 0 0
-3.6655 1.4883 -12.4666 -0.179 -0.216 0.960 119 42 24 0 0
-3.6858 1.4518 -12.4656 -0.172 -0.078 0.982 118 41 23 0 0
-3.7565 1.3176 -12.4414 -0.152 -0.387 0.909 116 39 22 0 0
-3.7957 1.2475 -12.4407 0.244 -0.805 0.541 114 38 22 0 0
-3.8674 1.1656 -12.5733 -0.038 -0.218 0.975 139 72 52 0 0
-3.9479 1.0334 -12.6055 -0.447 -0.679 0.583 97 33 7 0 0
-3.9893 0.9855 -12.6803 -0.709 -0.674 0.207 63 17 14 0 0
-4.1862 1.0562 -13.9030 -0.617 -0.659 0.430 62 18 12 0 0
-4.1929 1.0548 -13.9337 -0.445 -0.724 0.527 86 38 25 0 0
-4.2029 1.0447 -13.9561 -0.445 -0.724 0.527 96 44 27 0 0
-4.2489 1.1249 -14.4266 -0.352 -0.559 0.751 63 17 11 0 0
-4.6261 1.0053 -16.0288 -0.913 -0.102 0.396 42 26 26 0 0
-4.6340 1.0034 -16.0641 -0.852 0.008 0.524 39 22 22 0 0
-5.1350 0.4185 -16.9555 0.500 -0.777 0.382 197 197 199 0 0
-3.6243 1.6002 -12.4298 -0.324 -0.128 0.937 117 40 22 0 0
-3.6399 1.5755 -12.4386 -0.324 -0.128 0.937 116 39 21 0 0
-3.6551 1.5517 -12.4479 -0.249 -0.154 0.956 117 42 23 0 0
-3.6689 1.5312 -12.4601 -0.202 -0.809 0.552 116 42 23 0 0
-3.6708 1.5404 -12.4962 -0.261 -0.700 0.664 117 41 23 0 0
-3.7554 1.3713 -12.4442 -0.590 -0.248 0.769 116 38 21 0 0
-3.8882 1.1784 -12.5710 0.185 -0.141 0.973 139 73 53 0 0
-3.9282 1.1058 -12.5674 0.032 -0.303 0.953 145 77 58 0 0
-3.9446 1.0927 -12.6140 -0.736 -0.091 0.671 126 49 8 0 0
-4.0077 1.0041 -12.6830 -0.709 -0.674 0.207 62 17 14 0 0
-4.0970 1.2488 -13.8461 -0.407 -0.159 0.900 74 28 20 0 0
-4.2052 1.0605 -13.8598 0.119 -0.178 0.977 55 15 9 0 0
-4.2122 1.0750 -13.9375 -0.174 -0.294 0.940 88 40 27 0 0
-4.2245 1.0588 -13.9541 -0.507 -0.349 0.788 97 44 27 0 0
-4.2319 1.0556 -13.9832 -0.577 -0.797 0.180 83 31 18 0 0
-4.2107 1.2674 -14.4841 0.075 -0.952 0.295 54 13 8 0 0
-4.2953 1.1439 -14.5628 -0.383 -0.726 0.571 19 3 0 0 0
-4.3360 1.1407 -14.7627 -0.774 -0.399 0.491 76 22 13 0 0
-4.5292 0.9206 -15.1218 -0.906 0.155 0.394 69 40 37 0 0
-4.5338 0.9268 -15.1635 -0.974 0.040 0.225 54 34 31 0 0
-4.6340 1.0439 -16.0153 -0.937 -0.199 0.287 47 32 33 0 0
-4.6411 1.0444 -16.0532 -0.913 -0.102 0.396 43 28 28 0 0
-4.6273 1.1062 -16.1602 -0.880 0.154 0.450 38 23 22 0 0
-4.7891 0.9348 -16.4980 -0.841 -0.472 0.266 49 24 19 0 0
-4.8548 0.9668 -16.9279 -0.583 -0.457 0.671 149 149 151 0 0
-5.1073 0.5214 -16.9422 0.663 -0.487 0.568 195 195 197 0 0
-5.1647 0.4139 -16.9278 0.565 -0.615 0.551 198 198 200 0 0
-3.6497 1.6025 -12.4190 -0.677 -0.366 0.638 117 40 22 0 0
-3.6736 1.5710 -12.4509 -0.324 -0.128 0.937 117 42 23 0 0
-3.7735 1.3911 -12.4476 -0.339 -0.257 0.905 115 38 20 0 0
-3.7867 1.3722 -12.4607 -0.540 -0.052 0.840 114 37 21 0 0
-3.8401 1.2662 -12.4305 0.119 -0.213 0.970 113 37 21 0 0
-3.8668 1.2552 -12.5360 -0.776 -0.434 0.458 117 52 40 0 0
-4.0027 1.0249 -12.5719 -0.107 -0.029 0.994 105 39 6 0 0
-4.0392 1.0185 -12.7403 -0.428 -0.716 0.551 85 41 35 0 0
-3.9181 1.5464 -13.6296 -0.572 -0.640 0.513 7 1 1 0 0
-4.2352 1.0515 -13.8359 -0.796 -0.286 0.534 56 15 11 0 0
-4.2415 1.0515 -13.8677 -0.782 -0.493 0.381 66 22 15 0 0
-4.2437 1.0623 -13.9099 -0.545 -0.629 0.554 91 42 29 0 0
-4.2534 1.0532 -13.9332 -0.578 -0.655 0.487 97 44 28 0 0
-4.2552 1.0651 -13.9767 -0.477 -0.804 0.355 83 31 17 0 0
-4.1864 1.3023 -14.3027 0.030 -0.838 0.545 93 34 16 0 0
-4.1936 1.3003 -14.3337 -0.143 -0.909 0.392 97 37 19 0 0
-4.2036 1.2907 -14.3575 -0.262 -0.874 0.408 93 29 16 0 0
-4.2551 1.2036 -14.3719 -0.702 -0.270 0.659 60 14 5 0 0
-4.2670 1.1889 -14.3907 -0.702 -0.270 0.659 54 13 8 0 0
-4.2771 1.1792 -14.4143 -0.745 -0.441 0.500 58 16 11 0 0
-4.3000 1.1879 -14.5565 -0.536 -0.557 0.635 44 9 5 0 0
-4.4430 1.0311 -14.8388 0.498 -0.584 0.641 83 27 14 0 0
-4.5117 0.9138 -14.8546 0.469 -0.066 0.881 89 37 23 0 0
-4.5434 0.9584 -15.1441 0.276 -0.900 0.336 69 39 36 0 0
-4.8769 0.9879 -16.9318 -0.453 -0.378 0.807 151 151 153 0 0
-5.2321 0.3634 -16.9623 0.546 -0.546 0.636 200 200 202 0 0
-3.6496 1.6543 -12.4193 -0.676 -0.132 0.725 117 40 22 0 0
-3.6670 1.6249 -12.4244 -0.677 -0.366 0.638 117 40 22 0 0
-3.7300 1.5235 -12.4569 -0.342 0.119 0.932 116 41 22 0 0
-3.7782 1.4305 -12.4385 0.033 -0.127 0.991 116 39 21 0 0
-3.7914 1.4117 -12.4517 -0.367 -0.150 0.918 115 39 21 0 0
-3.9088 1.2000 -12.4485 0.123 -0.237 0.964 112 43 28 0 0
-4.0237 1.0366 -12.5688 -0.177 -0.005 0.984 107 40 4 0 0
-3.9220 1.6074 -13.6697 0.197 -0.436 0.878 7 1 1 0 0
-4.1873 1.1185 -13.6314 -0.080 -0.517 0.852 96 54 28 0 0
-4.1169 1.3226 -13.8527 -0.077 -0.123 0.989 65 24 15 0 0
-4.1565 1.2672 -13.8967 -0.547 -0.343 0.764 113 69 36 0 0
-4.1621 1.2692 -13.9305 0.023 -0.389 0.921 86 35 9 0 0
-4.2017 1.3173 -14.2683 -0.136 -0.970 0.203 74 23 9 0 0
-4.2074 1.3195 -14.3033 -0.444 -0.833 0.330 93 34 15 0 0
-4.2161 1.3134 -14.3304 -0.444 -0.833 0.330 98 36 19 0 0
-4.2256 1.3052 -14.3555 -0.117 -0.778 0.617 91 30 16 0 0
-4.2319 1.3060 -14.3894 -0.031 -0.829 0.559 77 20 12 0 0
-4.3048 1.1959 -14.4476 -0.629 -0.236 0.741 63 19 12 0 0
-4.3176 1.1787 -14.4640 -0.629 -0.236 0.741 64 17 10 0 0
-4.3243 1.1782 -14.4969 -0.610 -0.534 0.585 67 18 10 0 0
-4.3237 1.1983 -14.5503 -0.372 -0.220 0.902 43 8 5 0 0
-4.4309 1.1043 -14.8282 -0.846 -0.528 0.069 80 26 14 0 0
-4.5715 0.9570 -15.1248 0.276 -0.900 0.336 68 38 35 0 0
-4.6823 1.0471 -15.9430 0.175 0.100 0.979 46 33 33 0 0
-4.6649 1.1202 -16.0617 -0.825 0.020 0.565 43 31 31 0 0
-4.0254 1.0833 -12.5667 -0.285 -0.153 0.946 132 57 16 0 0
-4.0418 1.0559 -12.5722 -0.136 -0.093 0.986 110 42 7 0 0
-3.9643 1.5839 -13.6654 0.072 -0.619 0.782 8 2 2 0 0
-4.2197 1.1193 -13.6486 0.081 -0.653 0.753 67 24 15 0 0
-4.1774 1.2835 -13.8967 -0.122 -0.670 0.732 114 69 36 0 0
-4.1861 1.2771 -13.9226 0.100 -0.559 0.823 87 34 8 0 0
-4.2264 1.3423 -14.3093 -0.658 -0.639 0.399 94 35 16 0 0
-4.2359 1.3342 -14.3345 -0.729 -0.287 0.621 98 36 19 0 0
-4.2486 1.3173 -14.3512 -0.594 -0.423 0.684 88 28 15 0 0
-4.2563 1.3140 -14.3811 -0.156 -0.645 0.748 74 19 11 0 0
-4.3456 1.1951 -14.4972 -0.696 -0.430 0.575 68 18 9 0 0
-4.3624 1.1852 -14.5543 -0.569 -0.307 0.763 20 3 1 0 0
-4.3736 1.1910 -14.6273 -0.390 -0.904 0.176 31 7 3 0 0
-4.5989 0.9571 -15.1073 -0.076 -0.996 0.050 69 37 34 0 0
-4.6881 1.1136 -15.9977 -0.340 -0.290 0.895 43 33 32 0 0
-4.6818 1.1541 -16.0801 -0.718 -0.405 0.566 42 31 31 0 0
-4.6751 1.2187 -16.2275 -0.966 -0.026 0.257 36 23 22 0 0
-4.9722 0.9689 -17.0255 -0.667 -0.741 -0.075 171 171 171 0 0
-4.0266 1.1169 -12.5247 -0.366 -0.256 0.895 143 75 52 0 0
-4.0354 1.1089 -12.5465 -0.287 -0.373 0.883 153 80 52 0 0
-4.0496 1.0869 -12.5567 -0.229 -0.493 0.840 133 59 19 0 0
-4.2430 1.1278 -13.6415 0.127 -0.704 0.699 66 22 14 0 0
-4.2592 1.1010 -13.6479 -0.015 -0.809 0.587 75 27 15 0 0
-4.2704 1.0876 -13.6667 -0.015 -0.809 0.587 107 60 41 0 0
-4.1957 1.3067 -13.9031 -0.484 -0.683 0.547 115 67 36 0 0
-4.2107 1.2833 -13.9132 -0.515 -0.252 0.819 87 34 11 0 0
-4.3260 1.1083 -14.0036 -0.950 -0.272 0.151 67 17 8 0 0
-4.2543 1.3586 -14.3420 -0.546 -0.231 0.806 98 36 19 0 0
-4.2670 1.3419 -14.3589 -0.254 -0.176 0.951 86 26 14 0 0
-4.2757 1.3360 -14.3863 -0.088 -0.429 0.899 74 19 12 0 0
-4.3446 1.2367 -14.4552 -0.426 0.096 0.900 79 44 37 0 0
-4.3666 1.2125 -14.4980 -0.636 -0.390 0.666 72 21 10 0 0
-4.3790 1.2150 -14.5675 -0.654 -0.299 0.695 21 3 0 0 0
-4.6955 1.2431 -16.2352 -0.851 0.148 0.504 37 24 24 0 0
-4.6969 1.2618 -16.2940 -0.930 -0.112 0.349 35 21 20 0 0
-4.6908 1.3029 -16.3782 -0.867 0.052 0.495 32 18 16 0 0
-4.7883 1.1225 -16.3648 -0.018 -0.963 0.268 47 20 17 0 0
-3.9774 1.2509 -12.5094 -0.419 -0.389 0.820 125 63 53 0 0
-4.0017 1.2179 -12.5391 0.124 -0.166 0.978 142 76 60 0 0
-4.2483 1.2714 -13.9186 0.007 -0.465 0.886 66 16 7 0 0
-4.3146 1.1600 -13.9413 0.061 -0.377 0.924 89 45 30 0 0
-4.3397 1.1441 -14.0223 -0.928 -0.343 0.146 69 17 9 0 0
-4.2980 1.3499 -14.3836 -0.314 -0.312 0.897 74 19 12 0 0
-4.3814 1.2471 -14.5158 -0.097 -0.372 0.923 73 22 11 0 0
-4.4046 1.2197 -14.5556 -0.341 -0.889 0.305 22 3 1 0 0
-4.3965 1.3576 -14.8970 0.400 -0.349 0.848 71 17 10 0 0
-4.7149 1.2938 -16.3101 -0.935 -0.250 0.251 36 22 21 0 0
-4.7157 1.3146 -16.3715 -0.780 -0.106 0.617 32 18 17 0 0
-3.9841 1.2852 -12.4964 -0.768 -0.011 0.641 118 51 41 0 0
-4.0338 1.2011 -12.5121 -0.621 0.210 0.755 142 78 61 0 0
-3.9767 1.7006 -13.6002 0.025 -1.000 -0.007 6 2 3 0 0
-4.3071 1.1143 -13.6305 -0.665 -0.524 0.533 82 37 24 0 0
-4.3570 1.1700 -14.0315 -0.937 -0.296 0.188 70 18 7 0 0
-4.3020 1.3962 -14.3793 -0.541 0.278 0.794 86 25 14 0 0
-4.3192 1.3667 -14.3839 -0.231 -0.337 0.913 74 19 12 0 0
-4.6131 1.0531 -14.9816 0.332 0.480 0.812 86 40 33 0 0
-4.7497 1.2752 -16.2695 -0.743 -0.563 0.362 37 23 23 0 0
-4.8190 1.1799 -16.3520 0.081 -0.098 0.992 40 18 15 0 0
-4.8348 1.1546 -16.3613 -0.511 -0.698 0.501 52 25 22 0 0
-3.9271 1.4247 -12.4558 -0.518 0.053 0.854 110 38 17 0 0
-3.9931 1.3285 -12.5194 -0.484 0.130 0.866 116 49 38 0 0
-3.9971 1.6178 -13.3276 -0.938 -0.313 -0.153 39 38 38 0 0
-3.9386 1.8072 -13.5548 -0.502 -0.643 0.579 32 32 34 0 0
-4.2730 1.2107 -13.5802 0.014 -0.349 0.937 125 73 43 0 0
-4.2644 1.3392 -13.8878 0.043 -0.570 0.821 112 64 33 0 0
-4.2792 1.3161 -13.8981 -0.151 -0.419 0.895 81 30 10 0 0
-4.3714 1.2044 -14.0489 -0.937 -0.296 0.188 72 21 7 0 0
-4.4147 1.2878 -14.4898 0.012 -0.201 0.980 63 20 12 0 0
-4.4697 1.2276 -14.5975 -0.331 -0.280 0.901 22 6 3 0 0
-4.8271 1.2191 -16.3383 0.026 -0.049 0.998 30 13 10 0 0
-4.8409 1.1999 -16.3547 -0.062 0.060 0.996 42 20 17 0 0
-4.8549 1.1807 -16.3710 -0.619 -0.610 0.496 53 27 24 0 0
-4.8686 1.1620 -16.3878 -0.455 -0.560 0.692 53 27 23 0 0
-4.0438 1.2934 -12.5347 -0.340 -0.129 0.932 134 77 62 0 0
-4.0621 1.2607 -12.5361 -0.378 -0.167 0.911 135 73 55 0 0
-4.1775 1.1584 -12.8257 -0.754 -0.566 -0.335 76 38 31 0 0
-4.2887 1.3460 -13.8789 0.026 -0.425 0.905 108 60 30 0 0
-4.3016 1.3281 -13.8941 -0.083 -0.439 0.894 81 29 9 0 0
-4.4233 1.3408 -14.5255 -0.535 -0.813 0.231 60 21 12 0 0
-4.4315 1.3366 -14.5548 -0.563 -0.797 0.218 65 20 14 0 0
-4.4970 1.2469 -14.6337 -0.457 -0.648 0.609 37 10 5 0 0
-4.4829 1.3271 -14.7815 -0.208 -0.926 -0.315 64 18 8 0 0
-4.5866 1.1470 -14.8039 0.397 0.491 0.775 83 26 15 0 0
-4.7684 1.2291 -15.9182 -0.460 -0.341 0.820 35 21 21 0 0
-4.8629 1.2201 -16.3576 0.139 -0.005 0.990 44 22 20 0 0
-4.8789 1.1944 -16.3666 -0.153 -0.519 0.841 52 26 24 0 0
-3.7139 1.8994 -12.4117 -0.102 0.026 0.994 113 40 21 0 0
-3.7267 1.8817 -12.4263 0.055 -0.165 0.985 115 42 23 0 0
-3.7440 1.8520 -12.4315 0.085 -0.211 0.974 114 41 23 0 0
-4.0238 1.3826 -12.5385 -0.248 0.190 0.950 118 51 40 0 0
-4.0413 1.3522 -12.5420 -0.315 0.138 0.939 123 62 52 0 0
-4.1953 1.0997 -12.6171 -0.595 -0.312 0.741 46 10 6 0 0
-4.2069 1.0846 -12.6330 -0.706 -0.364 0.608 52 12 9 0 0
-3.9789 1.8276 -13.5128 -0.792 -0.370 0.485 36 35 38 0 0
-3.9889 1.8177 -13.5352 -0.760 -0.300 0.577 30 30 32 0 0
-3.9952 1.8180 -13.5666 -0.619 -0.444 0.648 13 13 13 0 0
-4.0036 1.8124 -13.5928 -0.590 -0.519 0.618 5 3 4 0 0
-4.4044 1.2064 -13.9238 0.036 -0.487 0.873 103 64 50 0 0
-4.4133 1.3693 -14.4043 -0.195 -0.148 0.970 57 13 7 0 0
-4.4519 1.3367 -14.5052 -0.849 -0.402 0.342 57 19 11 0 0
-4.4624 1.3260 -14.5281 -0.775 -0.443 0.451 63 19 14 0 0
-4.4912 1.3023 -14.6051 -0.124 -0.452 0.883 16 4 1 0 0
-4.5111 1.2647 -14.6013 -0.267 -0.275 0.924 21 7 4 0 0
-4.7464 0.9621 -14.9383 -0.124 -0.868 0.480 49 21 17 0 0
-4.7783 1.2618 -15.8981 -0.674 -0.533 0.511 28 16 16 0 0
-3.8559 1.7209 -12.4861 -0.757 -0.439 0.485 117 44 27 0 0
-3.9696 1.5311 -12.5330 -0.179 -0.515 0.838 111 38 21 0 0
-4.0631 1.3623 -12.5375 0.043 -0.072 0.996 124 60 48 0 0
-4.0814 1.3295 -12.5389 0.005 -0.278 0.960 132 72 58 0 0
-4.2125 1.1218 -12.6228 -0.551 -0.133 0.824 45 10 5 0 0
-4.0089 1.8369 -13.5376 -0.696 -0.232 0.679 22 20 23 0 0
-4.0146 1.8388 -13.5704 -0.538 -0.442 0.718 8 7 8 0 0
-4.0274 1.8213 -13.5862 -0.422 -0.478 0.770 5 3 5 0 0
-4.0514 1.7736 -13.5755 0.605 -0.104 0.789 4 2 5 0 0
-4.3609 1.2210 -13.6076 -0.589 -0.133 0.797 69 30 17 0 0
-4.4100 1.2469 -13.9149 -0.346 -0.250 0.904 88 44 33 0 0
-4.4220 1.2316 -13.9323 -0.537 -0.276 0.797 95 49 33 0 0
-4.4613 1.3680 -14.4863 -0.859 -0.437 0.266 61 21 16 0 0
-4.4624 1.3846 -14.5358 -0.714 0.119 0.690 55 15 9 0 0
-4.4762 1.3644 -14.5494 -0.707 0.226 0.670 61 18 13 0 0
-4.5120 1.3208 -14.6069 -0.297 -0.480 0.825 19 4 3 0 0
-4.5306 1.2869 -14.6069 -0.328 -0.155 0.932 22 5 5 0 0
-4.5607 1.3417 -14.8988 0.689 -0.662 0.294 80 25 13 0 0
-4.8110 0.9128 -14.9725 -0.648 -0.164 0.743 61 36 31 0 0
-4.7563 1.3231 -15.7991 -0.916 -0.401 -0.000 21 10 10 0 0
-3.8003 1.8572 -12.4391 -0.553 -0.088 0.828 112 39 22 0 0
-3.8113 1.8438 -12.4570 -0.762 -0.322 0.562 114 38 22 0 0
-3.8256 1.8218 -12.4682 -0.314 -0.194 0.929 115 39 23 0 0
-3.8725 1.7457 -12.4933 -0.816 -0.413 0.405 116 40 24 0 0
-3.9782 1.5453 -12.4747 -0.431 -0.012 0.902 113 38 21 0 0
-3.9903 1.5446 -12.5313 -0.107 -0.370 0.923 112 39 22 0 0
-4.1513 1.2743 -12.5947 0.151 -0.735 0.661 146 81 60 0 0
-4.1633 1.2582 -12.6099 0.151 -0.735 0.661 135 66 30 0 0
-4.1752 1.2421 -12.6251 0.248 -0.713 0.656 110 38 6 0 0
-4.2328 1.1354 -12.6213 -0.504 -0.154 0.850 45 11 5 0 0
-4.2462 1.1153 -12.6329 -0.504 -0.154 0.850 50 12 9 0 0
-4.0263 1.8629 -13.5459 -0.817 -0.245 0.522 12 11 14 0 0
-4.0386 1.8468 -13.5630 -0.642 -0.161 0.750 6 4 4 0 0
-4.0413 1.8573 -13.6033 -0.783 -0.486 0.389 4 2 5 0 0
-4.1438 1.6293 -13.4960 -0.697 -0.644 0.316 5 2 3 0 0
-4.1436 1.6475 -13.5430 -0.562 -0.760 0.326 5 1 2 0 0
-4.4145 1.2906 -13.9088 -0.147 -0.231 0.962 92 50 41 0 0
-4.4279 1.2713 -13.9226 -0.537 -0.276 0.797 87 39 25 0 0
-4.4408 1.2534 -13.9375 -0.537 -0.276 0.797 94 44 30 0 0
-4.3937 1.5224 -14.4206 -0.610 0.258 0.749 86 30 18 0 0
-4.8025 0.9765 -14.9530 -0.493 -0.613 0.617 45 17 14 0 0
-4.8292 0.9390 -14.9826 -0.648 -0.164 0.743 58 32 28 0 0
-4.7824 1.3288 -15.7866 -0.346 -0.936 -0.068 19 9 9 0 0
-4.8211 1.3028 -15.9049 -0.742 -0.457 0.491 20 10 10 0 0
-4.8309 1.2961 -15.9344 -0.582 -0.483 0.654 23 12 12 0 0
-4.8506 1.2585 -15.9302 -0.252 -0.200 0.947 29 17 17 0 0
-3.8439 1.8423 -12.4719 -0.425 -0.255 0.868 114 38 22 0 0
-3.8576 1.8221 -12.4845 -0.425 -0.255 0.868 115 38 22 0 0
-3.9200 1.7047 -12.4764 -0.697 -0.039 0.716 115 40 24 0 0
-3.9414 1.6794 -12.5133 -0.687 -0.469 0.555 116 43 26 0 0
-4.0801 1.4375 -12.5453 -0.290 0.047 0.956 112 43 31 0 0
-4.1607 1.3015 -12.5758 -0.124 -0.191 0.974 135 72 53 0 0
-4.1763 1.2756 -12.5828 -0.124 -0.191 0.974 147 80 61 0 0
-4.1918 1.2498 -12.5899 -0.124 -0.191 0.974 130 59 26 0 0
-4.2517 1.1526 -12.6227 -0.379 -0.205 0.902 45 11 8 0 0
-4.0838 1.7969 -13.5051 0.530 -0.085 0.844 4 3 3 0 0
-4.1073 1.7499 -13.4950 0.559 -0.111 0.822 4 2 5 0 0
-4.1692 1.6683 -13.5780 -0.690 -0.578 0.436 12 5 3 0 0
-4.4360 1.3049 -13.9070 -0.081 -0.435 0.897 83 37 30 0 0
-4.4448 1.2987 -13.9330 -0.669 -0.323 0.669 85 36 24 0 0
-4.6376 1.3392 -14.9652 -0.845 -0.263 0.465 81 28 14 0 0
-4.7325 1.1189 -14.8435 -0.228 0.220 0.949 90 37 25 0 0
-4.8479 0.9638 -14.9912 -0.566 -0.171 0.806 56 30 26 0 0
-4.9682 1.2199 -16.2405 -0.409 -0.899 0.159 41 25 22 0 0
-5.0354 1.2859 -16.7367 -0.099 -0.795 0.599 99 84 80 0 0
-3.8488 1.8826 -12.4627 -0.423 -0.350 0.836 113 37 21 0 0
-3.8782 1.8364 -12.4832 -0.148 -0.344 0.927 115 38 22 0 0
-4.0184 1.5913 -12.5152 0.230 -0.586 0.777 113 37 21 0 0
-4.0815 1.5026 -12.5860 -0.757 -0.173 0.630 109 40 29 0 0
-4.1806 1.3165 -12.5754 -0.124 -0.191 0.974 132 70 51 0 0
-4.1962 1.2906 -12.5824 -0.124 -0.191 0.974 143 77 59 0 0
-4.2232 1.2498 -12.6056 0.151 -0.735 0.661 132 63 23 0 0
-4.4053 1.2994 -13.6043 -0.438 -0.303 0.846 79 39 23 0 0
-4.4278 1.2723 -13.6417 -0.612 -0.640 0.465 78 32 21 0 0
-4.4260 1.5463 -14.3457 -0.910 -0.344 -0.231 96 42 30 0 0
-4.4285 1.5590 -14.3906 -0.951 -0.249 -0.181 94 43 32 0 0
-4.4198 1.6044 -14.4671 -0.933 0.259 0.248 91 39 27 0 0
-4.5442 1.4034 -14.5386 -0.282 -0.956 0.076 59 18 11 0 0
-4.6166 1.3556 -14.7601 -0.719 -0.557 0.416 68 20 11 0 0
-4.6201 1.3874 -14.8598 -0.452 -0.393 0.800 76 24 13 0 0
-4.7502 1.1465 -14.8547 -0.116 0.272 0.955 88 37 27 0 0
