ply
format ascii 1.0
element vertex 714
property float x
property float y
property float z
property uchar diffuse_red
property uchar diffuse_green
property uchar diffuse_blue
end_header
2.8566141619654726 0.47333127903903094 -15.580062677896894 67 67 69
2.8451586786707246 0.49353034786457783 -15.651734674232738 62 61 65
2.862124411131452 0.4712540498201827 -15.66296978602702 60 59 64
2.87110732711898 0.4609145514722073 -15.69128031106255 68 67 72
2.895435536828405 0.42762040640187315 -15.686634039784447 51 49 55
2.942330601455753 0.36054379890941934 -15.63313319824027 32 29 36
2.995504864189744 0.2840376134647107 -15.565582992124728 33 31 37
3.012949095515638 0.2640891178746285 -15.622559810488937 48 49 54
3.0446824678849342 0.21964214874368082 -15.600847533835202 49 50 55
3.0973892945964945 0.14374372779036637 -15.532895780250282 71 71 79
3.527453458736363 -0.434495920535813 -15.609354173907978 45 46 50
3.5501999385212883 -0.46567886514723433 -15.60418846841542 47 48 53
3.5908796333656374 -0.5239525116722463 -15.556438137852574 51 51 56
3.6200142419847365 -0.5648136310142844 -15.535672971995139 64 61 68
3.6463667953277366 -0.6014869650436969 -15.521285030340348 35 31 37
3.6791929731130217 -0.6479592962910727 -15.491222626401967 15 11 13
3.704823866443655 -0.6835717205842817 -15.478098705153975 11 6 7
3.730574613344414 -0.7193783801292799 -15.464487657831718 9 4 6
3.752645088460236 -0.7496295453301824 -15.459553084200955 12 2 4
3.7820195809789183 -0.7909456573402842 -15.436795131523601 26 6 2
3.8087364815807243 -0.828254842202262 -15.420228899551844 46 15 5
3.8431078346454894 -0.8771720968086463 -15.384795995200987 69 26 9
3.870134803752097 -0.9149838578455745 -15.366968344075723 93 40 14
3.8968367695964394 -0.952317916615554 -15.349708662700436 110 50 19
3.920039207587945 -0.9843607075429528 -15.340831685312182 123 56 25
3.945573485358188 -1.0199513027145182 -15.326029850031727 125 57 26
3.922725898442888 -0.9821494266311106 -15.430798939850284 126 57 26
3.9868341158640357 -1.0762874427064437 -15.320158373334975 126 53 25
3.993382024908372 -1.0830874391056984 -15.352116297806967 121 47 24
4.01224309089925 -1.108582453887486 -15.353387231789473 121 47 24
4.050268224477737 -1.1632008794279205 -15.306487256381782 161 95 69
4.072565923794418 -1.1939429799551062 -15.298743767206851 160 93 66
4.075529735456042 -1.1953004051339429 -15.33964708297476 109 32 7
4.084942355091781 -1.206455964534456 -15.364372052182773 98 22 3
4.07999681486122 -1.195762658168615 -15.425632438174068 89 29 13
4.082376606046175 -1.1961998610674707 -15.46850613302303 72 27 19
4.083463627125088 -1.1946577864832184 -15.514854766502577 37 7 5
4.080382708996994 -1.186755034285869 -15.572090379311073 17 4 2
4.092139994316719 -1.2014436102938433 -15.591385002578182 11 5 2
4.071779347286781 -1.1671767398549804 -15.69365800630646 12 2 2
4.146705204047087 -1.2781632939887224 -15.549539733898708 11 2 3
4.097740324219088 -1.2002456172497329 -15.726498248815219 12 3 4
4.1508620983229445 -1.2780316432150851 -15.638187471268584 11 2 3
4.171702566795708 -1.3065875442342385 -15.633671438970126 17 12 13
4.1965814139149 -1.3413194895667315 -15.618405722163049 47 46 47
4.2220251500033985 -1.3769283847617695 -15.601435897535556 80 80 82
4.19502326875566 -1.3324076748140419 -15.722879946068325 67 67 69
4.177990549109588 -1.3030819407845433 -15.818574619329487 16 15 19
4.174917441719159 -1.2850428986966653 -16.03173310238084 37 38 42
4.196252094699934 -1.314347194020276 -16.026015024872393 31 32 36
4.238357861166792 -1.3754869587186027 -15.963939892268325 29 30 34
4.257863194386594 -1.4020198756729005 -15.962687580163394 12 11 17
4.297337252792777 -1.4591804388714351 -15.906917508557255 8 7 12
4.272926870350453 -1.4183763807311438 -16.025253073907308 47 46 52
4.348283472745455 -1.5238942488485296 -15.974146024498076 40 41 48
4.374842466866821 -1.561309686581298 -15.952656466761976 40 40 48
4.399213371734792 -1.5953791282777887 -15.936986254437159 52 53 59
4.413228871684583 -1.6135407354564828 -15.949970765960904 69 71 76
4.435857422087847 -1.6449528203557895 -15.938826450471815 61 63 68
4.435300289603374 -1.6406989581179827 -15.992583786442385 52 52 57
4.450243122059063 -1.6602901697448802 -16.002924670266957 52 51 57
4.46308487739068 -1.6766486787989425 -16.01915719542008 55 54 60
4.47953252280978 -1.6985631710048619 -16.025155709780705 54 53 59
4.489097719779663 -1.7098747047999288 -16.050663415601576 53 52 58
4.525345816543863 -1.7623258803737256 -16.000035332715242 52 51 57
4.526708907811417 -1.760994686931606 -16.048896417603665 52 51 57
4.555137671246625 -1.8014172706175255 -16.020161073562203 51 50 56
4.580829956121584 -1.8376355897269363 -15.999005948001614 54 53 59
4.595960672582812 -1.8575588055341568 -16.00816034164486 57 56 62
4.63779872792834 -1.9187518106314734 -15.939688305975242 69 68 74
4.626861737922477 -1.8984046743336798 -16.02444037418435 64 63 69
4.618795528293427 -1.882466768144921 -16.10126129433822 27 25 32
4.642133642522559 -1.9150871260867088 -16.08633641840102 46 44 50
4.651123159761648 -1.9255140347644373 -16.11344130786456 72 71 74
4.628247490388601 -1.8865966236343823 -16.234767150689354 89 89 90
4.6209409077394525 -1.8717498924279026 -16.310650163416835 101 101 101
4.624317047801806 -1.8734320985944253 -16.355155138079738 136 134 135
4.642383940733123 -1.8978785065750907 -16.3559899530834 139 138 139
4.661225318954488 -1.923533636829009 -16.354390190325887 141 141 141
4.613712257397483 -1.842610173684677 -16.607791520776402 144 142 142
4.634481627783701 -1.8712274122859816 -16.60085134038402 145 145 143
4.601422017681246 -1.8162171713713926 -16.757247760564198 149 149 148
4.613923610293084 -1.8319676088664254 -16.77573568054887 153 154 153
4.6364030923226025 -1.863234932744243 -16.763709439805645 158 158 158
4.663739893568635 -1.902073058933495 -16.736566599025785 163 163 163
4.6850500239433845 -1.931550719419727 -16.72767347013353 168 168 168
4.715762704513913 -1.975682646746428 -16.68953230953831 174 174 174
4.7383688081103505 -2.0072102527360123 -16.676145065375756 179 179 179
4.738311554791538 -2.003427272376224 -16.733083442750406 183 183 183
4.762387867407558 -2.0372597097306393 -16.714916225551093 184 184 185
4.772144944322618 -2.048769095024795 -16.741382179636147 191 190 192
4.840234097515048 -2.1513200201171037 -16.584421928497672 192 192 194
4.847432625624282 -2.158868009961304 -16.61844387705418 194 195 197
4.836982576120189 -2.1351050300838725 -16.765833035846846 199 200 202
4.857492285294629 -2.163426648228386 -16.758024500948792 199 199 201
4.910838805962711 -2.239399398552737 -16.702261017734443 201 201 203
4.948354060076188 -2.2906535306592346 -16.696433445135956 203 204 206
2.0755164353058886 1.484861011499519 -15.615090349872641 65 66 68
3.548657346044707 -0.5095518535340604 -15.605712870494415 64 63 68
3.589771306587598 -0.5682806007813381 -15.556895507506354 62 60 66
3.61891956602644 -0.6090477051350343 -15.536051404993398 13 10 16
3.648065513101284 -0.649827030337379 -15.514964245551697 7 4 9
3.684823441062081 -0.7020730108563855 -15.475442907506665 15 3 3
3.717822644420938 -0.7486861189908058 -15.44456098828297 43 14 7
3.7594029808234 -0.8082361173135295 -15.392734645232963 81 32 13
3.7888390101127696 -0.8495276947612007 -15.369753116809878 110 49 22
3.8163607919236 -0.8879524033876214 -15.351142240369445 126 59 23
3.843951004325368 -0.9264949485007339 -15.332132048341371 132 58 19
3.868827776561294 -0.9609625062444715 -15.319494727689861 132 58 17
3.8529241989817242 -0.9339552479169688 -15.406304820666765 136 59 22
3.8687575356419615 -0.954787178911074 -15.415768326339506 130 54 22
3.8859839364015905 -0.9777241838364699 -15.421754205114638 125 52 24
3.908403827380649 -1.0085042520086986 -15.414852311230167 121 49 21
3.952051046403807 -1.0713427748626447 -15.35524991179116 128 54 28
3.966420175215161 -1.0899947228882017 -15.367852511824974 118 42 18
3.9857081282552977 -1.1160799276366022 -15.36816997669543 117 45 20
3.992123320228039 -1.122717446850456 -15.400551894355758 167 101 75
4.058130208047223 -1.2133356407278733 -15.380264704312326 89 16 1
4.065294497275586 -1.2211060836890182 -15.410761465083493 75 16 5
4.068256807436425 -1.2225096619109985 -15.45202048470886 80 35 27
4.059991748272747 -1.2069002879302957 -15.522054010045286 45 12 7
4.0608313240907945 -1.2050621533022605 -15.56915096409189 21 5 2
4.055330585236674 -1.1936030367586117 -15.632710180347479 13 4 2
4.069914489078145 -1.2125733716448375 -15.644874186115693 12 3 3
4.077048096397318 -1.220247138452005 -15.676244177048163 11 2 3
4.085187161478448 -1.2294404636191478 -15.705100982166185 12 3 4
4.095969231450811 -1.2426401192716572 -15.727162570827975 11 2 3
4.147465206546462 -1.317648351328061 -15.643068127472404 12 7 9
4.169478963480329 -1.347923956228076 -15.635450255979443 40 39 39
4.191462518157042 -1.3781640839143767 -15.627746882121034 74 74 76
4.188509877757716 -1.3705164923374582 -15.685561526022298 77 77 81
4.153278023014929 -1.3137760370627705 -15.828951565827417 25 24 30
4.1533213028779885 -1.3106330764480845 -15.879644062836256 33 32 38
4.156369500913134 -1.3120480613693264 -15.922563068115423 34 33 38
4.165289982584138 -1.3223901279977879 -15.949976872683724 23 23 26
4.167156011538522 -1.3219870437049286 -15.9963486595325 21 20 22
4.169983775545309 -1.3230366958706377 -16.040328317193072 15 15 17
4.207039699444041 -1.3762290886094872 -15.9922078023008 17 17 19
4.20236885600527 -1.365845890860328 -16.05651598975386 9 9 13
4.219863860590914 -1.3892425601314287 -16.060979878827606 7 6 11
4.242290735000067 -1.4201679527490887 -16.051926603735055 40 39 44
4.260337941876157 -1.4444212245136736 -16.05466104584371 43 42 48
4.278088261106033 -1.468227533013545 -16.058110242510224 30 30 36
4.308120382941168 -1.5107960459543595 -16.02768437816539 36 36 44
4.334096828048698 -1.5471888576573294 -16.0081292216335 41 41 49
4.352222513326718 -1.5715988495130455 -16.01006399997882 49 50 55
4.365374702734633 -1.588411359885769 -16.02571258904072 73 76 81
4.376174356188048 -1.6016263880761699 -16.047907590127966 59 60 65
4.395978051957546 -1.6286164500357048 -16.044950215815504 51 50 56
4.415870314904582 -1.6557507563426608 -16.04160692092455 52 51 57
4.44167960549093 -1.6919546216912673 -16.021461342512218 55 54 60
4.473247642593035 -1.736996319710773 -15.984790587745525 53 52 58
4.470460757134112 -1.7294121181234345 -16.04515369414683 52 51 57
4.499264439703705 -1.7702412405050714 -16.015943248780026 51 50 56
4.539708955335728 -1.828944082239084 -15.953189709147438 51 50 56
4.544861313297458 -1.833531364813024 -15.990971832094957 49 48 54
4.581679626557656 -1.886715380458737 -15.937891907451828 53 52 58
4.6373619973373295 -1.9655932207464293 -15.882242301681453 62 61 67
4.621137349481325 -1.9373402798307273 -15.981895669277462 77 76 82
4.650670796765659 -1.9794019446847217 -15.94880842355486 27 25 31
4.640809926511168 -1.9608940930052388 -16.0305372548562 37 34 41
4.631740380509867 -1.9435758311196931 -16.11038862492832 58 56 60
4.626430340026212 -1.9320175099922414 -16.17960533658522 81 81 83
4.614554508899469 -1.9103254170850983 -16.268571718721716 80 80 80
4.599992314267314 -1.8844634716262796 -16.36599330734462 114 113 113
4.609962081109987 -1.8963769031065834 -16.391012864163514 132 130 130
4.631517121557257 -1.9261504907972977 -16.38151343071799 135 134 132
4.677439963644427 -1.993524704530519 -16.298860952414383 135 134 131
4.62308050785538 -1.9026820472043617 -16.572309413423714 140 139 137
4.580985526930198 -1.8341450882124146 -16.75540451386208 144 142 143
4.585668936071688 -1.8378174341068458 -16.797623876541365 148 147 147
4.611740632552826 -1.8745424314973969 -16.774850218319678 153 153 153
4.628504759378347 -1.8968907499161602 -16.780250602256753 159 159 159
4.659876111649022 -1.941844900423078 -16.740751055580606 164 164 164
4.682452429728889 -1.973210554252434 -16.727929386377994 169 169 169
4.715863281408808 -2.0213676142066 -16.681422566595405 174 174 174
4.713284680030984 -2.013796438429921 -16.746043000990415 180 180 180
4.72998538741786 -2.036086051994392 -16.751013812419504 182 182 183
4.766899958494939 -2.089725322917282 -16.692788295532214 187 186 188
4.772122046226963 -2.094233174145354 -16.733322443370113 190 190 192
4.830438552120605 -2.1811339400939582 -16.60708958817074 195 195 197
4.845672648506864 -2.201204112402741 -16.615772768361634 194 195 197
4.838051198910614 -2.1857739999790873 -16.696760604531143 197 198 200
4.8340776021110825 -2.1759846796236273 -16.766607614789443 198 199 201
2.0651094954049327 1.4475122613761622 -15.590325777084985 126 127 129
3.5315970983564684 -0.5330891734994339 -15.595506521557503 75 72 76
3.564974073264792 -0.580034927268203 -15.565127385834558 39 37 40
3.5942380559350458 -0.6208479696679357 -15.544168804376085 8 5 7
3.634788413485812 -0.6785621320533934 -15.496175999605473 28 14 9
3.681564831527533 -0.7456200550602015 -15.432937469101002 86 45 32
3.7240213129427353 -0.806242606979148 -15.379497039221484 116 54 34
3.7601548224617902 -0.8574242724210093 -15.340750717123242 129 58 33
3.786453507865777 -0.8938954862500399 -15.325284123974509 129 55 28
3.7991994829382563 -0.910071213204998 -15.342289690771977 129 56 26
3.81350079389214 -0.9285784910355908 -15.355529488428655 128 51 22
3.829969165458067 -0.9503367928292024 -15.363482285055397 127 46 21
3.8399327457990644 -0.9623422071065892 -15.387213460960684 122 42 19
3.8562570372830045 -0.9838887147574438 -15.395446661688343 132 56 31
3.8744649694426965 -1.008265984749106 -15.399003904432483 134 59 35
3.896371888741644 -1.0382022871249115 -15.39337645892833 120 45 21
3.9213077002944576 -1.0726966856383866 -15.38012829465976 119 43 19
3.959036933178333 -1.1264233811884106 -15.33502111048541 120 43 18
4.019452599521431 -1.2024678667289885 -15.425884068167004 90 17 2
4.048837480977373 -1.2437204831952542 -15.400414319884003 71 9 1
4.049299958257351 -1.241437885088005 -15.447888127239455 79 30 20
4.054330883169014 -1.2460248097771007 -15.483955983185538 58 20 13
4.058015557642296 -1.248575601329958 -15.523577542871998 32 9 6
4.0636002937289994 -1.25398150656593 -15.558487709023424 15 3 2
4.053350397265381 -1.235503737965197 -15.634129083200833 13 4 3
4.057429418564397 -1.2386160986659238 -15.673278912639013 12 3 4
4.075195209832871 -1.2623717452384389 -15.677234314148688 11 2 3
4.092808865108153 -1.2859031720211558 -15.68149532853814 11 2 3
4.131252976311212 -1.3408927758901 -15.631534198757759 11 5 6
4.149286203803076 -1.3650794961720276 -15.63434944864725 32 30 31
4.16436234446336 -1.38480391671402 -15.644804975389352 59 58 60
4.162191085839366 -1.3784612011681778 -15.70048400363112 78 76 80
4.159514620670532 -1.3713390470025626 -15.757747120641138 46 43 50
4.160478994031485 -1.3697078140809325 -15.80565514686591 29 27 32
4.170813234777072 -1.382241991888999 -15.828927822470046 24 21 26
4.183114099922146 -1.3977505971626885 -15.847009006171785 17 15 17
4.1809680553343895 -1.3913833532405437 -15.903644713490712 14 11 13
4.186307709746428 -1.3963390977013912 -15.940499786079602 13 10 12
4.1596803289355595 -1.3528475406602292 -16.06335233919377 12 10 12
4.170982840200104 -1.3668086717308086 -16.08468149170486 9 8 10
4.267528920143604 -1.4973867340407017 -16.08199605488315 34 35 40
4.294640661457777 -1.5353780777093595 -16.059640840240217 39 40 46
4.315000834634247 -1.5631251609874957 -16.055644476627023 42 43 48
4.325958424916774 -1.5765862485977111 -16.077530896455237 67 70 75
4.356318450082067 -1.6195542207592588 -16.045559868821698 67 68 73
4.368570825100388 -1.63499268113571 -16.06371689895894 51 50 56
4.390614909103748 -1.6653340391350495 -16.054500723975135 53 52 58
4.404968647510479 -1.6839770504923166 -16.06668051670824 53 52 58
4.4224859190256165 -1.7074408362216884 -16.069920090463963 52 51 57
4.44549325232746 -1.7392760219338301 -16.05755763673335 51 50 56
4.461594365085351 -1.760596019666636 -16.06456683935038 51 50 56
4.495524477367496 -1.8091083973709514 -16.020806787966038 49 48 54
4.524156238369904 -1.8495633504471751 -15.991750425837635 47 46 52
4.555963071884779 -1.8948830960438876 -15.953289594240342 51 50 56
4.543905655014398 -1.8732576815091289 -16.040460361995756 54 53 59
4.614102629499693 -1.9772315394512727 -15.891009742660097 57 56 62
4.64837039158455 -2.023172145382082 -15.896692102151206 39 37 44
4.637932710361447 -2.0039908468590673 -15.97967949164012 33 30 37
4.627559298665529 -1.9848802086885202 -16.06293066782129 49 48 52
4.617952407980411 -1.9669148484191572 -16.144387795770392 75 75 77
4.611997312247962 -1.9545132491667898 -16.215542091523297 79 79 79
4.586506155721672 -1.9121677968461217 -16.34474172992261 94 93 92
4.60798551110793 -1.9417437919592793 -16.335566906488317 125 123 121
4.633736980998161 -1.9778794073151902 -16.31351027807534 126 125 121
4.667110522169578 -2.0257197824957265 -16.268447017143945 129 126 123
4.546887483161957 -1.8310931975137956 -16.79474047268355 137 134 135
4.5652894454599 -1.8559029437773287 -16.79551552536815 143 141 142
4.583652728034339 -1.8806604596003913 -16.796290287495964 149 149 148
4.601671514311508 -1.9048955942887478 -16.797996439031337 156 156 154
4.6315124429433165 -1.94731921289305 -16.763464391531663 161 161 159
4.65533642478947 -1.9805075117173505 -16.74701979722384 167 167 165
4.6818808414125455 -2.0178977601207952 -16.721966325090264 171 171 171
4.7239780038312515 -2.0792558745159475 -16.648589216059513 177 177 177
4.746538147505065 -2.110554992549236 -16.63511650935343 179 179 180
4.759053850192712 -2.1263866468990535 -16.65266130750904 184 183 185
4.795788195264357 -2.179560724781866 -16.594633405563684 188 188 190
4.810480840439579 -2.1987665748019154 -16.60509788319294 194 194 196
4.808092819657809 -2.191615913895604 -16.66918877817231 194 195 197
4.821161466512134 -2.2083088251625576 -16.68486642651034 196 197 199
4.822648356756857 -2.2071133845413176 -16.737183626622098 198 199 201
3.4677060360345653 -0.4897927855811526 -15.646720831682057 53 48 50
3.532118712790095 -0.5798626401274465 -15.59223573427716 32 29 33
3.5771256458842773 -0.6439709054595522 -15.534378386751692 10 4 8
3.6201150267533286 -0.7051048603922787 -15.480808447990436 64 37 30
3.6658749079073365 -0.7703909934333311 -15.420207274522888 120 63 44
3.7108737577148885 -0.834573452626298 -15.360915697958307 120 58 38
3.7386904408694956 -0.873186748615109 -15.342164135353068 122 57 39
3.7621272927389873 -0.9052866850230394 -15.333672887137105 122 51 30
3.7815360665744233 -0.9313917155041356 -15.334696263192074 126 50 26
3.798346957143182 -0.9536290591844061 -15.341878122838072 125 46 24
3.8149420944335404 -0.9755484862736825 -15.349515931179866 127 50 26
3.8266135681750857 -0.9901249559417771 -15.369039496514702 128 51 26
3.852492548175941 -1.0259065107698548 -15.353986734249625 123 46 21
3.864818623642611 -1.0414653295236214 -15.37182723765224 121 46 21
3.8874126882391495 -1.072359398373898 -15.364510327970843 122 46 23
3.9194945212593497 -1.1174375571583965 -15.33370995001654 121 44 21
3.9526884378741167 -1.1641961695770222 -15.29985525826685 122 45 17
4.020633993116741 -1.2486877998621368 -15.41967029906982 80 14 4
4.0275074693588735 -1.256099547431269 -15.450930960651025 77 22 11
4.033853931761237 -1.2627162412849078 -15.48361698479776 71 32 21
4.043236072683997 -1.2738768317847713 -15.508694970820878 41 12 7
4.033482154853464 -1.2563438736634405 -15.582576480499686 20 4 3
4.03683499824414 -1.2584462839337167 -15.623327133690161 14 4 3
4.043459731952873 -1.2654483627177555 -15.655840624383915 13 3 4
4.073285723282263 -1.307264548463107 -15.628761574729225 12 2 3
4.106564180192548 -1.3542811630218825 -15.59247923097795 11 2 3
4.1146857889220705 -1.363538521560634 -15.620993280834547 12 4 6
4.1310396740264625 -1.3851587557895595 -15.628192030377226 23 18 19
4.162346497932022 -1.429254144066749 -15.596345782137856 41 37 40
4.164954676227114 -1.4302259098781978 -15.639232519678458 53 49 51
4.165048958670327 -1.427407201467731 -15.688884767218166 59 54 57
4.173900482928674 -1.4377495923764352 -15.715696376305758 26 21 23
4.18092784356974 -1.4453431673305053 -15.74738904208887 19 15 16
4.182923124784808 -1.4453559850463185 -15.792512074502438 14 10 10
4.175640975483286 -1.4313871442896504 -15.862486095472894 13 8 9
4.200254629753376 -1.4654456840651164 -15.847722883327936 13 8 9
4.161072329081217 -1.4033807116327823 -16.00349415499939 12 8 9
4.1752289265020295 -1.4216674365883017 -16.016950520923352 9 6 7
4.174271031961266 -1.417163282787965 -16.071102486217626 9 6 9
4.180062911425128 -1.4228268433573685 -16.107251876586208 13 10 14
4.189452871864472 -1.4339127620325351 -16.13376615413081 62 61 65
4.274219956770779 -1.5526490333802796 -16.05861958290026 41 43 48
4.29319380702236 -1.5782347814582334 -16.05851272571858 44 46 51
4.310241686763797 -1.6009159003854974 -16.06359981211131 59 62 68
4.319086478125501 -1.611196317865729 -16.09130300220497 68 70 75
4.339709059265156 -1.6392908022323889 -16.08637529115721 53 53 58
4.3604125975850945 -1.6675167242890367 -16.08107177573008 54 53 59
4.402638158073437 -1.725235445295307 -16.067709832276318 51 50 56
4.4269629299342546 -1.7589757042393668 -16.051746983844858 50 49 55
4.456184962244689 -1.8001518492989241 -16.02173208641004 48 48 53
4.474872879746407 -1.8253749303901916 -16.021240755383076 47 46 52
4.519199653220703 -1.889493853010336 -15.947748407183902 47 46 52
4.522908512920252 -1.8920172460698401 -15.989493129877797 49 49 55
4.5609560275326135 -1.946654530767959 -15.933130997654072 52 52 58
4.605409657170817 -2.004840662656897 -15.962519509948848 55 53 59
4.629113410210842 -2.037750721886165 -15.946438326994581 27 24 31
4.622553278786916 -2.0246475800277217 -16.01822735403584 42 41 45
4.605137126154054 -1.9950055296581644 -16.122099738053034 69 70 71
4.611588307290271 -2.0016549394994447 -16.156613867814585 74 75 73
4.594646865482587 -1.9726792081763511 -16.26004224667467 89 89 87
4.601688798706255 -1.9802003204851806 -16.293287418792023 115 113 110
4.62295232857367 -2.009386078216565 -16.284530467748827 120 116 113
4.641524324620729 -2.0344794211467967 -16.283591796720586 121 118 113
4.512922174768056 -1.8318195837129299 -16.777214824093846 130 125 124
4.535765638646146 -1.863353226787991 -16.764784909840586 134 130 130
4.554473959377751 -1.8885854228878038 -16.76460356933766 138 135 135
4.573840324162874 -1.9148301143735171 -16.762309265967872 144 143 142
4.590312188710646 -1.9366599143221013 -16.768656611188074 152 152 150
4.607126942939705 -1.9590185587805529 -16.77388171824784 157 157 155
4.6355469819408 -1.9991309521947889 -16.74357273669093 163 163 162
4.65448395857416 -2.0247541618841165 -16.741996572283924 168 168 168
4.695998504141682 -2.0849429745996817 -16.67084427493662 174 174 174
4.718472537005339 -2.116012576954983 -16.657841216201668 178 178 179
4.756647098111548 -2.1711463700607787 -16.595997239365612 181 181 182
4.753500340888906 -2.1629865659706455 -16.66202801023897 188 188 189
4.790814251366951 -2.216840157512757 -16.602205373675332 191 192 194
4.782992172345186 -2.2014948640919343 -16.683110854865852 193 194 196
4.798965810736112 -2.2226372225275446 -16.689723885890913 196 197 199
4.800060426355858 -2.220942726413079 -16.743158048922812 198 199 201
4.826029312100599 -2.2574349773055795 -16.718169314457153 198 199 201
4.839062604997193 -2.2740699780503224 -16.733940779530087 200 201 203
4.846644977643818 -2.282326924825089 -16.76706381208298 201 202 204
3.542734415215672 -0.6442096754675362 -15.517327295706433 32 27 31
3.562106639203674 -0.6701371567004948 -15.519726201118914 14 7 10
3.6026677561701126 -0.7274481620381898 -15.47207507110099 65 34 27
3.6333559796632438 -0.7701584942760737 -15.447354936920673 114 55 40
3.6722691843904087 -0.825071624829766 -15.402849239062935 118 53 38
3.7196591974653597 -0.8925716620126645 -15.33776949625451 121 52 33
3.7433079731466723 -0.9249032181013845 -15.32884877444576 122 47 24
3.7620014741907966 -0.9498955971218912 -15.33162878563197 130 53 27
3.77333791285396 -0.9639792728512946 -15.351994602777337 127 50 26
3.784542342405045 -0.9778659704515569 -15.372697581981804 123 46 22
3.8163352744149988 -1.0223125317281996 -15.343626342708733 131 54 25
3.834828150046407 -1.0470280551414826 -15.34652678001679 124 46 21
3.8552307220962376 -1.0745853515277934 -15.344685378652528 116 39 15
3.8746670021327096 -1.100714115882675 -15.345079895492418 121 45 21
3.9046395939673335 -1.1425079593298424 -15.319551882052409 122 45 20
3.9387083623292476 -1.1904071907282345 -15.283679355482743 128 51 22
3.983683833531722 -1.2435370953656388 -15.412277574485376 104 29 3
4.015252223948403 -1.2877741092587405 -15.381594197101446 89 19 4
4.012114474636268 -1.2803216251972716 -15.437855859988126 81 20 6
4.026286930465267 -1.298652510258008 -15.450709535181167 84 40 24
3.9842259786989667 -1.2331520218047567 -15.605836222299763 51 14 7
4.020575712447397 -1.284532054334556 -15.562792691002581 29 5 4
4.023271093273074 -1.2857307255338073 -15.605075261650079 17 4 4
4.036431188527525 -1.3025358136897296 -15.620779251010422 15 2 3
4.064133051308683 -1.3410481834554941 -15.599190824502028 13 3 4
4.087360429878678 -1.3728939205707036 -15.58885655510631 13 3 4
4.095858932052844 -1.3827498750536895 -15.616350157690874 13 4 4
4.117402273389438 -1.4120930963182747 -15.610137166884618 18 8 9
4.137324806429958 -1.4390226347664763 -15.607979995225682 21 14 16
4.179660041473312 -1.4994696466590023 -15.547286140824037 19 12 14
4.184350382782484 -1.5036431504646242 -15.584507530859067 20 12 12
4.189203405778324 -1.5080524591338067 -15.621434304581825 14 8 8
4.193634523685291 -1.5118228594707865 -15.659601667510055 13 8 7
4.196845069858391 -1.5137579704399355 -15.70113039220208 10 5 5
4.183952171113303 -1.4915669751141678 -15.785482434423903 11 5 5
4.177898451325626 -1.4795964557088492 -15.852099212238997 11 5 7
4.160159571114839 -1.4500954621155024 -15.950204765003917 11 5 7
4.166852230981212 -1.4571900122117691 -15.983474071165451 9 5 6
4.169653061924215 -1.4584421745001261 -16.02729597343277 7 5 8
4.171610192986647 -1.4584186141834667 -16.073565170675316 8 7 10
4.182308461201383 -1.471501673281245 -16.096403235896936 60 58 63
4.207292701605583 -1.506028664707297 -16.080541374947195 45 44 50
4.227352746103219 -1.533173733440739 -16.077852886103248 38 39 44
4.2563338097006165 -1.5737279514467017 -16.050679669455917 38 41 46
4.272602085507537 -1.5951951255262582 -16.0580237216704 40 43 49
4.273440400736375 -1.5934706671849348 -16.107698178746375 57 60 65
4.298049073246897 -1.6274798084839777 -16.09205444652034 72 74 78
4.314487718375201 -1.6492112255684095 -16.09878876865319 57 58 63
4.336330353219147 -1.6790790515127414 -16.09045278102155 55 54 60
4.352446779625409 -1.7003365573828084 -16.097890100511304 51 50 56
4.393941449090903 -1.7598160088736927 -16.034350361714676 48 47 53
4.412552309549199 -1.7848527339627962 -16.03442168056406 46 47 52
4.4314076097247925 -1.8102644952699505 -16.033689408779342 47 48 53
4.466228982423456 -1.8597531360370345 -15.987772233138918 48 49 54
4.5083878895423455 -1.9203320937646868 -15.920648890064488 46 47 52
4.513671159223447 -1.9253108774902392 -15.957739707546452 48 49 54
4.537157680097738 -1.957754501027873 -15.943065434633846 50 51 56
4.597618294143111 -2.0370419519043104 -15.978975098591608 23 20 27
4.583053418829621 -2.0119951560784077 -16.073883446582435 38 36 41
4.592663138950116 -2.0234838972322313 -16.098979912023744 62 62 63
4.607410559319923 -2.0427436265929444 -16.1091302273664 68 72 69
4.589697937151917 -2.0128706044783495 -16.214329899026424 83 84 79
4.598249598881823 -2.022734938322637 -16.242923194111416 103 101 99
4.618675603552379 -2.050582954154943 -16.236568001649236 113 108 106
4.640095154225568 -2.0799459336218256 -16.227110298307647 114 111 107
4.51744984564703 -1.8877256151045634 -16.700825224362028 124 119 116
4.533623642667829 -1.9090639798670015 -16.708198683058527 129 124 121
4.550046126767124 -1.9307838741726933 -16.71475499322294 134 130 128
4.566174826712186 -1.9520620817504932 -16.722119383848213 140 139 137
4.58078249844886 -1.9710339266762888 -16.734008637579308 148 147 145
4.580492918585997 -1.9673702227049068 -16.791026417556317 154 154 152
4.614356208334059 -2.015610061129445 -16.744407533470145 160 160 160
4.631343931373409 -2.038211029499273 -16.74886451151665 164 164 166
4.668021211668172 -2.0907732218833335 -16.69290872648046 170 170 172
4.710845230397796 -2.1527202712478726 -16.617544863063127 175 175 176
4.74014204229444 -2.1941073654707983 -16.58326568780573 180 179 180
4.755200419175596 -2.2138263310207646 -16.592704677565973 185 185 186
4.765430300576144 -2.2261904234760106 -16.61708839583082 188 189 191
4.790317556379666 -2.26089688762179 -16.595828517600292 193 194 196
4.774703312457454 -2.2338488676237445 -16.700999548618107 194 195 197
4.794656392679545 -2.2610326209146487 -16.695131016970542 199 200 202
4.8035250829320075 -2.27130663999697 -16.72401819003759 199 199 201
4.820381051392413 -2.293772796510118 -16.727735673367185 201 201 203
4.866864631504384 -2.3615055437918144 -16.63736404204997 201 201 203
3.5126773819537016 -0.6481928964102108 -15.537866277142264 20 16 17
3.5579999098775446 -0.7122891482791953 -15.479605342919765 15 7 8
3.5967440802949238 -0.766720390738806 -15.436316115335266 67 34 28
3.6234802599460556 -0.8034768009422057 -15.420941911549313 113 55 43
3.6600746227551912 -0.8547772635621573 -15.38204569021351 122 58 37
3.6978950311276044 -0.9079056537986645 -15.339879900521176 131 62 36
3.7162894966405675 -0.9324023533992847 -15.343561858730702 129 55 26
3.7378745049603754 -0.9616112944108819 -15.339538390601168 128 52 21
3.7514643778163856 -0.9790284287473234 -15.354526079716486 128 52 24
3.761587780704155 -0.9913290410394051 -15.377827092431506 125 48 21
3.7907101991971075 -1.0316830825922612 -15.355369686356841 128 51 22
3.810159235558352 -1.0577626766118957 -15.356048060711208 130 52 25
3.827149328734416 -1.0802150387325868 -15.36258428590924 122 44 16
3.8468234416895557 -1.106638193051321 -15.362518510733935 124 45 18
3.9065232332048057 -1.192242051614544 -15.264613668718425 126 47 19
3.9310652998065834 -1.2258941650098079 -15.252083847078644 134 55 23
3.9787891073070227 -1.2805803062724648 -15.421394838151812 97 23 1
3.984424332734841 -1.286244453196594 -15.455673772366556 89 22 4
3.98993503544434 -1.2917178657960582 -15.490376309564319 100 41 23
3.9785925523800323 -1.2721939997210212 -15.567692246937057 72 20 11
3.9827581028982193 -1.2756518225600777 -15.606163619839378 45 10 8
3.9857458174183336 -1.2773543651570378 -15.647762109105146 24 5 4
4.01510112859064 -1.3181838869541807 -15.622373501589777 16 4 2
4.040506062086857 -1.3531637948924624 -15.606798111813873 13 3 3
4.054791494765468 -1.3716413988325797 -15.619508532300225 15 3 4
4.077730217602383 -1.4029762267987849 -15.609936688099202 16 3 3
4.089188541140852 -1.4172598828755731 -15.629807601644437 16 5 5
4.122174195653232 -1.463544309888075 -15.593974441374538 16 6 7
4.146452579895235 -1.4969000743215588 -15.58040465208271 15 5 7
4.157965627094739 -1.5112785424110493 -15.599891448261712 11 3 3
4.16919287349835 -1.5252309071282255 -15.620140391396175 8 2 2
4.185276553239892 -1.546410755990009 -15.627673211221028 8 3 3
4.140592612904073 -1.477114935296993 -15.795032716819385 8 3 2
4.167244085711633 -1.5140124960083226 -15.7750673418569 8 2 2
4.167986513763736 -1.5123217768813912 -15.823477221410787 9 3 5
4.17905697164005 -1.5260124288721473 -15.844647791730386 9 4 5
4.130280932202215 -1.4504780041055652 -16.02539905361452 9 5 6
4.153001665965775 -1.4815113513040288 -16.015984862291745 8 5 8
4.165848354903638 -1.4978239473776505 -16.032891682056718 7 7 9
4.174505316202558 -1.5078842206842822 -16.061076003742752 59 59 64
4.1978126549713375 -1.5398113340035877 -16.049751853216563 48 48 53
4.216012381975718 -1.564121659402299 -16.052080564953133 39 39 45
4.240606398406006 -1.5979896671032847 -16.036918639001126 44 44 50
4.258934504077489 -1.6225062834462722 -16.03863681105709 43 44 50
4.271732326026146 -1.6387617511607626 -16.055390658037556 57 57 62
4.294080840837844 -1.6692991972283817 -16.045905584296666 68 68 73
4.3159870813999985 -1.6991850365382772 -16.03745971421091 55 54 60
4.331082024793151 -1.7188881649171721 -16.047676092116568 52 51 56
4.349113794739853 -1.742990071817208 -16.049696377901476 38 37 43
4.377367713122143 -1.782404454958317 -16.02315730351075 40 39 44
4.3967806346527984 -1.808591980532408 -16.02101813582811 42 43 48
4.413765391005903 -1.8311482617960655 -16.025553520008213 42 43 48
4.4307228074936615 -1.853668313411796 -16.030080189110564 46 47 52
4.480392580039307 -1.9252453254903195 -15.942225405042667 45 46 51
4.495620345247178 -1.9451976661313974 -15.951165624912095 46 47 52
4.530218464875542 -1.9942194348346858 -15.905029185640664 47 48 53
4.571675198936827 -2.044879559593885 -15.995273184542103 28 26 33
4.581735002652953 -2.0570818274871154 -16.018807265988023 38 36 41
4.580036166736272 -2.051599095042441 -16.076470596172356 57 57 60
4.584067752333648 -2.0547215296140813 -16.11774265365276 67 71 71
4.562009073707751 -2.018571832937824 -16.23532410775332 68 69 66
4.577659366492227 -2.039152811113272 -16.243161223614596 90 89 88
4.5988480739791155 -2.068078202832427 -16.23465958803407 107 103 101
4.609989312128519 -2.0818762893855594 -16.255607050486123 107 105 101
4.5313959592630395 -1.957379745735727 -16.597054193054767 116 112 109
4.5423900299808055 -1.9708945148844608 -16.619545125719355 121 117 114
4.558426393104522 -1.9920152790318202 -16.626997708999518 127 125 123
4.576775718481181 -2.016631052921869 -16.6274431297853 135 134 132
4.581664738117387 -2.020928865577936 -16.66828349117775 143 143 141
4.544690846390212 -1.961982363273214 -16.83571805840295 151 151 149
4.572002432203351 -2.0001210620255074 -16.80936391634635 156 156 157
4.603486358095846 -2.044583991705056 -16.77001653068585 162 162 164
4.652050331197752 -2.114898664018238 -16.67815253025747 168 168 170
4.663384259627662 -2.1289313424124536 -16.69953521761302 172 172 173
4.684176595489601 -2.15727742206416 -16.69188088792851 179 178 178
4.711970022033395 -2.196233217043159 -16.66246379663365 184 184 185
4.738119318755995 -2.2327168553893806 -16.6378076775366 186 187 189
4.75929972370765 -2.2616876828538786 -16.628286853429444 192 193 195
4.766607875830011 -2.2696407109349757 -16.661802428216028 196 197 199
4.783686531052313 -2.2924039610004305 -16.664881097058533 197 197 199
4.782810893548375 -2.2879350273952657 -16.724194984939167 201 201 203
3.5605918062850677 -0.7614621828429513 -15.471577335410611 90 50 37
3.6119199630004752 -0.8341636148741287 -15.398654191271184 118 60 40
3.643195297742042 -0.877486582984389 -15.372413986006249 132 70 44
3.6644173961976048 -0.9060764319077581 -15.369663238361582 139 81 51
3.6813381464165387 -0.9283614016861161 -15.376985185295927 132 68 36
3.6982351438443706 -0.9506149974544584 -15.384298552952714 133 59 24
3.715109718920764 -0.9728391646737906 -15.391600313161229 136 61 24
3.7431219384649896 -1.0088702223056272 -15.419789989276206 137 62 24
3.7619033967278037 -1.0339046465610444 -15.422343500853202 136 61 24
3.780646897261107 -1.0588884089009074 -15.424893097645091 134 56 19
3.8002064092508636 -1.0850770707807778 -15.425367739969477 133 53 19
3.880191482320554 -1.2001395834422075 -15.27869767252631 133 52 18
3.902415005271787 -1.2302844134136999 -15.271977454411005 140 59 20
3.9360229188857785 -1.277190132643402 -15.23722246804372 140 61 18
3.92586031789365 -1.251970682698138 -15.453540787567665 117 43 5
3.9586732663827906 -1.297733554030006 -15.420229573982077 103 27 1
3.963764706579261 -1.3026494866747047 -15.455807406056643 97 25 6
3.973996267399734 -1.3151383747432783 -15.47862828017227 100 34 16
3.9669220920408064 -1.3020997560579115 -15.544975725974153 91 29 16
3.9756083798269524 -1.3122972808692817 -15.571906009950144 58 14 6
3.980066028125286 -1.3162506049395972 -15.60959467626519 38 8 3
3.992128454594435 -1.3314237319584086 -15.628117450462494 24 5 2
4.024790115528156 -1.3770161337302724 -15.594204060739207 16 5 2
4.027575363907171 -1.3784935211901885 -15.636266862185426 18 4 3
4.0559132878309 -1.4177196448230784 -15.6130116240926 19 4 4
4.072809787603146 -1.440048657724855 -15.618906079284333 19 5 5
4.103604700630537 -1.4829308682591877 -15.588877933041996 17 5 6
4.119900748932002 -1.5043861238507246 -15.596059528380632 13 3 4
4.135522041773047 -1.524846647765199 -15.604927179659072 10 2 3
4.146273488895112 -1.5381032594850383 -15.626424703201433 8 2 2
4.152082045828163 -1.5440411522789068 -15.660867473597992 7 3 2
4.118865469998264 -1.4921841621004113 -15.797741180799257 8 2 2
4.145599200402829 -1.529087719070544 -15.777704604103793 8 2 2
4.155182354258999 -1.5405918395290925 -15.802684270607905 8 2 4
4.164267693446208 -1.5513553916182312 -15.829032523963493 8 2 4
4.164031830326578 -1.5482954798303075 -15.880202419963855 7 3 4
4.170356806976785 -1.5549542419582023 -15.91410899386032 8 5 8
4.154400536090463 -1.5285503938193026 -16.00770746018969 11 11 13
4.170034248753901 -1.5490018129385232 -16.017055332422228 62 63 67
4.1884625939575395 -1.5736049304992195 -16.018826626020665 42 44 49
4.206275330343269 -1.5972994240809921 -16.022156452041695 41 40 46
4.2236958134873674 -1.6204162427126176 -16.02645544358696 44 41 48
4.245372985004697 -1.6498632043638537 -16.019094351405354 37 36 42
4.264567288863584 -1.675628246116994 -16.018341120566784 36 35 40
4.284329683872234 -1.7022445057992197 -16.015912272864234 33 32 37
4.305436829674949 -1.7308681149648306 -16.00965877470145 26 23 29
4.325563517213438 -1.758041290152808 -16.005949054857247 21 18 23
4.344130207326079 -1.7829000206683467 -16.00641117222398 18 15 21
4.3626569442320005 -1.8077053019726819 -16.006871480506675 22 20 25
4.382454560687719 -1.8344095273715055 -16.003682468058173 30 31 36
4.404979618402045 -1.8651848400571316 -15.992740824879233 39 40 45
4.42477177625136 -1.891897051526131 -15.989266444734929 46 47 52
4.44647653589915 -1.9214683104113384 -15.980276843315096 44 45 50
4.471703579906756 -1.9563023494307652 -15.96117686618031 44 45 50
4.476805659907505 -1.9611236903837064 -15.998784696758173 45 46 51
4.499233977516669 -1.9917966674872263 -15.987333597542193 49 50 55
4.549691284182468 -2.0587370045862876 -16.000084449608096 31 28 35
4.570372507583499 -2.086831915089064 -15.993045212372397 36 34 39
4.565109994325315 -2.0761478622934426 -16.060762741078584 54 55 57
4.562086645076254 -2.068794249458506 -16.122336078334218 66 70 72
4.550498682351134 -2.048610699400432 -16.20911283277634 67 68 70
4.552462092007821 -2.0486834718754645 -16.256829486882353 80 79 80
4.579999778375967 -2.087034600904734 -16.229890974916422 100 96 95
4.5896366628891725 -2.098591448246281 -16.255230277415876 100 100 97
4.484393288933746 -1.9321009766314443 -16.729683462971696 115 113 110
4.499797368490926 -1.9522227775621852 -16.739438981220374 122 121 118
4.515513188126004 -1.9728152402941648 -16.74820869011775 130 129 127
4.530405986585516 -1.99217563715208 -16.75938478344199 140 139 137
4.514972908133486 -1.9660028748665415 -16.861750432815143 147 147 145
4.579473539040643 -2.0568666356221748 -16.779348381913678 160 160 162
4.62435263143503 -2.121315044291406 -16.69914899216885 166 166 168
4.648554251617402 -2.15470536379296 -16.68134369646489 170 170 172
4.659361037889549 -2.167958331199297 -16.70429234024369 177 176 176
4.6870917119254205 -2.206678276601611 -16.675299242447387 184 184 185
4.713112796376453 -2.242841758764481 -16.651252517027274 184 185 187
4.735703563657657 -2.273854434415022 -16.637526585934484 188 189 191
4.760454123583476 -2.3081327497298387 -16.616881119297148 193 194 196
4.756059630779197 -2.2984973011486334 -16.686738408257252 196 196 198
4.769352149721129 -2.315510686216725 -16.701686873834042 199 199 201
4.781115244144173 -2.3302180128797128 -16.721414923541904 200 200 202
4.805548637495841 -2.364043623657582 -16.701284745703113 203 203 205
3.5770428139000074 -0.830702868292807 -15.43110396356767 131 72 42
3.612747500594482 -0.8803438564381656 -15.394711008187254 149 93 61
3.6337775844331945 -0.9085851748327336 -15.39255448780026 144 94 63
3.6474365808706306 -0.9260720911902363 -15.407697425528635 143 92 58
3.749325967729999 -1.0601607538099636 -15.450193501336468 141 68 24
3.769017395696502 -1.0864845522487716 -15.450490956775905 145 70 28
3.941738871551208 -1.3195499720553103 -15.411173958371336 111 37 4
3.949553708542788 -1.3285178332781475 -15.439886565697794 101 31 8
3.960709014121316 -1.3423814103485636 -15.460334419586115 101 35 13
3.9602956422326416 -1.3392709969046868 -15.509775787120574 108 49 28
3.966046647077089 -1.3451964154007996 -15.54393746763968 75 25 9
3.972156523051641 -1.35164299322407 -15.577303934902478 57 14 5
3.9757804611299923 -1.3544338089116348 -15.6170611802534 40 11 5
3.9848888013642974 -1.365272760524543 -15.643049812678463 25 7 2
4.015074868093989 -1.4070774670365145 -15.615445085043962 19 5 2
4.023926663260852 -1.4175425819540441 -15.642026879469114 21 5 5
4.037242390767875 -1.434567083585649 -15.65723282803097 20 6 6
4.04783534827958 -1.4475883281128494 -15.679423224547236 18 6 6
4.048760262322429 -1.4463863849945096 -15.726575997616418 15 4 4
4.064398931047537 -1.4668244804579667 -15.735857929877193 10 2 2
4.077322308189676 -1.4832687853301492 -15.752134683353926 9 2 2
4.085167398704308 -1.492236705380182 -15.781628461554742 8 3 3
4.088397321363506 -1.4944035718566155 -15.823259278501508 8 2 2
4.104603272179801 -1.5156782569345237 -15.831037276470507 8 2 2
4.112580324861067 -1.5248298785733647 -15.860392068105163 8 2 3
4.146505965011091 -1.572227576548495 -15.821363073654327 9 3 4
4.145942505302402 -1.568789495073525 -15.873257886195333 13 8 11
4.151486625080453 -1.5743481600267009 -15.909159926082292 19 16 19
4.162044157663775 -1.587297429888772 -15.931825704276537 34 33 37
4.176111897672691 -1.6054255508614732 -15.945142335617668 46 45 50
4.187511121647572 -1.6196154321615275 -15.965589419388655 31 31 36
4.203391789827898 -1.6404224548203654 -15.973996973635838 23 22 28
4.204959343564675 -1.6400883847071643 -16.020989670025937 21 19 25
4.2268256568394955 -1.6697400752485159 -16.01319140389365 13 12 17
4.244207560052139 -1.6927716272925561 -16.0174139156125 11 9 15
4.264180390791296 -1.7196387870940795 -16.014483739218427 11 8 14
4.284100946856097 -1.7464356107696384 -16.011561560559457 10 8 14
4.301555223190913 -1.769590325043791 -16.015274554344554 10 7 13
4.318248275218593 -1.7916230708571304 -16.02099338783767 9 6 12
4.338724508547723 -1.8192609760561007 -16.016180354891965 10 7 12
4.355515536597991 -1.8414486624296718 -16.02143738220836 19 18 23
4.380802843487856 -1.8762277307549216 -16.002978123872484 36 36 40
4.4021302852708155 -1.9051507269473982 -15.995332613925381 47 47 52
4.42767420913212 -1.9403331267052044 -15.975711860689385 42 43 49
4.449288609254908 -1.9697010167141915 -15.966885951548488 40 41 46
4.448021913011456 -1.9651352453014939 -16.02239668320268 38 38 43
4.473804039807093 -2.00069463846037 -16.00164744406589 46 46 51
4.491938703514165 -2.024915181955432 -16.00234956693876 55 54 60
4.539701336279932 -2.0877428533858344 -16.022831026768472 34 31 37
4.570621080959641 -2.130987124957284 -15.986368377260414 48 47 50
4.547894907712027 -2.094483098836495 -16.104401371436133 65 67 69
4.526320739066198 -2.05965716613248 -16.2197824775383 69 69 71
4.5363369170464845 -2.0718010260183695 -16.244019869015524 79 78 78
4.560982321427955 -2.105717192780169 -16.225643641902685 97 93 92
4.5924868225694695 -2.1498587898574595 -16.186954771432408 99 96 93
4.439074317662203 -1.912866126529579 -16.801492599949217 112 110 105
4.540585083143906 -2.0556405130911024 -16.666285722719348 137 134 132
4.532808096923591 -2.041163010025773 -16.74506426573725 145 145 144
4.572759881633025 -2.097929877742864 -16.68073703352186 152 152 153
4.55739618521933 -2.072102091430904 -16.78275894606905 159 159 161
4.611293916517197 -2.1497360828912644 -16.675648562268105 164 164 166
4.629024172888681 -2.173352838417072 -16.677565781156666 170 170 171
4.641479592421592 -2.1890876712619427 -16.69545740545116 176 175 177
4.661630208193857 -2.2163332078121325 -16.68980968918431 183 184 185
4.686485090733591 -2.2506264775580007 -16.669560080562977 184 185 187
4.71336797130556 -2.2879690748171813 -16.64280168868767 189 190 192
4.73784156189278 -2.321719618538747 -16.62318445377953 192 193 195
4.7344569906605924 -2.3137503455022044 -16.689726786621122 194 195 197
4.746903433685601 -2.3294879494526812 -16.707332721648516 198 199 201
4.767455350743495 -2.357377006083385 -16.699621490713678 201 201 203
4.783445034578482 -2.3784329521684473 -16.706035829508124 202 202 204
4.798850025130223 -2.3986156300025883 -16.714212948139092 202 202 204
3.6281611583581856 -0.949924686051685 -15.309480727370552 127 72 46
3.789041517957905 -1.160205672928563 -15.39957999603035 137 66 26
3.80536045003152 -1.181584759466789 -15.40773220762996 146 76 30
3.8266567744032205 -1.2102149016303647 -15.40371794151563 154 88 40
3.927860923968127 -1.3457735329880212 -15.39461771039085 107 39 9
3.935423156612229 -1.3544111620456958 -15.42386763754434 101 33 10
3.9462383640150076 -1.3677908933789578 -15.445102460416805 98 35 11
3.949988131007145 -1.370858289825188 -15.483997230964196 115 59 35
3.956817052827712 -1.3784135540260438 -15.515322118907218 87 35 16
3.9629583282698793 -1.3849602037732787 -15.548465348586003 68 20 7
3.9684851595550183 -1.3906042917608765 -15.583259789720753 52 15 9
3.9734146563978046 -1.395370032514637 -15.619677883808137 34 11 6
3.97746439543287 -1.3988439271739397 -15.658451406506035 22 6 4
3.9983007679570877 -1.4268496020699697 -15.65464667136687 20 4 4
4.002056986586223 -1.4298873080917565 -15.694309990483514 19 5 5
3.9902646137944062 -1.4101759827084202 -15.773943283033056 19 7 7
4.042062622343951 -1.4834798983738775 -15.690577231443825 19 8 8
4.053931397047522 -1.4983817168272182 -15.709492550676291 13 4 5
4.067162458352551 -1.5152772402221757 -15.72489480732692 8 1 1
4.081832411961543 -1.5342803596258285 -15.73655076123903 8 2 2
4.074222297072697 -1.520651188475175 -15.806172867827048 9 3 3
4.071291367384781 -1.5138606531541736 -15.863915836327633 9 3 3
4.078837878598578 -1.5224124051017105 -15.894467760081048 10 4 4
4.117580025901868 -1.576692749215189 -15.843091376123185 18 13 14
4.121787340677771 -1.5803525986522793 -15.882354582289853 27 22 26
4.105352019016226 -1.5537253189735418 -15.976389027690978 22 19 22
4.121560167804544 -1.5749706225589692 -15.984258123011065 14 13 18
4.137747889448609 -1.5961890947212076 -15.992118423498201 11 10 15
4.158677181981558 -1.6243721600914398 -15.987243338005817 9 8 13
4.176699471992762 -1.6482933098991701 -15.990015725375486 8 7 12
4.186176823868951 -1.659666318686945 -16.015679220683808 7 6 10
4.209273584620675 -1.6910502713592406 -16.00463680442585 8 8 10
4.227071058303402 -1.7146539720955252 -16.00775680980492 8 8 10
4.245673312948543 -1.7394457237440317 -16.008595684919428 7 6 10
4.26592821810095 -1.7666737201536593 -16.004819715078916 8 7 12
4.286847661210025 -1.7948864353322413 -15.99908588248822 9 8 13
4.30662562448796 -1.8214268269825213 -15.996331192108578 11 10 15
4.318414160989077 -1.836211860368377 -16.015440518686933 12 11 16
4.332402879353126 -1.854236391740506 -16.028484067573977 10 9 13
4.35405075902888 -1.883545143275132 -16.020270395053103 23 23 26
4.3749557890125415 -1.9117677326792633 -16.013952365940163 34 35 40
4.400794113081699 -1.947270034958767 -15.993711635817462 38 40 46
4.425742985430849 -1.981473332698246 -15.975710305362107 44 45 50
4.42896549046797 -1.9836426237907645 -16.018502142045357 44 43 49
4.445162178332656 -2.004945969106994 -16.02489964440126 51 50 56
4.515801961702116 -2.101442112054106 -15.980882519853534 49 47 54
4.518863689698014 -2.103365766629162 -16.024296428674326 27 25 31
4.532782745851431 -2.1213257315208036 -16.03676951572321 42 41 45
4.500637317641117 -2.071190012385684 -16.181684992125213 63 64 66
4.515045611595802 -2.0898542423237814 -16.193131873340274 78 78 79
