ply
format ascii 1.0
element vertex 706
property float x
property float y
property float z
property uchar diffuse_red
property uchar diffuse_green
property uchar diffuse_blue
end_header
-4.492594869999878 0.7559100146925618 -15.02284526396841 76 57 53
-4.509992766979998 0.7576590749315116 -15.046562949272491 77 66 65
-4.514481217826715 0.7592197112790333 -15.086276903612564 55 49 51
-4.241544708739532 0.7707677246049387 -15.89481178946227 68 57 55
-4.295115306248651 0.7730630891637466 -15.874262595124687 52 39 36
-4.3389740428136 0.7752223300671568 -15.865917953565894 78 67 64
-4.3680212692756655 0.7771824661274677 -15.876443711402342 84 72 70
-4.399743407362622 0.7791751331246409 -15.883457765100587 72 59 56
-4.410361716978655 0.7808948397537996 -15.917683770475044 50 34 33
-4.421731937274722 0.782626647781433 -15.951012190597801 33 16 14
-4.325272821333677 0.7878505011796072 -16.271360129582675 53 26 21
-4.3356133271389945 0.7896001751515549 -16.306960630339077 67 43 40
-4.331004678434382 0.7911745332152333 -16.362383307047022 62 43 41
-4.3744938977374845 0.793322335965098 -16.354313490981447 54 41 40
-4.376345133233197 0.7949790865407738 -16.401371438154847 49 39 38
-4.3995643636273245 0.7968871175359538 -16.420116824802555 46 39 39
-4.469122936162692 0.7993226379071721 -16.37693436051123 45 40 41
-4.477367538205375 0.8010548802809083 -16.41553043256515 40 35 37
-4.484047165922718 0.8027730764616289 -16.45633204423945 34 27 30
-4.490240792828129 0.8044897314092192 -16.497904003370348 27 19 22
-4.497575890502054 0.8062227458359816 -16.53805242912997 20 11 14
-4.515189728534247 0.8080697866496307 -16.564374162944027 25 14 14
-4.539578839502551 0.8099896231426502 -16.581510351666612 41 25 24
-4.578453026930686 0.8120602684859164 -16.578862401404542 45 27 27
-4.5860710962090625 0.8138031196572386 -16.618832999981684 44 29 29
-4.590110446930158 0.8155131053536331 -16.663824568376015 63 51 49
-4.568737065505928 0.8169718932119475 -16.743930834460585 75 64 62
-4.574163908486746 0.8187083743927046 -16.78739222167195 80 67 66
-4.567829255705253 0.8203339525810205 -16.847267554727214 99 89 88
-4.621438317597188 0.8276421332624531 -16.978452858504752 155 153 158
-4.787171615310373 0.8342551632643489 -16.900094615480576 168 169 171
-4.825041966639437 0.8362896027459032 -16.898037827607983 171 172 174
-4.815379285233714 0.8379128525503224 -16.963437424525885 174 175 177
-5.082641428430306 0.8520526280200494 -16.942324823095966 185 186 188
-5.072254329199161 0.8536930184549112 -17.009461300153927 187 188 190
0.7680008931236033 0.4270676350428144 -12.938208612548147 118 78 68
0.08068540777463351 0.4521855778674771 -12.576166546730294 115 56 44
0.07356841026736749 0.45369714047198323 -12.60917539470864 116 55 42
0.03478834661854879 0.45611406982264563 -12.618111197744424 117 53 39
-0.0008524833158318756 0.4584390718977102 -12.629370140896878 115 51 39
-2.237766053994209 0.576383000531391 -12.51421205131442 118 50 35
-2.2712740633149355 0.5784921048159732 -12.522542530046586 118 51 35
-2.3049465151213733 0.5806028944806922 -12.530659381304181 118 51 35
-2.339330605752533 0.5827287272788659 -12.538079356830913 118 51 35
-2.3796681994812783 0.5849974128191897 -12.540168750054411 115 48 32
-2.489615248017601 0.5889562642099313 -12.480516642626505 116 47 32
-2.53429470596587 0.5913169008835365 -12.478359228376666 117 48 33
-2.553801600593295 0.5930650700843445 -12.498492110242275 118 49 34
-2.6053655368207806 0.5955848096045455 -12.48999172138528 119 51 35
-2.6412601485849434 0.5977231667183074 -12.495362522008977 117 50 34
-2.6859288913985013 0.6000682501241004 -12.492765429296103 117 50 34
-2.6556545549234025 0.6006251782803511 -12.55756623905663 117 50 34
-2.7182545684764747 0.6033931915080569 -12.53869885659552 116 49 32
-2.777286606988368 0.6060692251611268 -12.522839121054409 115 48 31
-2.8235241274664364 0.6084370955880641 -12.51840106718101 113 46 29
-2.862956608752876 0.6106406367620887 -12.520025367025681 113 46 29
-2.9000765248443985 0.6127865784058111 -12.523658288087901 113 44 29
-2.9325837862616755 0.6148220342612304 -12.53142692505687 112 43 28
-2.911863698416173 0.6156218835870486 -12.588074650879964 114 45 30
-2.94539849887991 0.6176811596772165 -12.594898727282704 114 45 30
-2.982349124789761 0.619816390933823 -12.598487954032771 115 46 31
-3.040861789028985 0.6224420826113912 -12.581980662602165 112 43 28
-3.083753830582225 0.6247043989054476 -12.579795526128033 112 44 28
-3.1316718691188514 0.6270765308366539 -12.572793587905725 113 47 31
-3.1687717668628226 0.6291986993173799 -12.575760285543305 113 45 29
-3.2025375150670428 0.6312424725503201 -12.581759471513507 115 45 27
-3.202365140761148 0.6325222425408308 -12.619624163838292 122 46 27
-3.302059088469713 0.6360365860351324 -12.563322475129771 127 47 27
-3.3383861334089193 0.6381262550973716 -12.566571280247823 129 46 17
-3.381551816918071 0.6403642050813672 -12.5632326033004 138 55 17
-3.4580801145406044 0.6433335571557867 -12.52799176221357 149 68 17
-3.454274734378245 0.6445276703693499 -12.56915386995367 151 73 26
-3.445360373259917 0.645614384119683 -12.615336531642203 118 58 31
-3.4533395416009434 0.6470742576959678 -12.645447603506469 84 39 27
-3.459471723942218 0.6484962159369112 -12.67740046417852 83 39 33
-3.4634039876077773 0.6498731787850991 -12.7115519001907 89 40 37
-3.4708492707748446 0.651328548120899 -12.742384962371897 108 56 48
-3.4754392647182524 0.6527250936713622 -12.776059117791092 109 63 55
-3.48527712087152 0.6542362133883902 -12.80470122325612 111 74 68
-3.300538573884878 0.6746931392295389 -13.70115966374449 70 15 6
-3.3202013330478195 0.676467643238692 -13.72181663672057 86 22 2
-3.334189992386979 0.6781326410392954 -13.74833655023749 110 45 12
-3.3608583811688737 0.6800424602884905 -13.761758010754278 134 75 34
-3.3873087782344085 0.6819467565514514 -13.775366068040853 139 92 56
-3.416953346576051 0.6839104399978673 -13.785607323815753 126 86 67
-3.4467767889033585 0.685875521161577 -13.795603410691651 91 49 39
-3.4765581159765064 0.6878377814472281 -13.805584033898038 82 35 25
-3.4985167510762354 0.6896517675144735 -13.823726951839763 94 42 26
-3.5280652362089038 0.6916064450436648 -13.83385743542909 129 78 48
-3.5401258214796094 0.6932358350458139 -13.862416665415111 143 93 53
-3.5542796905029324 0.6949053586864158 -13.888805152641151 119 74 43
-3.56524218562014 0.6965177768658088 -13.918622983010884 94 60 45
-3.568610334667782 0.6979940938190261 -13.956595264478416 89 58 51
-3.569102801742531 0.6994219714829937 -13.99774627937331 91 57 52
-3.5761842457617155 0.7009723258342959 -14.031951392655586 97 59 53
-3.590203762526566 0.7026493083257636 -14.058773939547837 112 70 63
-3.591818954266282 0.7041074373111003 -14.099016975474695 119 81 72
-3.605070149944572 0.705774778490351 -14.12678575726552 127 93 83
-3.6062505796741666 0.7072319501756493 -14.167696352574495 128 89 80
-3.6070575763781045 0.7086866874370352 -14.209132987300912 133 90 81
-3.611135009292995 0.7102022338229403 -14.247122551178862 128 86 73
-3.613143845026168 0.7116856634435265 -14.287478824288973 136 93 81
-3.5921122067723275 0.7127790193215585 -14.353245824113799 125 85 77
-3.516296904618125 0.7144228671362178 -14.52284276184122 120 92 85
-3.5089634068379674 0.7157767527892187 -14.574343094542776 120 91 87
-3.5083982224666297 0.7307957417000243 -15.016378945025568 13 5 6
-3.49087448257041 0.7320516943920633 -15.081308568694489 8 2 2
-4.407193332272813 0.772752821653115 -14.81053358516941 97 45 37
-4.434422540655279 0.7746298971742696 -14.822095924917008 101 58 51
-4.461969334352668 0.7765094310795907 -14.833222292731861 103 70 63
-4.47245834932486 0.7781639302910042 -14.865033740573555 94 65 60
-4.500946642526891 0.7800540891745544 -14.874965656911709 66 37 29
-4.514605120016104 0.7817517324133237 -14.902972753319998 75 44 37
-4.527631525592857 0.783442886267278 -14.931800644999882 77 46 40
-4.5191970220586155 0.7848653878481652 -14.98707809116122 82 54 49
-4.533309786340622 0.7865761666642388 -15.01474408123163 81 59 54
-4.542624025421371 0.7882291453531209 -15.048390665942952 79 68 64
-4.552804390962321 0.7898953799305444 -15.081040680032533 56 49 48
-4.2849196774303 0.8010144553281054 -15.83627654944027 65 60 61
-4.32468209085043 0.8030762874458975 -15.833210694853168 75 67 69
-4.383036542022561 0.8053348196765198 -15.806172511083942 115 111 109
-4.416166876441091 0.8073134969262677 -15.811276471192024 122 120 117
-4.437731819123396 0.8091665864123088 -15.831197878459585 113 108 106
-4.447896766778482 0.8109002939487853 -15.865854350831366 118 109 109
-4.454731816622678 0.8126023731126799 -15.904910125367099 94 82 81
-4.465054417842173 0.8143436309056105 -15.939536094139616 52 36 33
-4.405510991007556 0.8153846069522486 -16.06538857794853 41 22 19
-4.391595875623343 0.8168998083641876 -16.132158469757663 53 31 29
-4.371972329658152 0.8183682452996903 -16.206689059863805 65 43 41
-4.3779244347320505 0.8200946616374645 -16.24787248430126 62 44 43
-4.35283128422669 0.8215290693679089 -16.330155674488356 52 41 41
-4.368421120838478 0.8233582547737779 -16.358935942185127 49 42 43
-4.396242296772587 0.8253022922619457 -16.371517834422544 48 42 43
-4.420319908990032 0.82721035272318 -16.389033222199924 43 38 37
-4.47486262141288 0.8293918230672879 -16.365830895685853 38 33 33
-4.481903551938034 0.831143166153038 -16.406004193237315 31 22 24
-4.491515519695062 0.83292075663823 -16.442834418361453 24 14 16
-4.498763189415687 0.8346811501083806 -16.48294272993524 21 10 12
-4.50469810725423 0.8364342225618445 -16.524936588542364 22 9 12
-4.526501808117259 0.8383235129111958 -16.545539227762056 38 21 21
-4.53970551122578 0.8401422460061534 -16.57783062418525 52 28 25
-4.58861666463553 0.8422505205486392 -16.561489661414356 52 24 22
-4.607092891321963 0.8441104310144604 -16.586553766345105 46 23 22
-4.619869869483789 0.8459267960948376 -16.619458426865055 45 28 26
-4.625600243831242 0.8476917127964075 -16.662127466466693 62 49 48
-4.617126709871517 0.8493545159709002 -16.724525404700117 74 61 61
-4.614890637309738 0.8510714828920605 -16.778533453540458 79 65 65
-4.60520553702074 0.8527413222986981 -16.84307672364778 92 81 81
-4.6364896274674825 0.8582129665894704 -16.95372889029777 147 145 148
-4.651149589064714 0.8600711872203269 -16.984849891701373 155 154 159
-4.879674740718412 0.868554835805921 -16.868357570553005 172 172 174
0.7285476326958245 0.46009625022945894 -12.906449923883189 118 75 66
0.16221925898484724 0.4795203893598469 -12.597289067322887 116 57 42
0.07970834211510347 0.48308747510954103 -12.573263763980155 114 54 40
0.014368978505902241 0.48618494461707246 -12.562015367370517 115 52 38
-2.2726824099727443 0.6055891694034613 -12.481507892029231 119 50 35
-2.296356284830164 0.6074450745968671 -12.498351094231449 119 51 35
-2.3180113907842026 0.6092545470849147 -12.516946696425007 119 52 36
-2.3584131965845225 0.6114869321457413 -12.519033313564428 122 55 39
-2.3888740926957546 0.6134920903507389 -12.529789639343424 119 52 36
-2.432286009071909 0.6157853806149012 -12.529025827484672 117 48 33
-2.5247273309809932 0.6191680021385326 -12.484607767462045 117 48 33
-2.567801502287354 0.6214407788356726 -12.483773715167718 122 53 38
-2.572409165924755 0.6228583062008823 -12.517171824480105 121 53 37
-2.555950263790871 0.6238144596214223 -12.569517455734077 116 49 33
-2.61874424461506 0.6265160510943417 -12.550859797644367 119 52 36
-2.6787763266126055 0.6291493941824171 -12.534464934562621 122 55 39
-2.7411964637810406 0.6318272621425403 -12.515700517367087 118 51 34
-2.8028268337823192 0.6344801192907044 -12.497426458722241 113 46 30
-2.8509440311420917 0.6368336955316363 -12.49121129837759 115 48 31
-2.8915935830808923 0.6390215708107394 -12.491651213916686 114 47 30
-2.9167860125940974 0.6408749547717398 -12.506108406357129 115 46 31
-2.9495394776231176 0.6428882555593323 -12.513603275971494 113 44 29
-2.975700424158596 0.6447593180175422 -12.52708863840271 110 41 26
-2.9364673338708247 0.6452490402147923 -12.600839825395838 115 46 31
-3.0267848234579793 0.6484716504896844 -12.555095665830823 114 45 30
-3.076481816637261 0.6508312925262998 -12.54664602311695 112 43 28
-3.1258527602660386 0.6531784100561484 -12.538336119154353 114 45 29
-3.1422450101615134 0.6548363216201761 -12.560630120788833 112 42 28
-3.1958939509301283 0.6572634171881133 -12.548081508360681 111 42 29
-3.2281372329938263 0.6592443930808487 -12.555432123917756 113 46 28
-3.2633606465621536 0.6612837987741138 -12.559907411235224 109 41 25
-3.268563638609118 0.6627094279076722 -12.59262931792918 124 52 35
-3.329173996652302 0.6652595896164647 -12.572981369178418 125 48 27
-3.4327475218201915 0.6699820337889262 -12.549803010782714 137 52 18
-3.469733018572536 0.6720383837732677 -12.552076220787363 159 75 27
-3.48399280953687 0.6736399435128734 -12.576013038059104 158 84 39
-3.486376833992324 0.6750077660415691 -12.611382445962835 128 69 39
-3.4892287132766873 0.6763880619919366 -12.646394562023897 87 40 25
-3.492086868140291 0.6777716765687531 -12.681491742850017 79 35 30
-3.5003350585076953 0.6792634252076425 -12.711458432315961 91 43 38
-3.505938606460689 0.6807061098340264 -12.744056257950461 98 50 41
-3.5138931913988536 0.6821967863041307 -12.774439799364412 106 60 54
-3.5267941989047884 0.683784517501205 -12.800052950458369 112 72 68
-3.5413526499770445 0.6854051143576781 -12.824077469721011 110 78 75
-3.337090937346723 0.7052717359814935 -13.70183250040975 63 11 4
-3.36104286406073 0.7085553176926884 -13.758961083558866 106 40 10
-3.400148148103889 0.7106612763422964 -13.759418512162021 133 73 34
-3.430234836851292 0.7126106939075726 -13.769155689224789 138 92 53
-3.4612435265597306 0.7145734632995823 -13.777868550202772 129 88 62
-3.4935456400786604 0.7165554820985003 -13.7851592504358 96 54 44
-3.5133718976682102 0.7183278896963172 -13.805484949625022 82 34 25
-3.544753582030543 0.7202907944814939 -13.813633266325693 89 37 20
-3.56982792723404 0.7221479571130631 -13.828378152823984 114 65 35
-3.582112343868551 0.7237959481451393 -13.856649187093598 144 98 61
-3.5969889435482996 0.7254874816808097 -13.8822115861966 123 77 48
-3.6094691321771055 0.72714164832934 -13.91036037736204 96 58 41
-3.599752682683193 0.7284435677125096 -13.962290466465314 91 57 48
-3.6065068897108254 0.7300127498153988 -13.996741786507613 92 58 52
-3.6310094618015967 0.7333314928632706 -14.054033842190536 110 70 62
-3.642925533461181 0.7349882341197183 -14.083115701693883 121 79 73
-3.569399754974274 0.7458402142788849 -14.504597218106518 117 86 83
-3.524703449134919 0.7606446218243335 -14.994846069298369 15 4 5
-3.5492540464541804 0.7656972887796369 -15.101506452361136 49 17 8
-3.5764733197103338 0.7676348534785711 -15.11527529584866 74 29 18
-4.4598281169071265 0.8049388855859967 -14.832830729496276 98 57 47
-4.4885160363063985 0.8068118042602 -14.842518177691119 104 67 61
-4.506431959013795 0.8085674117754615 -14.86527598629839 99 68 61
-4.535597914521598 0.8104423812626746 -14.874293434736437 70 37 30
-4.542953260653433 0.8120873879569321 -14.909990761721495 75 42 34
-4.540397533680964 0.8136333802349371 -14.957968209067452 82 52 44
-4.555967190233914 0.8153696924022802 -14.983751290256528 86 59 51
-4.569408706777366 0.8170857340959714 -15.012199437592317 84 63 54
-4.578633143606724 0.8187615792352422 -15.045927800148997 84 67 64
-4.289848583758184 0.8290433693320649 -15.7791826920239 55 53 54
-4.3241235249440475 0.8310117622914037 -15.783078478482388 52 46 48
-4.355643934464567 0.832952828526222 -15.790392682980706 58 49 52
-4.411166496172649 0.8350951252342684 -15.766868046395409 104 99 98
-4.448244578868442 0.8370738441953753 -15.766786575891661 120 118 115
-4.467004155110038 0.8388973313126677 -15.790194279481579 124 122 120
-4.47487134260881 0.8406330683715719 -15.827698720551744 127 125 123
-4.476652043265233 0.8423237299316404 -15.873193038764821 131 127 123
-4.468305374526831 0.8439401227326595 -15.932002693774114 102 94 90
-4.440081586565911 0.8454112852552556 -16.016961872988563 69 58 54
-4.436353467141746 0.8470810132525322 -16.070254153335686 61 48 45
-4.427483324885033 0.8487192063655732 -16.130483146541387 59 45 44
-4.404741586457948 0.8502643241873851 -16.20919703336336 55 43 44
-4.382314555229901 0.8518236233341563 -16.287835708895884 50 42 44
-4.386264532269398 0.853580002927244 -16.331898175786755 46 41 45
-4.40732899564148 0.8554588964975562 -16.35337334462427 41 36 39
-4.451816443304441 0.8574958017517333 -16.34365991309184 33 28 28
-4.473202834509841 0.8593736215178209 -16.364613878817018 24 17 17
-4.4830790189563245 0.8611769118836408 -16.400983049120555 20 10 11
-4.492973442914606 0.8629834424147514 -16.43741681514517 21 9 9
-4.500839272540169 0.8647805532869822 -16.476673352774583 27 12 13
-4.518886938028844 0.8666429732084255 -16.502276073129842 34 16 16
-4.5331804703683005 0.8684840874287776 -16.532992184696088 52 29 25
-4.545953024693824 0.8703183688824183 -16.565831276845067 58 30 26
-4.572013175116812 0.8722297782616362 -16.58062070359297 55 26 23
-4.619146961675487 0.8742553557527197 -16.566551525383336 53 24 23
-4.643357781213935 0.8761511059488007 -16.583712629699598 46 24 22
-4.661460445420409 0.8780142279630956 -16.609251557391275 45 29 29
-4.660457188027079 0.8797816573001893 -16.661177311403726 64 51 51
-4.669404740397604 0.8816043236744007 -16.699514112082632 75 61 61
-4.65000825072288 0.8832954547634541 -16.777293645603443 79 63 63
-4.647953645825866 0.8850784875118316 -16.831266462772547 95 81 79
-4.679528327763989 0.8906262854243026 -16.941341154425523 145 144 147
-4.93529633686957 0.904255362490235 -16.94020011093904 177 177 179
-5.019812293795071 0.9136182580291861 -17.078382415043805 186 186 188
-5.076115892842431 0.9155825997422049 -17.048593308648428 187 188 190
-5.127594971643737 0.9175261239466741 -17.025562672081843 189 190 192
4.623772335349366 0.3576018421007531 -14.837248143299608 213 213 215
0.7128151482287564 0.4909527852657624 -12.853138481938466 121 80 73
0.44561197980590617 0.5019615322109429 -12.770165670002916 118 59 47
0.14545600157222793 0.5109171580749339 -12.582462625841508 117 56 42
0.06376028737210415 0.5143525131281915 -12.559019711077049 115 51 39
-2.2518615550182925 0.633486538915514 -12.497436498178804 118 49 34
-2.282126922286764 0.635474207759346 -12.508561014605046 120 52 36
-2.305688205140571 0.6373209425287335 -12.52551514518223 120 53 37
-2.3334973116643543 0.6392547010928892 -12.538712515975112 123 56 40
-2.375724606869613 0.6414833259583481 -12.539144239097162 122 55 39
-2.4277831776575978 0.6439089425364575 -12.5307588016455 119 49 37
-2.51675985843616 0.6470804430146573 -12.48943372243319 117 47 35
-2.5617921662783365 0.6493481362126033 -12.486875000653814 121 51 39
-2.530454350297229 0.6500700076363459 -12.552377172818371 120 50 38
-2.582841395915918 0.6524830942588437 -12.543167642140714 119 49 37
-2.6431629757948185 0.6550486489117692 -12.526661448765417 120 51 38
-2.6888950393449385 0.6573162517552 -12.523084183598144 118 49 36
-2.759845189449668 0.6600782691676867 -12.49658850880942 114 44 31
-2.8369465249128183 0.6629517494667863 -12.464249507549958 112 43 30
-2.875110216750474 0.6650506511872796 -12.466987491856061 113 45 32
-2.895846372378058 0.6668058745564927 -12.48550830570738 114 46 32
-2.940583564212302 0.6690269462012235 -12.482086410990972 114 46 30
-2.9682141755647553 0.6709125980335131 -12.494210128463653 114 45 30
-2.915136570869122 0.6712448715099133 -12.580484257575812 111 42 27
-2.9499384940546243 0.6732723433240257 -12.586124494792728 111 42 27
-3.00323566638179 0.6756488847110168 -12.57458095841805 115 47 32
-3.0798213951654985 0.6784598602136171 -12.541258879879255 113 46 30
-3.145768573790546 0.6810592787652718 -12.517522579566267 113 45 29
-3.151925723980561 0.6825290463335087 -12.549303269590746 111 41 27
-3.2636397733216436 0.6886738520706115 -12.557340975581283 121 54 35
-3.259278847323886 0.6899517893758353 -12.599079056704245 119 51 32
-3.304600279009043 0.6921410417001782 -12.593927275995604 120 47 29
-3.3636552486447586 0.6945743717521451 -12.575596826288628 118 41 22
-3.4419955382283085 0.697347859834032 -12.538688526233184 133 51 27
-3.4681280391971274 0.6991724087719922 -12.551294595037266 143 59 25
-3.523855014993976 0.7042374782964764 -12.610710349097687 129 70 40
-3.525354571532028 0.7056264049255396 -12.647014081724716 87 40 27
-3.5264955253841297 0.7070126413524102 -12.68376396904481 80 36 32
-3.533860969136752 0.708510490479348 -12.71456824292181 87 39 34
-3.5405955979034935 0.7099998636359016 -12.746053623405459 98 48 40
-3.5472468610429617 0.7114903478390295 -12.777690832394537 105 58 52
-3.5619414372435223 0.7131204380032983 -12.801517081037566 111 72 66
-3.5734000440494356 0.7146966530858243 -12.828549290362101 110 79 75
-3.4048347844252236 0.7391912717069722 -13.751943456200106 103 37 8
-3.444006512863666 0.7412534185348065 -13.752199461695078 131 71 30
-3.474450898276568 0.7431830328411231 -13.761455607985084 141 89 52
-3.5072029169554337 0.7451440333499031 -13.768230662306117 133 91 67
-3.5324749030617264 0.7469938626664383 -13.782786600898623 95 54 41
-3.5614467113479966 0.7488957034529009 -13.793411435504652 83 37 24
-3.587146197864601 0.7507488627224386 -13.807438905117813 88 39 21
-3.610680708856557 0.752570094168246 -13.823725322770818 109 61 34
-3.6203893847067334 0.7541963575935025 -13.85468503928251 144 100 63
-3.6340806728026482 0.75588037907275 -13.881462255436507 125 81 48
-3.6357594982201453 0.7573997824593998 -13.92112063084189 96 54 35
-3.6413407964895272 0.758976774186203 -13.956708165663098 90 55 47
-3.6558930730876087 0.7606789615028113 -13.982738528785603 85 53 47
-3.6636768551786325 0.7622911183752967 -14.01610234582141 93 58 51
-3.694007250890312 0.7642074612446519 -14.025156310877215 106 65 58
-3.6902698007803947 0.7656698756191986 -14.07110016179837 116 76 69
-3.7135530055517183 0.7987656633847997 -14.954232540125517 73 27 17
-3.8331608032874662 0.8016562526752817 -14.860648488494954 75 26 14
-3.81765188592202 0.8030978527528492 -14.923107748856967 78 27 13
-4.458290036843893 0.8333733817345537 -14.831708331356555 98 49 35
-4.487681775349636 0.8352325156680439 -14.840540210454733 99 55 47
-4.525171903932689 0.8371573790708484 -14.839434363561999 103 66 58
-4.555052044406814 0.8390146768380424 -14.847506214520035 101 70 60
-4.558591682527986 0.8406545750164044 -14.887801087051528 73 41 32
-4.6056914056954525 0.8426483546107189 -14.87465154663808 77 43 35
-4.617711602359713 0.8443580821250272 -14.90456737678081 93 61 54
-4.638764711564036 0.8461400198640392 -14.923368114664306 84 56 47
-4.614420519840941 0.8475750910562341 -14.998475240544945 92 67 60
-4.633821350951377 0.849350017588032 -15.019480824012254 83 65 61
-4.404821297640659 0.8593821698984465 -15.62993421994144 20 12 12
-4.480147872876988 0.8666723141110023 -15.722538582438391 109 104 101
-4.498598321454641 0.8684938251574488 -15.746214767241636 120 115 112
-4.503400915287652 0.8702374054065085 -15.787548413875017 120 115 112
-4.5071702559372975 0.8719795404504438 -15.830342296102476 120 115 112
-4.505407580118154 0.8736960351083767 -15.88045824204318 128 123 120
-4.49326067201897 0.875363303309826 -15.944288166025991 110 104 101
-4.46952006377649 0.8769794170856435 -16.023534790765588 64 56 54
-4.451717845536309 0.8786380050548613 -16.095335691578388 53 46 48
-4.4274473081031545 0.8802755810087 -16.175946392555865 50 43 46
-4.3979035984554935 0.881900637691654 -16.26386684599169 44 39 43
-4.403523595342923 0.8837030879191315 -16.305644658923462 36 32 35
-4.428892275415425 0.8855987469296901 -16.321329938822878 26 20 22
-4.460150907631351 0.8875188560883334 -16.32914045880078 21 13 14
-4.472673340952065 0.8893571121828163 -16.361888009453832 20 9 9
-4.481446346263549 0.8911825458296758 -16.399724447663303 28 14 13
-4.497773474206788 0.8930411841667056 -16.42751231287823 37 20 18
-4.509789678508574 0.8948848840322317 -16.461145727352562 45 23 21
-4.5287919720491905 0.8967566417743287 -16.485412753397785 50 25 21
-4.548209805343284 0.898630469952804 -16.509133781555306 67 38 34
-4.5593987785255194 0.9004772295860526 -16.544053102205517 68 36 31
-4.579723586164023 0.9023561666499744 -16.566598755245323 61 29 24
-4.6445372442070045 0.9061851312196754 -16.57857365674753 54 25 21
-4.681427817322529 0.908107041674211 -16.57825654664272 44 23 20
-4.69769710894331 0.9099703348751402 -16.606257355669904 49 33 31
-4.701454296586055 0.9118041740885774 -16.65160960511748 67 55 55
-4.715048252419189 0.9136659920912351 -16.68345411043263 77 61 61
-4.697748318359645 0.9154630086092448 -16.7583609475489 82 63 62
-4.683572071127713 0.9172778538030335 -16.82922616929906 96 80 78
-4.671186038765915 0.9191066849764543 -16.897879502711778 119 111 109
-4.684372030478558 0.9209896410400953 -16.930902012029698 134 131 132
-4.712888554844577 0.9228991042561518 -16.94239909964674 146 142 146
-4.736286785979161 0.9247991407319314 -16.961066737082913 153 153 155
-4.784957541984971 0.9267304912634096 -16.943906432648802 161 160 164
-4.766943999559653 0.9304576038014034 -17.073323936404165 169 169 172
-4.790539327871741 0.9323613516344257 -17.091808215675677 172 173 175
-4.964116975632705 0.9343617607360457 -16.8951973483534 174 174 176
-4.859098917093414 0.9361773535187154 -17.097984913819204 177 177 179
-4.889491006763272 0.9380780191440545 -17.106514951896777 179 179 181
-5.078526746195474 0.9456327138055878 -17.04134399254712 186 187 189
-5.119640940526742 0.9475036009316856 -17.03348058289322 188 188 190
-5.23449190639763 0.9493233766665998 -16.91713585894942 191 191 193
4.285117360818491 0.4174912844869688 -14.95932313349209 180 166 165
0.7220467392084737 0.5210774138781769 -12.818592848219282 129 90 85
0.6840401459494636 0.5234333767001601 -12.829462955332138 121 76 69
0.5815839586008096 0.5287591092435087 -12.831141372139548 118 61 50
0.45733946892567534 0.5331250697582246 -12.776805488277015 119 58 46
0.20067928430569548 0.5405647106400886 -12.622008016116341 117 55 42
0.09924980682614848 0.544355119247258 -12.583743216294437 115 51 39
-2.2379696221982623 0.6615872588009208 -12.507316159814543 119 50 35
-2.2763733043796286 0.6637099993964848 -12.51135326542115 119 51 36
-2.2995231878309683 0.6655423134130615 -12.528678015551183 121 54 38
-2.3509067561047123 0.6679024090080823 -12.521144878099037 121 54 38
-2.378431129891328 0.6698122530692983 -12.534503845771715 121 54 38
-2.4092854862253272 0.6717823196860349 -12.544876403221515 122 53 37
-2.5135247933656384 0.675102635008721 -12.490057503669835 121 52 37
-2.5083991631158176 0.676401835754205 -12.532154390319205 121 52 36
-2.5551951708244784 0.6786526579126404 -12.528026716955393 119 50 34
-2.6119021435488943 0.6810780313346756 -12.51488434358596 118 49 33
-2.6669627192362046 0.6834665332414518 -12.503027307373213 119 50 34
-2.635915127487932 0.6843029509879804 -12.568533681479913 119 50 35
-2.7104429960969245 0.6870335057898721 -12.538948156558657 117 48 33
-2.7844040810756017 0.6897432854281853 -12.50958737802812 116 47 31
-2.8543277660075237 0.6923711496379341 -12.483607677715646 115 48 32
-2.8496097875293414 0.6936788897670418 -12.525370413831954 114 47 31
-2.918436701999357 0.6962751260057836 -12.500056602398413 114 47 30
-2.9615487482400873 0.6984153058719679 -12.4980468749017 114 46 30
-2.9494817910669013 0.6995985657574838 -12.546627356969172 114 45 30
-3.0037438721031497 0.7019261404522423 -12.534234005258954 110 41 26
-3.043890891174966 0.704006003913483 -12.534703037948248 113 44 29
-3.100746222762231 0.7063650680478888 -12.51956884098359 117 50 34
-3.150591439855308 0.7085984471685953 -12.51075092169058 115 48 32
-3.1455470168674013 0.7099058766225532 -12.552957107756853 114 45 30
-3.205464931969307 0.7123002773623119 -12.534536127928467 114 45 29
-3.2462325491335937 0.71436942676248 -12.533857558085014 115 47 28
-3.2817870120249477 0.7163484396676416 -12.537965895898294 111 44 25
-3.2715248941335977 0.717574901302513 -12.585212293930857 114 46 27
-3.3110925945557597 0.7196171560176101 -12.585469896817841 114 43 26
-3.3547418856748266 0.7217211734323257 -12.581742309869426 118 44 28
-3.4182965840732313 0.7241395975891428 -12.558935021361911 118 42 24
-3.4655152773128712 0.7262884495972304 -12.551475074218336 121 39 17
-3.5608793435024664 0.7333735244660194 -12.610369126748806 129 73 37
-3.5533625815689858 0.7346586039398206 -12.655395041324624 88 43 29
-3.55192729981911 0.7360424136263883 -12.694663759108593 82 37 31
-3.5616157177361627 0.7375997894549573 -12.723212733748877 88 41 34
-3.5706743826846097 0.7391496333676593 -12.752430404078218 94 46 39
-3.578874358428089 0.7406887175997472 -12.782546670987852 101 56 48
-3.5904202945906594 0.7422799734922643 -12.8094375084165 109 68 61
-3.4153226272292905 0.7677669855194029 -13.738447501244483 79 17 2
-3.445153748494887 0.7696687359466009 -13.748395726628079 100 32 7
-3.477638875871823 0.7716017355987522 -13.75551254538396 127 63 25
-3.5260757547878177 0.7737312446143063 -13.745845418142231 140 88 47
-3.5486384716030983 0.7755339176027374 -13.763184264514184 133 92 63
-3.5752460563606006 0.7773856161691183 -13.776245587881693 103 65 49
-3.601106592436124 0.7792267083529878 -13.790055120321874 83 41 30
-3.6219361793162097 0.7810058567536746 -13.809158936745618 85 38 22
-3.6473669619614535 0.7828396686375847 -13.823367131691299 106 57 30
-3.6604428288360555 0.7845262604463972 -13.850708959605946 142 95 58
-3.670348674820022 0.786177333052565 -13.881481351097644 132 85 49
-3.676603689582417 0.7877884217539077 -13.916229491698548 102 58 39
-3.6875450361463393 0.7894564039633638 -13.946024257783595 92 54 48
-3.697611751573577 0.7911165416963 -13.976818225678109 89 56 51
-3.73047209272715 0.7930350437946723 -13.983025135725672 92 58 51
-3.735651527885815 0.7946427886226605 -14.019171857594815 107 66 59
-3.7433218895960385 0.7962813881204918 -14.052702255383188 116 73 67
-3.7369204358285586 0.7977697302841769 -14.101660756140443 127 88 82
-3.6926369135193013 0.8246156116112224 -14.886225869557974 38 11 7
-3.687361765881297 0.826222042495399 -14.936807002424814 53 16 10
-3.735053921459283 0.8282894607459999 -14.926497788647989 64 18 9
-3.7721669654701175 0.8302606573599934 -14.928238366329422 71 22 10
-3.775849214774497 0.831949188713673 -14.968633816088378 77 25 12
-3.795061226131394 0.8337693987959519 -14.991082732261162 78 25 11
-4.4655453869968165 0.8618612727374149 -14.819932850278924 99 46 32
-4.495485749795996 0.8637012964985431 -14.828066856602113 106 61 51
-4.53889083136462 0.8656213707932785 -14.819721529509673 96 53 44
-4.5728840603344825 0.867478685827183 -14.822711966394785 99 64 54
-4.583774274561076 0.869196533007922 -14.85392095038424 102 71 63
-4.598074396789681 0.870936366728191 -14.881002758645883 80 48 41
-4.620372427761108 0.8727225567891355 -14.89826386893102 70 37 30
-4.64270029531313 0.8745082763309144 -14.915471006891513 90 58 51
-4.666436952386634 0.8763008718370966 -14.930913540322148 81 53 45
-4.640938092796434 0.8778362474680343 -15.007571233444846 97 69 62
-4.651473244349008 0.8795665550973092 -15.039607352634428 88 63 57
-4.540057803560238 0.903258763264307 -15.832121992086758 121 116 114
-4.5300854766059135 0.9050048305361078 -15.892966364129402 121 117 115
-4.502388172711424 0.9067093763159495 -15.977224577406279 77 72 71
-4.473546609661793 0.9084247243834033 -16.063357550574697 49 46 47
-4.445473544328151 0.9101563143288531 -16.148864457708385 40 35 36
-4.414171176075471 0.9118942704599073 -16.239012442423252 31 24 27
-4.430741465488529 0.913755562724008 -16.266224494769844 23 14 17
-4.448901899187765 0.9156215185445149 -16.29136132994976 20 11 11
-4.457076055502309 0.9174686553305594 -16.32981279446568 25 13 12
-4.469497572233154 0.9193273035287963 -16.362695777760333 35 20 19
-4.476662125526617 0.9211796837751313 -16.402685865169648 46 27 24
-4.49387458268117 0.9230515263844244 -16.42929336062852 49 27 23
-4.505889496755016 0.9249173466735352 -16.462932336368024 45 19 15
-4.524104668895645 0.9267935103383033 -16.488268426802335 50 21 17
-4.550770408603735 0.9286797020224954 -16.502178563498607 67 36 30
-4.576432544125496 0.9305633073068269 -16.517408070513973 72 38 31
-4.604419517736126 0.9324473802156021 -16.529432451602787 72 38 31
-4.629788956003311 0.9343277306996093 -16.54497938044983 63 30 22
-4.659087190073437 0.9362086972154828 -16.555105201712323 55 25 17
-4.731523911539614 0.9474866908069728 -16.75869655559765 83 64 62
-4.715961378818934 0.9493923368945105 -16.83157745557775 95 81 80
-4.718214268313674 0.9512961581485859 -16.879751508251513 116 109 109
-4.723457599272521 0.9532032065837516 -16.923873544548048 132 129 129
-4.752581114319026 0.9550900992057569 -16.934400847527172 145 142 144
-4.8072369918170095 0.9569436388464596 -16.908691142473124 154 152 156
-4.800697139150498 0.9588703849565023 -16.969652547132647 160 159 163
-4.779142118146098 0.9608288006817772 -17.052249138115922 165 165 167
-4.799552993173049 0.9627301227887471 -17.075224046793867 169 169 171
-4.990779171340892 0.9643170047006462 -16.85330810092637 172 172 174
-4.956672349935444 0.9701631587494614 -17.0580194955664 179 179 181
-4.983110435331203 0.9720388809981483 -17.071962655912273 181 181 183
-5.013513694108513 0.9739024327975192 -17.08008987014082 183 183 185
-5.0585832206571375 0.97572183046572 -17.066728444553604 186 186 188
-5.2185121541086055 0.9791185647052926 -16.93689039841356 190 190 192
4.234718384216705 0.45802178508544855 -14.966231421323705 191 183 184
4.211635245873277 0.46029431031606605 -14.995349618579635 177 163 163
0.7453301510777939 0.5523335257499957 -12.833723275035194 120 82 76
0.33963879842985634 0.5671207001701608 -12.685999433858083 118 57 44
0.34473924863646754 0.5684895926272833 -12.72862178288181 117 54 41
0.1142431772125736 0.5749170190461516 -12.592935515794359 115 51 39
-0.4785815316976061 0.6063288679035996 -12.634115493620962 117 51 38
-0.524750679799368 0.6087270163907421 -12.636058728025585 115 49 35
-0.5419000452524703 0.6105362036419255 -12.660860050108571 117 51 37
-2.2568547173601132 0.6902927727317218 -12.488609659690244 119 50 35
-2.26905983117633 0.6919330852281277 -12.515508643893991 119 50 35
-2.3173225494320544 0.694183664400288 -12.51081970469129 121 51 37
-2.3478583513398608 0.6961311548399307 -12.521579908773603 121 51 36
-2.391732619855632 0.6982991449255018 -12.520517404190976 120 51 36
-2.477172556899906 0.7011519630576994 -12.482552409023356 120 51 35
-2.5070899593777227 0.7030762534289583 -12.493520490072953 122 53 37
-2.5288449138125975 0.7048647381147704 -12.511700607850774 122 53 37
-2.57169485859818 0.7069965237271949 -12.511040753746293 119 50 34
-2.6378940313271872 0.7095018289889536 -12.489358110674202 118 49 33
-2.6993394934044552 0.7119213694543178 -12.471700706033403 118 49 33
-2.652884024490822 0.7126067692438168 -12.550982544447038 118 49 33
-2.7171579169318303 0.7150653392915971 -12.530615520249818 119 50 34
-2.7631480639884467 0.7172261865325622 -12.526573224810523 119 51 34
-2.828634443652085 0.7196876795040665 -12.504682608975799 117 50 33
-2.871152591182386 0.7217817809189946 -12.50347261973158 116 49 31
-2.921216416890294 0.723988115117943 -12.495246544779011 116 49 30
-2.9541877117571333 0.7259251978728785 -12.502519533917756 116 48 30
-2.9890917517970363 0.7278890737142547 -12.507944191810328 114 46 28
-2.9998945353454465 0.7294837988467843 -12.535498706494739 109 40 25
-3.0516248932375243 0.7316976030219353 -12.525269014943856 112 43 28
-3.1078042453057693 0.733971422217344 -12.510741116094305 116 49 33
-3.146118073052028 0.7359718676441178 -12.512624386968756 115 47 31
-3.192181322344644 0.7380828855123064 -12.507179141528223 113 44 29
-3.2314328053153227 0.7400884270106527 -12.507958518551085 113 44 28
-3.248678037845143 0.7417692493583564 -12.529267731997997 111 43 24
-3.274783208404102 0.7435786261913395 -12.542254250664751 113 44 27
-3.287040219785493 0.7451877261307829 -12.568266382665893 113 44 28
-3.324366109059061 0.747155616710784 -12.570599972276735 113 43 27
-3.3793988820926977 0.7493702452529569 -12.556033403171345 112 42 26
-3.611179847899363 0.7626025333745738 -12.597067215400916 127 71 38
-3.604932404539978 0.7639574485348641 -12.640836884393213 88 37 23
-3.6074337496874955 0.7654332090754807 -12.67622842841784 79 32 23
-3.6052280145710087 0.7668509600604643 -12.716311379990211 87 39 32
-3.6022921740994764 0.7682638463214371 -12.75723036903155 92 44 36
-3.612552030559904 0.769851298222466 -12.785310736971955 102 54 47
-3.6307456310024397 0.7715418969353003 -12.805624630144475 107 65 59
-3.4556854839478257 0.7981698625628543 -13.73482260572025 76 16 4
-3.475914645457024 0.7999463067309261 -13.75470075946465 96 30 5
-3.5119443295472434 0.8018869518343545 -13.758030720612247 126 63 23
-3.558436436004418 0.8039314180443045 -13.750274564053903 135 82 43
-3.585048446704242 0.8057676396091826 -13.763295999492222 138 95 66
-3.614635041604749 0.807632174659462 -13.773133959044195 99 61 43
-3.630865287675195 0.8093618067937319 -13.797062478621122 82 40 28
-3.654666598945828 0.811166581184901 -13.812968934803976 90 41 25
-3.678450964168581 0.8129702628948512 -13.828869107315853 103 53 26
-3.700609313842177 0.8147574446610815 -13.846482667355751 146 97 59
-3.7122032544592436 0.8164441621750724 -13.875404958991492 132 84 51
-3.7226651458143234 0.8181222695732611 -13.905595569299905 103 58 37
-3.7274543381009 0.8197503168751658 -13.94196042627752 98 60 49
-3.7601403953022476 0.8216358383537539 -13.948257989938163 89 55 50
-3.7617943701338117 0.8232396162727732 -13.988124356670102 93 55 47
-3.7818259081214123 0.8250106024683916 -14.008120229847886 103 61 54
-3.787782126813145 0.8266585503499055 -14.043466629043344 114 72 65
-3.790717946369157 0.8282838442548983 -14.082205356175372 125 87 81
-3.7497501698262283 0.8542794795959261 -14.817850688139279 41 11 7
-3.7866650189030393 0.8579004014854545 -14.864067397680866 57 15 7
-3.8098086934723066 0.8597409258015989 -14.881779118699498 66 18 7
-3.75054246244643 0.8610765728065339 -14.995017216715418 73 21 10
-4.423243196736978 0.8867114992038301 -14.779313235407914 83 26 14
-4.439472647721778 0.8884730567608091 -14.804079853234711 85 27 14
-4.4781008906630255 0.8903283293797574 -14.801741893578917 88 31 17
-4.515578404192254 0.8921739520971099 -14.800669644432887 104 52 41
-4.609158762728614 0.8942317977836074 -14.731117720551019 109 62 54
-4.608268548066693 0.895917084824816 -14.776478958958721 91 52 43
-4.603089293619161 0.8975926147225274 -14.827245003964443 97 62 54
-4.611186973324954 0.8993209140425638 -14.861871851156263 103 69 62
-4.633191106980987 0.9010986281065544 -14.879440711244644 89 55 48
-4.659543463694236 0.9028896016836154 -14.891618483513792 71 36 30
-4.637321951951216 0.9045309504338301 -14.963980522599801 90 57 50
-4.651974086084687 0.9062911073372507 -14.99079214245712 93 61 53
-4.6811269783588765 0.9080928467612664 -14.999556066869708 99 69 63
-4.686143966512033 0.9098286475357169 -15.038445456971571 92 68 63
-4.572463786543281 0.9326458929814668 -15.786721996073325 79 71 73
-4.5555731143169504 0.934454872238671 -15.856443535778752 79 74 75
-4.531014668724119 0.9362712314342896 -15.936478412999588 60 56 57
-4.477185300682664 0.9380913687319283 -16.055243792485026 37 34 35
-4.428901641551629 0.9436710399355368 -16.265260783218096 24 12 13
-4.444305778763617 0.9455445589407655 -16.294052145221812 30 17 16
-4.454000919229935 0.9474221554177689 -16.33048508570566 39 23 22
-4.465044059974227 0.9493024027312518 -16.365208452073986 52 33 31
-4.4689025095268695 0.9511908426857563 -16.4096288975188 49 28 25
-4.488508242936672 0.9530707957414222 -16.43304373223306 37 15 12
-4.498962101207802 0.9549605643855306 -16.468794465839704 35 10 6
-4.523706820319875 0.9568368024783583 -16.48532952102 51 22 17
-4.555261514124218 0.9587029023603966 -16.492611033213578 56 23 17
-4.581655181105693 0.9605734495029101 -16.50682061459769 63 28 20
-4.621832495420874 0.9624198450917225 -16.502205461604387 73 39 30
-4.6515685529578015 0.964279032087755 -16.511705941991114 72 39 31
-4.772330288823137 0.9794112918570845 -16.74907685801318 86 68 65
-4.7632606647989215 0.9813887792832343 -16.812894359352036 98 85 82
-4.755188860198438 0.9833725707877932 -16.875560235373527 119 111 110
-4.776881148331057 0.9852608942582657 -16.89644072081143 135 130 130
-4.824774748705512 0.9870525536227344 -16.88020657488612 145 142 144
-4.867522275707847 0.9908225664503865 -16.922634377404403 160 159 161
-4.891099212768774 0.9926983036671806 -16.940697526207412 165 163 166
-4.940617163640664 0.9944608576411038 -16.921556469373975 169 168 171
-5.072086919869532 0.9997751279970929 -16.8873783466269 177 177 179
-4.99624034150629 1.002128910813114 -17.049193389606163 180 180 182
-5.067751439405063 1.0057447233740944 -17.04961638586304 185 185 187
-5.107895027996788 1.0075212284448436 -17.043213292436253 188 188 190
4.213981191048636 0.4960385877692216 -14.948727722884755 203 203 203
4.192718782423899 0.49827687602849 -14.979113150991799 198 197 199
0.7895587868283966 0.5832418752413433 -12.864429057009906 115 77 71
0.5032737776943339 0.593578695991212 -12.767969837591739 118 58 47
0.313772511781635 0.5988634992038289 -12.664352029046388 117 55 42
0.2095116638032719 0.602436843200529 -12.624341503041883 115 52 39
-0.5320471915679024 0.6361523482419771 -12.551696110506867 116 50 37
-0.5636044186523819 0.6382299872666897 -12.565019582705569 119 53 40
-0.6090749384840644 0.6405616720638962 -12.567314659044882 127 64 48
-0.620635518461814 0.6422682697413924 -12.596337390861276 131 68 53
-0.6899240688412505 0.6450279560543877 -12.579576956868493 119 56 40
-0.7080436943268378 0.6468516346800255 -12.603332166293468 117 52 36
-2.2550653467813504 0.7200753550585861 -12.525504516611413 120 50 35
-2.3119235161125555 0.7224010926576568 -12.513312042025962 121 50 36
-2.3465898961166802 0.7243897390501953 -12.520449130035848 121 50 36
-2.3881811708001957 0.7264775968582892 -12.521401855889032 121 50 36
-2.486255117624326 0.7293888236400751 -12.472273455090116 121 52 36
-2.4704318848488036 0.7306265955224944 -12.52379818889792 122 53 37
-2.5395336343669612 0.7330989495145326 -12.49993619483616 123 54 38
-2.58675707160399 0.7352473070254466 -12.495343492724999 117 48 32
-2.6267855534796203 0.737287538046534 -12.497047490251727 117 48 32
-2.6640921136099047 0.7392851040996087 -12.501088659536995 118 49 33
-2.706410100807112 0.7413494330214494 -12.500525756141466 118 49 33
-2.747149910498295 0.7433870968772502 -12.501268726802856 119 50 34
-2.787905331699034 0.7454206196618754 -12.50188630665664 120 51 35
-2.815233698101755 0.7472653445112383 -12.514586199623114 117 49 33
-2.8242937860358825 0.7488594354357636 -12.543884015093074 118 50 32
-2.895020595578174 0.7512898921669138 -12.51690646258077 115 48 29
-2.9481306822785935 0.7534732103075369 -12.505795851151653 114 47 28
-2.987032615509781 0.7554602655809035 -12.507560254149068 112 44 25
-3.0087063190602095 0.7572155879272006 -12.525095898526772 114 46 30
-3.060432032946384 0.7593643800446133 -12.514846463067986 115 47 31
-3.10426799182589 0.7614037659416143 -12.511735720786342 112 44 29
-3.149869558463381 0.7634607511288248 -12.506851667280689 114 45 30
-3.1984037206075993 0.7655496807337783 -12.499091491160893 114 45 30
-3.196154858635473 0.7669881804797505 -12.538653076354182 113 44 28
-3.2489618485996328 0.7691238119876364 -12.526706401045448 113 45 27
-3.2818898020268623 0.7710043417771921 -12.533271320700894 114 45 28
-3.3025178760961174 0.7727298463295484 -12.551361923044634 114 45 28
-3.341079904598457 0.7746748738442728 -12.552481092276249 111 43 26
-3.6694092652636634 0.7903092834480094 -12.538361240466003 164 95 47
-3.6479314415545527 0.7915368766820042 -12.596744530611952 119 60 32
-3.6438129677632913 0.7929672433854279 -12.63845206616455 85 35 21
-3.638782517820032 0.7943926494928449 -12.681181007717097 81 34 28
-3.649263755714723 0.7959931687377363 -12.708853904705537 88 39 32
-3.6483462971111615 0.7974721175925281 -12.74777223574397 94 45 39
-3.6585596802907867 0.7990748701338888 -12.775839354755904 100 54 48
-3.666209184600035 0.8006524137693523 -12.806490410024036 105 64 59
-3.498189628577732 0.8284909673112882 -13.728834400678798 75 17 8
-3.5267936545015646 0.8303333301855504 -13.73986807962459 98 31 8
-3.5488177274819748 0.8321198079591603 -13.757758170730273 122 57 22
-3.5991770033228407 0.8341341216293839 -13.745795156433491 138 81 41
-3.6319526961183977 0.8360015374812055 -13.752216903885985 140 95 64
-3.647107232566489 0.8377280716647723 -13.777224329292945 107 69 52
-3.6718780981221046 0.8395297592888298 -13.792044902484818 87 45 34
-3.69528265720197 0.8413199001425231 -13.808290658650762 88 40 26
-3.7200000691701423 0.8431189612286731 -13.823111457743126 103 54 27
-3.74744890689389 0.844936863333876 -13.834974801883005 137 89 52
-3.754488117075243 0.8466057073370041 -13.868725401002255 130 84 46
-3.762841516809951 0.8482869930601815 -13.901139277723614 104 58 35
-3.769458259259731 0.8499589957536027 -13.935502367186695 93 53 45
-3.7942789132613326 0.8517588370508911 -13.950213118691998 88 55 48
-3.8060404408975987 0.8534696928089196 -13.97909160680016 88 54 45
-3.8132901844217173 0.8551527918332215 -14.012941156045017 101 60 53
-3.8397668381667174 0.8569634631958603 -14.025843734936664 115 72 66
-3.8451188314603364 0.8821345901908519 -14.6618237226769 72 34 25
-3.8251910494297796 0.8872191956611366 -14.816740331687166 52 13 5
-3.832509472913279 0.8889846419796679 -14.852606070152248 63 16 6
-4.251340040033908 0.9077651871219192 -14.804889137649766 80 27 13
-4.301641207032805 0.9096326992204442 -14.789250856072652 82 26 13
-4.484578523143402 0.9169830909725222 -14.746638849100997 84 27 13
-4.642427313464917 0.9190129823988787 -14.59975708790422 86 27 14
-4.625731915173321 0.9207017770552445 -14.663896153158436 85 28 16
-4.626027983808262 0.9224278235506196 -14.707596168873994 113 65 56
-4.627146092151868 0.9241605095717949 -14.750430867526656 118 79 70
-4.614174128976391 0.925879903531581 -14.810663891164385 89 51 43
-4.634114438462323 0.927647180454664 -14.83068691959657 96 56 48
-4.646905503618292 0.9294070515220124 -14.859520895400381 102 67 59
-4.664001392565547 0.9311727671088801 -14.883084843788051 98 63 56
-4.691346089007597 0.932946957179658 -14.893963149875834 75 38 31
-4.66565514751147 0.9346868295845769 -14.970730748682712 80 47 42
-4.703878868433301 0.9364693906918086 -14.968127402859974 94 62 58
-4.708403996743967 0.9382359078470497 -15.007536910218091 89 61 56
-4.711375910889877 0.9400065830688622 -15.049007901119339 91 68 63
-4.537424728853812 0.965729084170487 -15.924787992104545 55 51 51
-4.512252923461502 0.9676658980170469 -16.005930747091888 34 27 29
-4.48969424135264 0.9811392470678052 -16.378356842870463 31 11 11
-4.512541064714249 0.9830086677204071 -16.39732904587854 24 6 5
-4.5052379244960035 0.9849807735356098 -16.456878419944825 31 10 7
-4.565518599245309 0.986719782454299 -16.4253959358701 45 17 14
-4.58856017012401 0.9885856792737283 -16.44403299765829 50 19 13
-4.619568546968649 0.9904199257767481 -16.451832642136083 54 20 12
-4.6386809606323665 0.9922992407905892 -16.475758664394725 64 29 21
-4.669673903649312 0.9941291375917154 -16.483466673290494 75 40 36
-4.80611139756199 1.0112608036595836 -16.749146672462373 86 67 64
-4.795200703308645 1.0133258582589695 -16.815610874478573 103 88 86
-4.78850484593192 1.0153762083981464 -16.876393635918355 121 112 111
-4.821749921229717 1.0171898762358085 -16.88085208923033 133 130 130
-4.916039769391052 1.022643132640921 -16.901395396111837 160 157 160
-4.955201486296876 1.0244012810867105 -16.89698787404905 165 164 167
-5.00126673554172 1.0261051117127777 -16.882502679461442 170 168 172
-5.071528446310936 1.027627284990407 -16.832918595095624 172 172 174
-5.085558146756792 1.0295449343575402 -16.864221974740722 176 176 178
-5.116364776558265 1.035400587290837 -16.974957859615127 184 184 186
-5.131121669851955 1.037323885495775 -17.005490026962125 187 187 189
0.29141973051870806 0.6304412441846097 -12.64535607147186 116 54 40
