ply
format ascii 1.0
element vertex 699
property float x
property float y
property float z
property uchar diffuse_red
property uchar diffuse_green
property uchar diffuse_blue
end_header
1.9752368434792547 -4.153038936791839 -15.019511441588838 97 39 27
1.9534634104194253 -4.121881857038168 -15.120076167912057 95 37 23
1.9599389989829774 -4.136538723639797 -15.14080422781909 93 36 22
2.0097388541384658 -4.233828481239473 -15.155291121322637 93 33 19
2.0284047908154754 -4.268177018641667 -15.140829733663253 95 38 24
2.0310568714740356 -4.276644259307336 -15.172469808267845 101 48 35
2.0369467664870675 -4.2903470854575545 -15.194813975992034 106 64 50
2.0414617837001674 -4.301835302139444 -15.22118612093444 107 70 58
2.0459405187779285 -4.313270953686306 -15.247719768105602 96 64 54
2.0452404712185572 -4.316366043704256 -15.289437493785082 81 50 41
2.0476929355231257 -4.3245542019415195 -15.322061176989134 66 35 29
2.048751049800434 -4.330507044806343 -15.358870015761894 58 27 23
2.0582727810257118 -4.3500909296476555 -15.370865319360483 58 27 23
2.0759879823501577 -4.382849615795747 -15.358640360494348 59 29 23
2.0707262817517385 -4.3786584725879445 -15.414300371334514 62 33 28
2.063386609343647 -4.371152033108959 -15.476347258072787 66 39 36
2.0497156490808015 -4.366543498538175 -15.679964075226525 73 55 54
2.0489498484048054 -4.369690889830832 -15.72336065465089 77 61 60
2.0482790855842 -4.373006250381139 -15.76661862980067 81 68 66
2.048982643886196 -4.378536773095215 -15.805863873602544 83 72 70
2.0305371772760306 -4.3623654885984315 -15.987094975235124 89 75 76
1.9826588703117425 -4.304048527434171 -16.30400202094389 101 85 83
1.947803280578293 -4.267036292979966 -16.58583895238032 135 131 128
1.9607580175178025 -4.292305435091244 -16.58923712368462 143 140 137
2.0338406709422028 -4.427020455480274 -16.53478040251351 169 167 168
2.0790564965360274 -4.512673637547551 -16.522747929000264 181 178 179
2.047775063827074 -4.467866079071752 -16.66680595704026 183 181 182
2.0799960042556767 -4.528250565347655 -16.652104612442095 187 187 187
2.1997376935703152 -4.7548239770354686 -16.61783978094946 202 202 204
2.2034435198336615 -4.7653910303511795 -16.65017340478763 204 204 206
2.2406340572521515 -4.8285528101485315 -16.571806390772032 205 205 207
-0.9997613566602208 1.7854184999796638 -12.391054734988638 120 47 28
-1.0014429580595765 1.7849490074159204 -12.425062383414453 120 47 28
-0.9844485439102568 1.751606100176339 -12.431910038511612 121 48 29
-0.9858100605541233 1.7505630084318016 -12.465545958645212 123 49 30
-0.9784440871539184 1.7341606541715322 -12.486463832863544 124 47 28
-0.9718997622273005 1.719201587249663 -12.508603973419458 124 47 27
-0.9553875796258255 1.6867170435689705 -12.516065102680244 124 47 27
-0.947502076913993 1.6694006677986826 -12.536223289802065 122 45 25
-0.875138368436986 1.5387880404791643 -12.460791213516927 122 45 25
-0.8675442785671801 1.522009525095931 -12.481143873628778 123 46 26
-0.8399439264095503 1.470094021046287 -12.47168489218263 124 47 29
-0.8039800327368747 1.4035100537700895 -12.449575330565843 124 46 26
-0.7759720252946503 1.3509151623693594 -12.43917226263389 123 45 23
-0.7454532501386608 1.293930786003969 -12.424842182920713 124 46 24
-0.7451108334615575 1.2899092432945274 -12.45580866895414 127 48 26
-0.7418155181621295 1.28070060928464 -12.482383433436596 126 45 24
-0.7241056281145264 1.2462096135726854 -12.487166374960047 126 44 23
-0.7278382467134636 1.2493183962690075 -12.524450467108778 128 46 24
-0.7104761770087524 1.215443051706897 -12.52970776040381 127 45 23
-0.6888329289426958 1.1740734388249754 -12.528357700837397 129 47 25
-0.6846321033124587 1.1632710974581233 -12.553614073483505 127 45 23
-0.6490632135070733 1.0975274406139528 -12.530744228503497 127 45 23
-0.6153330410399751 1.0350271233018118 -12.510485427757242 128 46 24
-0.5995152444218945 1.003904227932435 -12.51767349674724 128 46 24
-0.5841585052350049 0.9735944444970341 -12.525517699146665 129 47 25
-0.5724991718283623 0.9497593844890595 -12.539046588533811 128 46 24
-0.5587701188580607 0.9223066739001808 -12.549331248045057 129 47 25
-0.5394509265160727 0.8850831147038951 -12.550852382745957 130 48 26
-0.5221413199528011 0.8513822467848646 -12.555430092451857 134 53 30
-0.5089315015559679 0.8248545083308141 -12.566368453904698 136 54 32
-0.4784295706231254 0.7681163609872002 -12.550069620280448 136 55 32
-0.458347755743548 0.7296003056643805 -12.550022747888917 128 46 24
-0.4582336994932952 0.7259658382141723 -12.581458308745981 130 48 26
-0.42670864920606455 0.6674824095310372 -12.563159810077016 128 46 24
-0.4305830896691365 0.6708081710216467 -12.60095068558926 128 45 22
-0.3788572859030661 0.577100217296052 -12.550212647283248 130 46 22
-0.3408963548221622 0.5074452919550554 -12.521110601595563 130 46 22
-0.34202761661539194 0.5059968233983634 -12.55441243768419 131 47 23
-0.35382774058180155 0.5231414045952363 -12.60494353057656 131 47 23
-0.3375133952331355 0.4912596062296464 -12.61035000635433 132 48 24
-0.33417752856870653 0.4820020200025539 -12.63665940437887 131 47 23
-0.29791756559974036 0.41537918975136456 -12.609680742404162 129 45 21
-0.266295063301599 0.356859420557619 -12.58999629152115 129 45 21
-0.2530398640648177 0.33034337649456713 -12.600025878670937 129 45 21
-0.23531088323329374 0.2960437856736018 -12.60271023737738 128 44 20
-0.22157102238638782 0.2686950660922154 -12.611847035620475 130 45 23
-0.2212234095518424 0.2646514319285984 -12.64292510366441 130 45 24
-0.20363830423647133 0.23061774924693879 -12.64570218918696 127 42 21
-0.18493898624983762 0.19465509453344332 -12.646562020934887 136 52 28
-0.1741593470244447 0.17246962385191011 -12.660439248750976 138 54 30
-0.1551320215981975 0.1359523675240739 -12.660612645889191 143 59 35
-0.1472113305948346 0.11874221823502751 -12.679171989404445 138 54 30
-0.12965646740390513 0.08479721843773458 -12.681666790169213 139 55 30
-0.12886642590150155 0.07997256389624141 -12.712122246291852 141 56 33
-0.11722015708441313 0.056293997898434256 -12.724441514862479 141 56 34
-0.10779704669161694 0.03647666980736197 -12.740471995282052 141 58 36
-0.08868201290875 -0.00015557733359017334 -12.740155295721895 152 74 53
-0.07566556287191117 -0.026199393589321218 -12.750053675257547 156 85 67
-0.06233934124403939 -0.052776061570707355 -12.759387382675836 161 97 79
-0.04201917704490121 -0.09147249253758982 -12.756792774283621 161 102 90
0.10890871640931499 -0.3944028292077997 -12.880290620791529 110 29 6
0.11138631900257456 -0.4021777748311308 -12.908106512131702 100 23 3
0.12387439418293456 -0.42724264046137517 -12.918323174699914 94 19 6
0.12397557166761164 -0.4309229277114186 -12.95040778894105 83 18 6
0.14617915720464092 -0.47275067754353106 -12.943381978035095 62 15 5
0.14155541585374198 -0.46828619700576546 -12.983920938620058 36 11 7
0.13754149027207685 -0.4648868229404961 -13.023496787247453 12 5 4
0.15282102709569223 -0.4947625913882234 -13.028709539711215 31 29 28
0.16628548841671398 -0.5215031513817703 -13.037111129347679 55 53 52
0.16500607485931118 -0.522835136927192 -13.071956388865384 15 10 10
0.1673646551652892 -0.530443610802183 -13.100341394373729 13 7 7
0.17004338420508125 -0.5386097860272852 -13.128207229617928 22 16 16
0.13666201446673965 -0.48470708538414264 -13.221434759923818 18 13 13
0.1316168049593136 -0.47961208891493534 -13.263611435941055 12 8 7
0.15443892445773066 -0.5224739886794341 -13.255183700943334 14 9 8
0.11092841921120256 -0.48422168590338366 -13.671264950974809 12 8 7
0.12727273640352088 -0.5159564159837595 -13.674788794243566 13 9 8
0.1409632320936014 -0.5431343103234942 -13.683224922432412 11 7 6
0.15522856247552186 -0.5712918626743164 -13.690529082116274 9 5 4
0.17092610095696736 -0.6018967449883172 -13.695072742640448 8 5 6
0.1952694518429312 -0.6472991299824633 -13.683170239071444 54 22 8
0.21251103026461005 -0.6805273898108508 -13.68459935444298 143 73 33
0.23061363816768177 -0.7152198514797234 -13.684303458842267 186 113 82
0.2574137123454001 -0.7647813076848013 -13.667307469602587 194 141 131
0.28344396206349387 -0.8130063705083383 -13.6516026296167 189 144 134
0.30806115048027305 -0.8587965164866311 -13.638434515411156 177 127 122
0.3330958399049444 -0.9052826372622107 -13.624301158875811 194 151 147
0.35663048826869526 -0.9491877444859096 -13.612895485390752 173 128 127
0.3666261023821362 -0.9810664595405383 -13.729823625387091 164 103 84
0.3934094540776125 -1.0304769665137528 -13.711733621540763 159 95 78
0.4126663550517522 -1.0670329162571823 -13.708210229605807 160 94 77
0.4471045432376899 -1.1294556602705947 -13.674738283173378 159 93 75
0.45374734496700153 -1.1444835453082138 -13.695773281124776 162 96 79
0.44084570063627515 -1.1262192472665955 -13.755445377855493 158 93 77
0.4784988801922383 -1.1940717812915755 -13.715188388439541 157 92 79
0.5366778081109 -1.3266750169949146 -13.908492707981738 179 113 81
0.563012722252989 -1.3751452722873712 -13.889665942653323 153 105 71
0.5698296138370007 -1.390480179159372 -13.910453195549255 105 57 30
0.5870835789042141 -1.4235187411096089 -13.909917792222696 121 58 39
0.6212940015427693 -1.4852958619327197 -13.874524924485202 131 67 42
0.5923577786352103 -1.440018198467726 -13.968657229550034 144 69 39
0.6000868745401959 -1.4569055914683977 -13.987628544462137 135 56 30
0.591365075753199 -1.445931472695519 -14.040603911627915 139 69 49
0.6061595512514519 -1.4747928771807368 -14.04504437623745 147 85 71
0.6631187175821873 -1.5750101888443027 -13.961824825944305 137 79 66
0.6988792528765821 -1.639303999975188 -13.922228331758834 128 69 55
0.6546108687557481 -1.5758555741788927 -14.119801592561812 115 50 32
0.693645799245084 -1.645641693238054 -14.072946719318779 110 42 23
0.7140350941387461 -1.6839006033429618 -14.065105051036973 105 34 15
0.789770891514566 -1.8155856787480529 -13.940012627407087 106 37 17
0.7988215710234283 -1.8346462729971336 -13.955653504458732 99 32 14
0.8006235361622469 -1.8414770441958082 -13.986707488963724 90 23 8
0.8047936911224349 -1.852309749088917 -14.0127847621847 95 27 9
0.8102400719998473 -1.865299190154598 -14.03618080307847 102 32 10
0.8128776083480522 -1.873558759738419 -14.065633384934486 101 30 8
0.8223423254407805 -1.8933266340192718 -14.08047420794938 100 28 9
0.8310074207639624 -1.9117466952844575 -14.09702711964432 102 41 24
0.8341054755680228 -1.9207950639162048 -14.125609324302683 104 57 43
0.8345785821383283 -1.9254329292870125 -14.159940830767741 97 62 52
0.8293526120766881 -1.9204941284645196 -14.206746144983015 105 77 70
0.8357825850529044 -1.9351719914629841 -14.228317035560124 99 70 63
0.8324732045120284 -1.9334817159498998 -14.271184286654547 91 55 46
0.8296453506265586 -1.9326153376271282 -14.31313330332857 83 46 35
0.8295409331968937 -1.936337577642841 -14.349233566737437 107 78 67
0.8313425201090427 -1.9432708743571139 -14.381237801496024 104 75 62
0.8316260780208915 -1.9476648879374343 -14.416671333554827 110 74 59
0.8310876486043344 -1.950690311825407 -14.454020578904203 107 65 49
0.8311146311633997 -1.954675553186937 -14.49022160470601 99 54 40
0.8273603219101293 -1.9523325357347892 -14.534936188147105 92 50 39
0.8254940344787451 -1.953169270652114 -14.57558410081739 80 41 33
0.8255845351950972 -1.9572973843992658 -14.611978682962272 85 52 42
0.8254650832951356 -1.9610848890555204 -14.648945012984523 99 67 54
0.822595724462178 -1.960280653324605 -14.692198669404709 120 86 65
0.8206686869774158 -1.9610680278336918 -14.733464776786569 110 70 47
0.8188370338715694 -1.9620286657533414 -14.774641576196554 84 39 20
0.8193077965448929 -1.9668524519742974 -14.810725546890161 73 27 12
0.8171575132079236 -1.9673064405098764 -14.852864555685027 65 26 13
0.8172960521833561 -1.9715983866510172 -14.889918875484742 57 19 9
0.8158574883445024 -1.9732678576010345 -14.930679732370141 86 51 37
0.8124042592636123 -1.9715875854197042 -14.976178530122919 99 65 45
0.81058392302642 -1.9726481275996548 -15.018074991929854 84 43 27
0.8005637346862016 -1.96004536885125 -15.07898309310003 72 30 19
0.7937524910079774 -1.9528179064931166 -15.13271137791449 63 32 22
0.7888776224290179 -1.948838494770107 -15.18214793906679 53 30 24
0.7144083489159985 -1.8373894699982305 -15.471119766139125 6 4 5
0.7093730409425927 -1.833256922355048 -15.521979347190122 6 5 8
0.7189458033377236 -1.853440990645157 -15.538743111182484 10 10 14
0.746715020967863 -1.920994455986433 -15.670223852214901 8 7 11
0.7812618114697472 -1.9826248659402355 -15.627542566792652 13 11 16
0.7522521503182173 -1.9388100436462024 -15.736434307177433 18 17 22
0.9700563037660759 -2.3467026265550155 -15.645306607766301 46 45 52
1.0251591997366067 -2.441944470328669 -15.549066683292942 95 96 101
1.064094029477289 -2.510452739339536 -15.492218537847481 87 91 94
1.103398086554876 -2.5795264983880877 -15.434056476635533 61 65 67
1.0621222308968972 -2.5157644858662707 -15.575914005202975 39 40 42
1.1002267824000715 -2.5828324041123727 -15.520467500968145 16 16 17
1.1473626710161073 -2.6647280268221962 -15.44204678679112 16 14 15
1.1771837537882734 -2.7180715321584312 -15.40652564684222 12 10 11
1.2049677983891636 -2.7680332183559724 -15.375842211355604 12 8 9
1.4070408775129088 -3.1210777434595176 -15.057645668756873 94 34 18
1.4176093456635788 -3.1425785243170736 -15.068949476700116 96 34 16
1.5148458072244422 -3.306202453613454 -14.858230045001795 96 34 16
1.5280596887474704 -3.331968325764681 -14.862084992327036 98 39 18
1.5422059507679946 -3.359254381132425 -14.86347052073608 101 41 21
1.551331713458464 -3.3783097466853222 -14.877737768025241 102 41 23
1.5633990882465465 -3.4021788857975652 -14.884376789357194 104 43 27
1.5740833526104319 -3.4237792627645804 -14.894552959239244 105 46 30
1.584262467671957 -3.444549798558202 -14.906009690349094 109 51 34
1.5790792194748482 -3.4402056065034863 -14.95753316139513 109 52 35
1.7443323123716588 -3.7387248964219273 -14.787539655040113 109 51 39
1.7488056828810201 -3.7501153406484224 -14.813397043758018 111 56 44
1.7254928365163211 -3.72042972899839 -14.951753339606478 117 70 60
1.7550486252375563 -3.772649513596771 -14.910573726344998 118 81 75
1.8036310629807701 -3.8557602446938652 -14.817798833432908 136 107 104
1.8467394478742327 -3.92991417857528 -14.739230048585299 171 150 150
1.9218573422875829 -4.092931618121253 -14.913407152413127 120 80 73
1.909021564038507 -4.076362248367846 -14.987515391820985 114 70 59
1.935531095453734 -4.1233646766593495 -14.952097103958408 108 59 45
1.9399190794750267 -4.13463143311443 -14.97832355869872 102 47 33
1.9423618992033869 -4.1427661644529605 -15.010064718026605 99 41 27
1.9412633824871337 -4.145200067766845 -15.051857728702885 98 39 25
1.935800249762932 -4.140615240236257 -15.106107603461862 97 38 24
1.9455891517801183 -4.160619842400787 -15.11740398669685 95 36 23
1.9597976678071762 -4.187736660891122 -15.116132953379545 94 36 23
1.9670853381740554 -4.203707101944361 -15.134458152062962 90 38 24
1.989699349461413 -4.244326894115845 -15.109069542659967 92 48 34
1.991984867579705 -4.252246603070884 -15.141608768163016 101 60 48
1.9937581355216323 -4.259353067617543 -15.175706657788613 106 66 55
1.9971465746606794 -4.26906359345602 -15.205256487519161 96 57 47
2.0018200929859695 -4.280844363578589 -15.231172779680863 83 46 38
2.003748625516377 -4.288228010879984 -15.26508064499177 67 30 24
2.006683246245743 -4.297235024247136 -15.29616748815681 56 21 17
2.0165022342100496 -4.317281356527769 -15.3073167928653 51 19 16
2.0228968569029853 -4.3318409129075315 -15.328422941323577 47 18 15
2.0191131496368184 -4.33011267700812 -15.379314532514147 49 21 20
2.021655488552379 -4.338524527953065 -15.411849208254612 49 23 22
2.016063906773388 -4.333941637090746 -15.468384529282828 51 28 26
2.016684419887811 -4.339309050982832 -15.506827994217943 58 35 34
2.0119352275990066 -4.3361140029013505 -15.561264616856594 71 51 51
2.0083328588254328 -4.357045609914643 -15.817500217471762 74 64 64
2.004285839928076 -4.3551062180781575 -15.871096945718163 78 68 69
1.9316656229970386 -4.2673043364602545 -16.345057529297936 94 81 80
1.9159108473662019 -4.251720585703868 -16.47976830770173 117 108 106
1.9188268047727144 -4.261055617385222 -16.51420348167754 126 119 117
1.9248824156356545 -4.275366950675419 -16.53901002830442 134 130 128
1.926064518270607 -4.281979089121459 -16.578994840173763 141 139 138
1.9330420532740082 -4.29776064406443 -16.601056751755152 147 146 144
2.032457290330274 -4.478349778026506 -16.508009377410342 175 173 174
2.0060288452721964 -4.446297378876895 -16.679585782541682 183 180 181
2.086096932433447 -4.576994695962406 -16.46892105495747 184 183 183
2.0625683086412563 -4.549566393887941 -16.631861354306572 188 188 188
-1.0361553462494797 1.792372183977454 -12.406297200109066 122 50 30
-1.0121025306952043 1.7467080696387915 -12.40297824443151 123 50 31
-0.9908363675640288 1.7059408424002154 -12.40359410642121 123 50 31
-1.0164209114556102 1.7472742541962827 -12.472425341104021 123 49 30
-1.0099937580701503 1.7325016808208424 -12.494728730038464 124 47 28
-0.980926058340458 1.6780766655565031 -12.483863332071902 124 47 27
-0.9729450396024464 1.6605887296370216 -12.503835588959493 124 47 27
-0.9759700587075466 1.6623648590789992 -12.540038389226503 124 47 27
-0.8948032384462921 1.5167974226797458 -12.45191326783116 123 46 26
-0.8925863119909114 1.5094184365013419 -12.480205777500384 123 46 26
-0.8648276703758784 1.4573588859754878 -12.470601502337967 124 47 29
-0.8337925968218038 1.3995866758020234 -12.455965782442508 126 48 28
-0.8062099785051764 1.3478696223624116 -12.446310758500246 124 46 24
-0.7846486885766244 1.3066929075430949 -12.44552543486098 124 46 24
-0.762256046938568 1.2640748350891329 -12.443389881189743 125 46 24
-0.7444074857090643 1.2294066343355805 -12.447988959639506 128 46 25
-0.7370937346431501 1.2131444354660008 -12.468423753843656 128 46 25
-0.7359199464804682 1.2076008494301709 -12.498168183262539 127 45 23
-0.7316913546815966 1.1967181030238647 -12.523338092847752 127 45 23
-0.7182959140579026 1.1698345156343235 -12.53459224107761 127 45 23
-0.6978837417559429 1.1307136219821032 -12.535100075609172 128 46 24
-0.6716584285788669 1.0814642325283916 -12.52661718481517 128 46 24
-0.6546490914677983 1.0483003419909052 -12.532134504355387 127 45 23
-0.6319818537556343 1.0052808484446647 -12.528879449164602 126 44 22
-0.6158239324941217 0.9736181896505789 -12.535553265251176 130 48 26
-0.604972851875869 0.9512083658322918 -12.5503762163739 128 46 24
-0.6008834981303526 0.9405782734356478 -12.575670782418667 127 46 23
-0.5645934606546477 0.8738698515540424 -12.550925259975955 126 45 23
-0.5428351775605376 0.832485482118952 -12.548612221897987 132 52 29
-0.5198645414317191 0.7890030134225778 -12.544295692931176 133 53 30
-0.4995809933583031 0.7502092029750385 -12.544073507490092 137 56 33
-0.4808073718288943 0.7140526333060366 -12.546128617353904 130 48 26
-0.4640797709990334 0.6814635341571078 -12.551324717964787 128 46 24
-0.4444366960198569 0.6438130090557328 -12.551846280621321 126 44 22
-0.4267153448763348 0.6095128732851816 -12.555321223475973 129 46 23
-0.3961643701221975 0.552927585044781 -12.538335876280161 131 47 23
-0.4096386965268657 0.572843227221477 -12.591302255658045 130 46 22
-0.439896642135706 0.6218863702828026 -12.671267124355001 131 47 23
-0.37152870985255904 0.4996536736674999 -12.59360321438347 131 47 23
-0.35967958517243614 0.47558129734815946 -12.606193497700536 133 49 25
-0.3593470826459795 0.4714966572310155 -12.637300995634405 131 47 23
-0.30537735959662493 0.3743529880358514 -12.581884165763714 130 46 22
-0.2934540378217876 0.3501754553487739 -12.59414210011225 132 48 24
-0.28144207199026416 0.3258473245732203 -12.606228200615192 133 49 25
-0.26148155951133045 0.28774448685681175 -12.605349723755513 135 51 27
-0.2607025137386829 0.2828921678361622 -12.635673189381752 131 47 25
-0.24523393906606294 0.25258376285965767 -12.64203136041451 128 43 22
-0.22687548513881772 0.21727682513087387 -12.643589510196254 137 52 31
-0.2117659660884521 0.1876046635659847 -12.650406977030205 137 52 29
-0.19344545944533564 0.15238064458514788 -12.651872248736655 135 51 27
-0.17807363426142997 0.12226868668864821 -12.658128581076172 134 50 26
-0.16230201160097968 0.09147165308812966 -12.663662751135437 136 52 27
-0.16835823538342565 0.09843302389781527 -12.705421167200694 139 53 28
-0.15237310014555572 0.06727012407697952 -12.71056966770136 143 57 34
-0.13298833222249007 0.03023809328065674 -12.70997126859567 148 62 39
-0.10515323516282127 -0.021385790743724264 -12.69511683231645 150 71 46
-0.10032481625552458 -0.03324575000644625 -12.718746568388408 155 78 57
-0.10311869961291809 -0.03194537681842924 -12.755250773903446 147 73 56
-0.08077893328020425 -0.0740507709660001 -12.749403158611136 152 82 63
-0.057889899904976616 -0.11709057231627007 -12.742502109830493 167 103 88
0.0920193798790101 -0.42141444857001353 -12.899731773593174 96 19 2
0.09687586342356358 -0.4333286192884689 -12.92336603510103 90 18 3
0.11054322129000171 -0.4603875794586836 -12.931507723718635 80 17 3
0.12118191959197544 -0.4822382107605563 -12.944952813124232 62 11 1
0.12326449827648256 -0.4893922921615612 -12.973535879832234 51 16 12
0.12784870053306463 -0.5008480797288337 -12.99773581819423 21 5 5
0.14297035102284417 -0.5303941263288365 -13.003206144689536 18 11 12
0.15414745843470845 -0.553165064399864 -13.01565805587985 59 53 53
0.15454229687200494 -0.5574381563989732 -13.047389400360412 27 21 21
0.15762474450872377 -0.5663284897118093 -13.074373143959544 13 7 7
0.16257959067185945 -0.5784343611193483 -13.09803857655365 15 9 9
0.09995914933969097 -0.4747372504662044 -13.243686463848478 12 7 7
0.10763997594010188 -0.49155663047732734 -13.262810272956168 11 7 6
0.1329317836685977 -0.5385390927210238 -13.24999369167762 13 9 8
0.1682347681706191 -0.6546148191696872 -13.687637059672427 19 4 2
0.18437292071292033 -0.685897764909579 -13.691226739516262 98 48 18
0.20308427869489654 -0.7215558852230917 -13.689860232058052 168 98 62
0.22413665051592124 -0.761189464091883 -13.683940328195078 185 126 108
0.24933720766843148 -0.8078709999139653 -13.669984452528587 175 121 114
0.27479106516555474 -0.8549651952502995 -13.655378118636293 167 107 97
0.2993169687373629 -0.9004619593987275 -13.642381847533983 174 116 113
0.3229377974007166 -0.9444016902418007 -13.630965078061667 167 113 111
0.34131937713202065 -0.9794172474210985 -13.62949539613445 169 109 97
0.34898829972836687 -1.0037637858573447 -13.71672804973649 163 102 86
0.4193423065296953 -1.1345308936462786 -13.681765410598162 162 98 81
0.44492507987856467 -1.1817012141002845 -13.665620141319511 165 102 84
0.5190461621233862 -1.3566927050991744 -13.964573852763095 136 89 57
0.5568960490938575 -1.4244425606449989 -13.92229318765611 89 35 15
0.5987050013157997 -1.4988380217218582 -13.871611958851297 108 45 29
0.605864554495632 -1.5147479205545666 -13.891530765815109 131 69 41
0.6081882579018445 -1.5225053223245135 -13.92139355304499 142 69 40
0.6168796739479676 -1.5410034441774254 -13.938214150325043 133 54 29
0.6245081341878138 -1.5577103040488254 -13.957226982162119 139 71 48
0.5990715868381469 -1.5187243411806621 -14.044679725796263 138 79 63
0.6071678942883474 -1.5401310218361948 -14.098013009234936 114 54 38
0.6270751507546874 -1.5775264466835281 -14.091672321472712 112 48 31
0.6542360507947578 -1.627108305598342 -14.070036229501916 109 40 21
0.6874201266058928 -1.6867944115077416 -14.035564512339143 103 32 12
0.716606898725558 -1.7397319484610367 -14.009224682214322 101 32 10
0.720047527826885 -1.7493877584902213 -14.036930049831701 98 32 10
0.725561469582571 -1.7625318907445164 -14.06030923907406 92 27 12
0.744906021679888 -1.7988995508967776 -14.054411785350206 95 29 13
0.7785966104237332 -1.8593300637633794 -14.01791075007441 102 32 12
0.7805192395228171 -1.8664342573143768 -14.048805223537173 105 35 13
0.7871154446350084 -1.8813842082410144 -14.069790160423878 98 32 12
0.7918875260559881 -1.8932785401294154 -14.09470261461446 102 43 24
0.8048017908819141 -1.9188218241955628 -14.102173000888195 110 59 43
0.797457265312977 -1.9104233720009107 -14.153209240806422 98 56 46
0.7900980166404361 -1.9020201606272904 -14.204456734754416 110 80 71
0.7933533107658568 -1.9114043126212863 -14.232911162008877 104 83 75
0.8005605849941757 -1.9274076997353369 -14.252849456764011 110 89 81
0.7972824479066491 -1.9258748079309145 -14.295616487533074 110 83 74
0.7953818509327828 -1.9266601176341043 -14.335513720794907 101 78 67
0.7942734051892866 -1.9287826759809166 -14.373798322218196 113 97 88
0.8008233299770375 -1.9437123205032334 -14.39539907972246 109 83 73
0.7945613845987012 -1.9372481273455096 -14.445194272019792 91 59 49
0.7934050748633359 -1.939326358456145 -14.483905340718334 84 49 40
0.7927310821979625 -1.9422220155611525 -14.521663533719886 71 34 26
0.7879000819113955 -1.9381953158358067 -14.568743063582874 57 22 17
0.7849212576168494 -1.937274475056407 -14.611863986787052 85 54 45
0.7998516175064725 -1.966219914102477 -14.615218703878869 83 55 46
0.7825820109813733 -1.9415069541738061 -14.690431585845253 87 55 46
0.7786804436074131 -1.9390923784844762 -14.73600806473947 84 47 36
0.7756594230257181 -1.9381602628535601 -14.779755774310932 70 29 18
0.7716641452937347 -1.9356221962399074 -14.82583609096271 58 17 6
0.7708261809135517 -1.9383531532419616 -14.864939396777402 56 17 6
0.771400248637077 -1.9434447672752695 -14.900960413888379 65 31 16
0.7686589195149796 -1.9430363377526838 -14.944603618844965 84 47 34
0.7687082683321536 -1.9472799961659915 -14.982034147281254 83 45 30
0.7667078571001325 -1.948130884967192 -15.024246220680187 56 21 8
0.7563559896595264 -1.9351310923364142 -15.08569353165986 41 12 5
0.7518568205585807 -1.9318696986200479 -15.13394807011807 41 18 13
0.7353033778002689 -1.9086299095906787 -15.210086375944321 44 25 22
0.7337139385114142 -1.9102374009486356 -15.252028617058835 43 28 24
0.6999907978350706 -1.8585972925455447 -15.368390855185709 36 25 26
0.6720128098046931 -1.816533723568023 -15.471956891723504 15 8 14
0.662060430040698 -1.804373420623075 -15.534080374555135 8 5 10
0.6440318280010411 -1.7832351134904636 -15.654644276858072 33 32 38
0.7430240622773057 -1.9774785782405528 -15.697884019459499 22 21 26
0.9357849262848168 -2.3430933409527848 -15.668214112661817 46 46 52
0.9800595063723669 -2.420165855199861 -15.599115029430301 87 88 92
1.0220196540317308 -2.4933898214294077 -15.53525530166087 87 91 94
1.0601912062761478 -2.5603525259920854 -15.48032026855136 68 72 74
1.0421442209992708 -2.535118372553704 -15.56425246633242 39 41 43
1.0735263584280959 -2.590911944020476 -15.525775341752508 20 19 21
1.1101625665831745 -2.655277164918137 -15.473915078622644 15 13 14
1.1510966830574647 -2.7266370436777816 -15.410953133293148 12 10 11
1.1591832774896025 -2.7442019044358217 -15.42979662545381 12 8 9
1.3613029560226773 -3.09600006889369 -15.113910350764577 92 36 21
1.3864006047663455 -3.141207108741482 -15.088429546844832 93 36 18
1.4756490993974651 -3.291021786994655 -14.899093148603047 92 35 16
1.4928640734069578 -3.323278930208475 -14.89288038091383 125 75 58
1.5099722177745076 -3.355348431412615 -14.886819234908392 132 81 64
1.5243441929730834 -3.38294788719782 -14.887671924094201 105 47 30
1.5402053129568332 -3.412962333916565 -14.884601164367416 104 43 26
1.5541633408293354 -3.4398683243209094 -14.886344621792482 105 46 30
1.561445623765191 -3.4559075890125204 -14.905311583864698 107 49 32
1.5839748261622026 -3.50093243003737 -14.922530101340083 109 52 35
1.732615808138732 -3.771389776891505 -14.79614259682879 109 53 40
1.7159327928001082 -3.752776938891995 -14.916258145653572 113 65 50
1.7311867171163184 -3.7816655029220643 -14.913513606990648 116 76 69
1.7517595600006146 -3.819139575497182 -14.89639138842982 134 106 103
1.7993294343739614 -3.900207025998843 -14.806439438867582 165 145 147
1.8845418816677442 -4.071228755028701 -14.87809455168465 125 88 80
1.8886253933751722 -4.082024502501236 -14.904984370371496 125 88 80
1.897510019371396 -4.100543750097998 -14.918659870997296 120 81 74
1.9021640795007602 -4.112265063488699 -14.944049085490665 115 71 61
1.9114101285230345 -4.131365222266708 -14.956725260095256 108 57 44
1.9167877780092084 -4.144255105637334 -14.980163860760037 103 45 30
1.8989609061106023 -4.119928972767234 -15.068487263686892 98 39 24
1.9075982101286617 -4.138072918863648 -15.083047019766381 96 37 24
1.9162336578348054 -4.156212897799026 -15.09760303595591 93 36 22
1.942075936430602 -4.201908470339145 -15.063673672950692 93 42 26
1.946432223794456 -4.213182472978315 -15.090168547403117 98 54 41
1.9528073493808327 -4.227692422358312 -15.111001010504474 102 68 59
1.9567319266698058 -4.238286892831206 -15.138819011345811 95 66 57
1.9584096216798397 -4.245297657887451 -15.173099322061102 82 51 43
1.96009063861966 -4.25232462657552 -15.207468456052817 66 32 27
1.9630776342310452 -4.261447365467367 -15.23819668811068 57 21 18
1.9731082950295171 -4.281817069309943 -15.248779634361332 51 17 13
1.9721841607071786 -4.284714385203869 -15.290871363593553 51 17 14
1.9726381489563432 -4.289823717004585 -15.329125327435328 49 16 14
1.9736434952304247 -4.295824582485289 -15.365902991225777 44 16 15
1.9755908829977802 -4.316655997965557 -15.52020480410773 73 59 58
1.9401700701803262 -4.3013849420771 -15.993965753682161 40 26 28
1.9459354206924342 -4.315129791386696 -16.018423629888424 49 39 41
1.937780290873227 -4.306892061918401 -16.084904449139067 86 78 82
1.9249675649942022 -4.291332232386633 -16.165742889434114 89 79 79
1.8841951696386299 -4.236447095327314 -16.374533264546873 95 82 81
1.8635325066170467 -4.208648880859992 -16.48049316836735 103 92 91
1.868152313741437 -4.225530125725954 -16.553022055969542 125 119 119
1.8736593828497896 -4.239017368110393 -16.579615132462827 133 129 128
2.0277845189733923 -4.524243119140842 -16.491773821995018 180 178 179
2.075451015970462 -4.6474367634033875 -16.780178778551903 198 198 198
-1.0711959591367877 1.7968044335246454 -12.419484752137256 120 50 31
-1.0444633359039321 1.7465624576413417 -12.412399763348002 122 48 32
-1.0287791036161917 1.715621458459795 -12.4211912993638 124 48 32
-1.0141283070583587 1.6864897359404054 -12.431433228830725 122 48 29
-0.9971985321403194 1.6533869171118907 -12.438310361860069 120 48 26
-1.0002243114531493 1.6550977397271849 -12.474285552500948 123 47 26
-0.9893862848368848 1.632622571241809 -12.49004323873833 125 47 27
-0.9925956827406117 1.6346380745411526 -12.526424645576284 124 47 27
-0.910508845073299 1.4879823987384269 -12.43725412455289 123 46 26
-0.9202722385467546 1.501433931494418 -12.483172754834147 123 46 27
-0.8811490629995924 1.4297096124949418 -12.456837718541388 125 48 30
-0.8410858900233906 1.356375395665415 -12.42886678232381 126 49 28
-0.821147970394168 1.3181086723565976 -12.430614658828013 127 49 27
-0.8086910029022163 1.2928733370964158 -12.443444000987789 126 48 26
-0.7532648241820104 1.1893298828997834 -12.423217012586075 128 46 25
-0.7380867212527589 1.1593852886842946 -12.431743065469647 128 46 25
-0.7203476305757 1.1249933964288337 -12.43635350988074 128 46 25
-0.7059491034069727 1.0964166145933536 -12.445947323520096 127 45 24
-0.7061917863442431 1.0932894804827678 -12.477711145891956 127 45 24
-0.6908500605948538 1.0630773586713937 -12.485840063790821 124 42 21
-0.7014769226240007 1.077977407988575 -12.533529577758081 129 47 25
-0.6841555150271939 1.0443274872335166 -12.538631415318196 128 46 24
-0.6736436983965546 1.0225069965245597 -12.55410762370349 128 46 24
-0.650329121955902 0.9784680028940498 -12.549883468879436 129 47 25
-0.6129299253465992 0.9100042429641526 -12.5238242605935 131 49 27
-0.6078223344865479 0.8975811061328258 -12.547451635839572 130 48 26
-0.5810765372919366 0.847630291384732 -12.537568330021587 127 45 23
-0.5748278501449522 0.8332319674873219 -12.559394500012633 133 51 29
-0.5508378574243502 0.7880815544069995 -12.553593794210663 132 50 28
-0.5313528353445856 0.7507514159221751 -12.554706223988942 134 51 30
-0.5104905545636411 0.7110455480356128 -12.553571734948733 128 42 22
-0.48740079180186413 0.6674935184952115 -12.548837056426965 130 43 23
-0.46682969323123125 0.6283156973230053 -12.547949670616145 129 43 22
-0.5022764657735053 0.6861080481735735 -12.635435130921127 129 47 23
-0.46767435671020285 0.622647002311151 -12.612366080310451 132 50 26
-0.4563342037472222 0.5994515267376457 -12.626014337434334 130 48 24
-0.43825294556280303 0.5646002646839783 -12.628908899171867 128 46 22
-0.3845867692701437 0.4682335820759773 -12.574921039258452 130 46 22
-0.3586415844085278 0.41982481364763036 -12.564919455771662 136 52 28
-0.4048558346398088 0.4961227964580157 -12.670572477006436 132 48 24
-0.37357487756124685 0.4384948991470603 -12.651999328237341 129 45 21
-0.3563841287348195 0.40522279661946037 -12.655965788331056 130 46 22
-0.30900636019065253 0.319840186066946 -12.611027245823735 134 50 26
-0.29060404692746955 0.2845080207759709 -12.612753044844496 131 46 23
-0.27573495178704377 0.25528209606214247 -12.620140938108056 128 42 20
-0.27073649901304675 0.2430897202802802 -12.643570374773542 129 43 18
-0.2526508107025167 0.20832385511222018 -12.645634632040807 134 50 24
-0.21649273620849208 0.14240897686914522 -12.617990971570345 132 47 26
-0.1997853685201818 0.11004622177194534 -12.622077859153142 131 45 25
-0.185224580156107 0.08139021127773916 -12.629631731105238 130 47 23
-0.18301294264547252 0.07401273842871081 -12.657539301742375 131 49 25
-0.1636080998024223 0.03702043064746885 -12.657017429337358 134 50 28
-0.17631443961799187 0.055321682684194684 -12.70974348623545 139 54 33
-0.16103560847682408 0.025436183500465503 -12.716045290865326 145 60 40
-0.133564515603124 -0.02542077384138164 -12.701926889001797 150 68 47
-0.1282413081906939 -0.03816210217676819 -12.72472707712907 152 73 54
-0.13291871861780757 -0.03370960410962809 -12.764346386797353 148 73 54
-0.11483836209644105 -0.0683933911807566 -12.765774593697483 148 77 57
-0.08968605295922849 -0.11522146467560201 -12.755182139974504 165 98 80
-0.07308557932702353 -0.14733996359811385 -12.758913797717202 164 102 98
-0.049165987097839814 -0.1920215369658198 -12.750154626153737 199 158 162
0.06801695262731888 -0.43628188391896305 -12.931625969245443 86 15 3
0.0782774886612363 -0.45747607355216413 -12.945806062208717 79 14 3
0.09741294095065767 -0.4938477092571576 -12.94434377754935 69 12 4
0.10451323843862514 -0.5096301453972876 -12.964029608038398 58 15 6
0.10586339300015313 -0.5155853562307628 -12.99390678599274 35 11 7
0.11648001993645352 -0.5373824471382314 -13.007405574820169 14 6 7
0.12431357802541276 -0.5544231741011094 -13.025837086186982 40 36 34
0.12199451402067885 -0.5541268921548621 -13.0623886303779 46 42 40
0.11837268772233767 -0.5516181187531881 -13.101372833983907 12 8 7
0.0632139667010505 -0.468624551629226 -13.298878815288166 12 8 7
0.1224551255280466 -0.5733754990207425 -13.224893037517575 13 9 8
0.09629556707365561 -0.5325066660269036 -13.30521857289286 13 9 8
0.15938569107239786 -0.6966748534199949 -13.691858694693057 55 23 7
0.17377995252613854 -0.7249352940267704 -13.698726016450378 152 81 43
0.18787712071693097 -0.7526857467782442 -13.706100048029777 186 125 100
0.21661360488703085 -0.8052372780528572 -13.68559842885067 182 125 110
0.2427782946271635 -0.85340956052839 -13.66979696486892 159 87 65
0.26743450997463203 -0.8990075339090673 -13.656702102373385 149 72 55
0.2843193901315595 -0.9314315790155536 -13.65833273412418 152 82 67
0.3086862114439497 -0.9765078073468132 -13.645510518122016 166 103 85
0.3261976075495645 -1.0176513196955481 -13.713696010708908 175 111 96
0.4779438053720093 -1.3396080370418595 -13.998688877824442 152 100 57
0.5247836349972146 -1.4222369899428422 -13.938476441829055 122 77 46
0.6008679047453604 -1.5539318654000445 -13.818346402372786 86 29 11
0.5931384477355977 -1.5448419793463097 -13.868494424609025 112 51 35
0.5897714214963719 -1.5430925846163142 -13.909892579572023 138 78 51
0.5665515914473289 -1.5080536816095051 -13.992136583174542 141 69 36
0.590509017308114 -1.5521666285158062 -13.977707927339845 131 58 27
0.6343889323650442 -1.6296572467771195 -13.922036271319609 126 59 37
0.6450664318644472 -1.6514669339547732 -13.934618261181297 111 53 39
0.6565761757859372 -1.6746680184436373 -13.945451480471043 106 46 30
0.6661734490352522 -1.6946629865908855 -13.960226082681336 103 36 18
0.6762415434663485 -1.7154446653954896 -13.974007495468303 97 27 9
0.6852153871911502 -1.7343934337967557 -13.990057483774514 95 27 10
0.6849942806899731 -1.7379619484872713 -14.025361566747389 88 26 9
0.6934165853121801 -1.7559930443733531 -14.042609628880866 86 24 9
0.6960820767699936 -1.7644024605038622 -14.071980089975796 94 27 12
0.7105156691860501 -1.792480653188802 -14.076570774263555 98 30 14
0.7321843873180338 -1.8326348825663779 -14.065780769390706 102 32 11
0.7286754882141042 -1.8307388461066276 -14.108278098165897 100 33 12
0.7365153112657006 -1.847797302255766 -14.1267606276142 101 44 23
0.7433909399078509 -1.8632480913412577 -14.147307516711534 110 61 43
0.7726887589906535 -1.9160918486351033 -14.119909277772301 89 41 32
0.7630223349333214 -1.9039577149283824 -14.175844453855657 93 56 46
0.7445749718751911 -1.8772149636343514 -14.250866786117108 108 79 69
0.7587765186708277 -1.9048890114646406 -14.255801774783833 110 84 74
0.767766287691034 -1.9238780144311587 -14.271938699217415 113 90 80
0.7317839956960364 -1.8680156132811137 -14.385543430753613 122 99 88
0.7349391035720361 -1.8773250712863625 -14.414605818090646 114 91 78
0.7403130015096622 -1.8903315989491132 -14.438895877826354 114 85 72
0.7458347902897318 -1.9035881538670338 -14.462899721758726 111 74 61
0.7424296602584781 -1.9020140192032349 -14.506491966545171 110 71 57
0.7405697909027684 -1.9030224369200024 -14.546829156847696 104 67 55
0.7387965553422537 -1.9041884101030284 -14.587096797535512 78 43 34
0.7345557613677207 -1.901272302950022 -14.632932815952032 81 49 38
0.7323417400352894 -1.9017359057224628 -14.674432425819667 94 63 46
0.7526220292207451 -1.9395209150172237 -14.66613560814277 103 70 48
0.7372612915426204 -1.9182031053192743 -14.737012314855551 108 70 53
0.7331232159964811 -1.9155152001786533 -14.783132071160153 99 58 44
0.7302114298465199 -1.9148757347166683 -14.826659613833293 84 42 30
0.7265614302384651 -1.913029396586679 -14.871980013370255 69 28 18
0.7256500896465155 -1.9157325978474784 -14.911288146648875 74 34 22
0.7256854617614121 -1.9200150961139393 -14.948576234945907 108 71 50
0.7246398270033554 -1.9225215090179404 -14.988411898413016 108 64 41
0.7227906981223757 -1.9237128481665868 -15.030185899233603 80 35 16
0.717955718484431 -1.919984477209435 -15.07887286831869 65 30 17
0.7000481014997235 -1.8946810618087087 -15.157511280402751 50 25 19
0.688415734888526 -1.8797752625257438 -15.222134478644733 37 20 19
0.6806883406460469 -1.87134236646944 -15.278059789771866 38 25 25
0.6779342970006255 -1.8711370503455829 -15.322763562289534 28 19 21
0.6434111897217725 -1.8185580298013484 -15.440767149356024 9 3 5
0.6093434055575706 -1.7667893314362537 -15.558248215551721 14 9 13
0.7108822473607304 -1.9782670877797086 -15.713958254633415 28 27 33
0.7525602102186904 -2.0511275139622853 -15.654519540975691 51 52 55
0.7493884597081784 -2.054866672560233 -15.741174256078875 92 93 97
0.9220571674192359 -2.3732096796142788 -15.64078398895645 46 45 52
0.9674296927811379 -2.4517610018246394 -15.569283431025081 88 89 94
0.9878551463213094 -2.4895446796479135 -15.55852278035 87 88 92
1.0087977192240696 -2.5281548000207996 -15.54633838368057 77 78 79
1.0282599615920232 -2.564333222091239 -15.537646816152117 47 46 49
0.996165249801602 -2.516468410698108 -15.656335743987416 23 22 25
1.0614660401943983 -2.627326865450634 -15.534023986856935 16 14 15
1.1101720153403671 -2.7199347252201314 -15.530568888199909 10 7 6
1.3160010047343689 -3.072024959928145 -15.168597829545647 91 39 24
1.3559067721736757 -3.141136433973628 -15.105928774499255 93 37 22
1.4406749470689202 -3.2829785279429684 -14.928882389066224 94 36 21
1.4623315177371605 -3.3223683409577074 -14.91153508283824 136 89 75
1.4816567877581375 -3.3579592124233564 -14.899959364165419 141 90 73
1.4973176144329523 -3.3875968002802557 -14.89761549008167 134 76 59
1.5133519885027225 -3.417827783760152 -14.894211351519228 102 43 29
1.5285610076026788 -3.4467109249108514 -14.892824923663186 104 45 29
1.5378237739852958 -3.4659643505030795 -14.906689736823301 106 47 31
1.5582081779503247 -3.5074703850571387 -14.929552704845799 109 52 35
1.697259720028379 -3.761686064139119 -14.829699910590026 109 53 37
1.707512322447713 -3.78245531892118 -14.840254783163598 110 55 39
1.6880422555287664 -3.755399417629163 -14.929781875278628 111 63 48
1.7047165917749876 -3.7865125934559103 -14.923372179162161 117 77 70
1.7102177427768752 -3.799653119483934 -14.946698165605778 139 111 108
1.7525244534399524 -3.871926171520829 -14.871442645611168 155 132 134
1.8084133352457732 -3.965952378660739 -14.759204531360625 153 128 131
1.8401685605942957 -4.038210013785129 -14.862043786543058 114 74 65
1.8348546629510905 -4.033996943758796 -14.914532490931457 122 84 77
1.8516901741375573 -4.065243449520527 -14.90657981440881 127 91 82
1.8597083317627034 -4.0823754931263885 -14.922700992065174 128 89 81
1.8728381299115116 -4.107677241688804 -14.924752699845394 122 78 69
1.8759726271720263 -4.117003725297555 -14.954313851677782 111 60 47
1.885364532091121 -4.136328835520924 -14.966631477845326 103 45 30
1.8844974521751672 -4.1392810146306 -15.007394587942008 99 39 21
1.8864070030761901 -4.146676634348371 -15.040565414185473 96 39 22
1.893714155800239 -4.16268661452505 -15.058770127436183 96 47 35
1.8966235764684662 -4.171691430201779 -15.089287506730674 103 59 52
1.9098683075195502 -4.197162230440691 -15.090893350975131 101 64 55
1.9165628429235264 -4.21219965029629 -15.110842274250995 91 58 50
1.919165363341984 -4.220730562175191 -15.142351240254229 71 42 37
1.9235209407065894 -4.232057770808749 -15.168986058794196 53 25 21
1.925169346940939 -4.239089982509182 -15.203353100807917 50 19 17
1.926802993167763 -4.246109871235833 -15.237860446030215 49 18 16
1.9337889321864328 -4.2616358190359405 -15.257208919185285 46 18 17
1.9332379802310595 -4.265208108795401 -15.298118006592762 42 15 13
1.9330819109176973 -4.269421560262899 -15.338029011462078 48 21 19
1.9380460134821136 -4.2817624962842915 -15.363352931174974 59 33 31
1.8763867299809163 -4.2442291336190285 -16.072832184910563 42 24 25
1.8765840285858384 -4.249273108327292 -16.11412156319159 47 34 35
1.8743475335813238 -4.255275462839666 -16.2049999482665 82 75 76
1.8060985667832083 -4.172509468071732 -16.625633987704145 126 120 120
1.8277556035856874 -4.211316518989054 -16.603123340521222 135 129 129
1.8338512946267307 -4.225768880331398 -16.628011903122236 143 138 138
2.0535804172140812 -4.656799470857152 -16.729600058404248 198 198 198
-1.123076682161944 1.8340262342953135 -12.42523333138049 123 48 31
-1.102611705805662 1.7947940629188714 -12.42737281177067 121 48 31
-1.0799563009046125 1.7517629202892238 -12.426268111262178 122 46 30
-1.0573765931455656 1.7088755079242812 -12.42516751065747 122 46 30
-1.044963032226911 1.6836697543976422 -12.438689775686235 121 47 28
-1.0257867495390394 1.6467158946000389 -12.442362394313335 122 47 26
-0.999497077570084 1.5974139237005396 -12.435595044268766 123 48 27
-0.9805633247216532 1.5609027227388674 -12.439435687289157 125 48 28
-0.9573985250421702 1.5170542295236098 -12.437002672758554 126 49 29
-0.9341087125524425 1.4730015632724696 -12.434274772631227 125 48 28
-0.9358629913153473 1.4724224191780344 -12.468306667998167 125 48 28
-0.9016288262863816 1.409396926643451 -12.449295461515113 125 48 30
-0.8753730053395827 1.3602325096377132 -12.441893932441705 125 48 28
-0.8458419405464745 1.3054046800515628 -12.429493908613395 127 49 27
-0.7883207725546648 1.194870370294904 -12.437798271477842 127 45 24
-0.7740379546535086 1.1665162569895609 -12.44773975963897 128 46 25
-0.7602249259038727 1.138980638535842 -12.458344789197753 129 47 26
-0.7432318651278322 1.1059442510563997 -12.464113926083328 126 45 24
-0.7278799478585394 1.0757558011588308 -12.472299659901232 127 45 24
-0.7154575423284499 1.0506422562253492 -12.484875380477806 130 48 26
-0.7030479047677827 1.025554098646423 -12.497441862422985 128 46 24
-0.7120403303468508 1.0374807927508796 -12.542607510176484 128 46 24
-0.6842258398738283 0.9857561220859612 -12.531656113742036 129 47 25
-0.6654531945132991 0.9496772292519218 -12.534408377444777 130 48 26
-0.6390066853546763 0.9003477693403248 -12.525286460136888 130 48 26
-0.6306291322231488 0.8822483036775592 -12.54386255800781 129 47 25
-0.6152777967677263 0.8521047816905547 -12.551667968156089 127 45 23
-0.599061878762587 0.8204747317272547 -12.558080374152603 128 46 24
-0.5785131087528255 0.7813730734557849 -12.557701642471567 128 46 24
-0.555464126646716 0.737968359991366 -12.553331857369578 127 45 23
-0.5342497596478242 0.6977421188578923 -12.551708722570954 130 46 24
-0.5069914199286214 0.6471043950497757 -12.54051879505017 129 43 22
-0.4914769042169067 0.6167321114090898 -12.54761166968045 128 44 20
-0.5057770420941825 0.6377557529123372 -12.60158001120945 129 47 23
-0.4762488454288136 0.5832344629666064 -12.586566855593942 132 50 26
-0.46199201324831973 0.5550406637607512 -12.595546576531305 129 47 23
-0.43223020177135085 0.5001498982611867 -12.579877617361824 128 46 22
-0.4055983445656062 0.4506683907875999 -12.569010815678883 129 45 21
-0.38900243649529553 0.4184782338022712 -12.574001793438224 133 49 25
-0.4439129011487637 0.5093376241598451 -12.693296733511696 132 48 24
-0.4190200586683659 0.4628552873399663 -12.685152136612125 131 47 23
-0.39032758940314727 0.4098544578808525 -12.670760381949751 134 50 26
-0.3400132755347127 0.3197001932937251 -12.621338394188847 140 56 32
-0.3185193574193388 0.27912184756673764 -12.618149174941614 135 50 26
-0.3034552313086851 0.2496041554367734 -12.6252715437384 133 46 25
-0.29869464881528573 0.23779173463655567 -12.649083562326428 133 47 23
-0.27638132013093486 0.19583289550120764 -12.644327907226542 130 46 21
-0.2602550126602172 0.16450926322975068 -12.649562442641766 128 43 22
-0.22496049592761214 0.10029553969377059 -12.623332363323339 129 43 22
-0.2104716266829425 0.07180591184202889 -12.631043162674253 130 47 23
-0.20105045286991574 0.05201456271185023 -12.64704837664798 137 55 31
-0.18807572217498825 0.02613057063093649 -12.657178880672475 135 51 27
-0.16430794164098161 -0.01825094962726581 -12.649402462744114 141 56 34
-0.16976445320596056 -0.012534305197368312 -12.690004118226707 139 54 33
-0.15734360125264057 -0.037459978746896105 -12.700974931133388 140 59 37
-0.15074018090489316 -0.052418112727532495 -12.721620017227979 146 65 45
-0.1447138276973523 -0.06639021404224721 -12.743248270556611 143 67 48
-0.1165954706886918 -0.11817992452330905 -12.727837232358905 149 78 59
-0.11314293083533355 -0.12774169152851478 -12.753742356501139 163 96 79
-0.09073854845255092 -0.16972924883407892 -12.747730469530278 171 107 97
-0.08629138722023111 -0.1809927746108011 -12.771960577260481 162 114 108
0.05773362842172203 -0.4672768752919927 -12.875393984315014 103 24 4
0.05495660010321135 -0.4662327981493233 -12.912247620463269 87 14 1
0.06948740117642682 -0.4946822520477454 -12.9189164347904 81 13 1
0.0693532138532138 -0.49815329471485637 -12.951261360236163 76 15 4
0.0791834362077628 -0.5185959753166216 -12.966156457410033 64 15 4
0.05602780053502787 -0.4866372228662552 -13.071632737436904 18 6 4
0.065716183034366 -0.5068574960657415 -13.086942677534392 24 20 16
0.07579157165508699 -0.5277345414705596 -13.101554173010367 59 55 53
0.09566940338443342 -0.5652703210508241 -13.098678012891007 12 8 7
0.1213655047651443 -0.612679515226783 -13.085296783178366 11 7 6
0.08622698984941612 -0.564297055661739 -13.246352019432372 13 9 8
0.0756744285832851 -0.550182724587092 -13.298325833050352 14 10 9
0.06101577991513141 -0.5329490697656167 -13.391116289114997 15 11 10
