ply
format ascii 1.0
element vertex 686
property float x
property float y
property float z
property uchar diffuse_red
property uchar diffuse_green
property uchar diffuse_blue
end_header
-1.7048773399638844 -0.15844428153761703 -12.633084584386978 111 45 29
-1.7373574978813755 -0.17058552387978554 -12.640158655207756 112 46 31
-1.8100766438077356 -0.19933648488780897 -12.609206370995036 112 46 32
-1.8229846546563993 -0.2034068603053767 -12.634535872430481 111 45 33
-2.0107026923594953 -0.27464801676126416 -12.643457675744102 167 94 53
-2.041946225024491 -0.28630243120868837 -12.650995551933981 127 58 26
-2.038707200893467 -0.2837017246074922 -12.691762078171095 94 26 6
-2.1229060798261443 -0.3172579236595958 -12.64797202158075 91 25 8
-2.104037206081925 -0.3081916492129333 -12.703924566060671 94 31 13
-2.0572438596789233 -0.2875642324779615 -12.787297540170858 110 54 35
-2.0660861895730083 -0.289949065601238 -12.816687681009112 114 57 42
-1.7212438187915353 -0.12442780276213306 -13.834144383852578 65 29 21
-1.747571672286571 -0.13399310027859768 -13.848119028844225 49 11 4
-1.7826476978155963 -0.1471965648357938 -13.853017206178786 48 10 3
-1.8961272057373533 -0.1930059363295853 -13.776579457643312 51 12 5
-1.9531580740310046 -0.21535536685007717 -13.758238108949417 63 11 1
-2.0093774502918436 -0.23737479779257287 -13.740515475123004 88 21 1
-2.1152134799231774 -0.28004927243128774 -13.670699594328774 118 59 24
-2.0373606005365685 -0.24628191371721497 -13.79295089834581 135 92 59
-2.0524069047613445 -0.2511728031900855 -13.818113281527094 84 33 18
-2.0648373599448213 -0.2549733260915681 -13.846064095680209 110 61 51
-2.081706432397138 -0.26062124341677784 -13.869365748629917 127 80 62
-2.100032114987113 -0.26687545324396833 -13.891140575667063 142 91 53
-2.130067416844329 -0.2780095096707784 -13.900465576544182 129 71 29
-2.174908562906535 -0.29531782526908756 -13.893926556574577 96 37 18
-2.2063866095199742 -0.3070593222024378 -13.901532814033864 83 25 16
-2.164798844316416 -0.2883288965921045 -13.987498006882685 85 23 8
-2.165488380937931 -0.2872230224073684 -14.028334931824848 100 34 12
-2.178098757836368 -0.2910875628384191 -14.056421547760504 115 52 30
-2.137315489823604 -0.27266402517552146 -14.1423780724245 113 61 46
-2.157165362336605 -0.27954228344907817 -14.162864741344478 120 74 61
-2.128501050651874 -0.26616028088529653 -14.236201715947423 124 71 53
-2.104355802396677 -0.2546555189161466 -14.304913763573275 131 81 62
-2.0658350600700155 -0.23713469834352852 -14.389663119377175 63 47 41
-2.1089434481082243 -0.25228318090543844 -14.427864073834042 57 50 52
-2.0949876465591624 -0.2450091425787564 -14.48620828748814 53 51 54
-2.15548844046633 -0.2688702315685232 -14.462220120861243 53 52 54
-2.105140293714725 -0.24636374359629887 -14.561237351666751 53 53 53
-2.1059471979562696 -0.24524934429008383 -14.603663238172192 54 54 53
-2.1076361317024146 -0.244499853561309 -14.645230911128063 55 54 56
-2.103495363180974 -0.24130530491854119 -14.693462197261375 54 55 57
-2.141049289399536 -0.2555677397329412 -14.694940099510244 67 54 53
-2.1196504912644256 -0.24513705384534967 -14.762834852975057 106 65 54
-2.1093283661790005 -0.2393385986239629 -14.818470658644944 140 80 61
-2.0991176517989416 -0.2335799466885793 -14.8741857066264 109 64 50
-2.0884539942242863 -0.22762449021958764 -14.930622392802833 124 74 56
-2.088211780480391 -0.22603250576759315 -14.975368466576967 112 66 51
-2.0840763998145375 -0.22280266557825845 -15.024714018162843 105 65 49
-2.081868845037479 -0.22037612859403044 -15.072012732751562 134 80 64
-2.026826965107009 -0.19576893892346847 -15.180336153663694 109 61 47
-1.9975340727277429 -0.18195467813219057 -15.25942285013145 111 65 50
-1.9494825464974266 -0.16025134311199452 -15.36059131876587 126 80 64
-2.0372030505522156 -0.19556458034757762 -15.304420887968107 126 72 53
-2.047041518350335 -0.19816907952720886 -15.33858397574343 138 74 57
-2.008273967211463 -0.18034235548716104 -15.429654142432998 125 66 54
-2.050278044547656 -0.19645872912108642 -15.426418769521884 116 66 51
-2.021843431409649 -0.18295888989366071 -15.505883575809566 125 73 61
-2.024738776481553 -0.18262614325327542 -15.54873498072155 126 75 65
-2.0234437798315135 -0.18052602846011512 -15.596670949743318 111 63 54
-2.0088836158357255 -0.17283768986253767 -15.660504458257627 104 58 51
-1.9964886346113495 -0.16605246795344675 -15.722011981377705 95 49 37
-1.9936952589115124 -0.16330264245504056 -15.77229529499309 93 36 18
-2.0001945355619375 -0.1644614496769745 -15.811623538448362 107 44 22
-2.0079654207748634 -0.1661525303596294 -15.84952980749959 113 53 36
-2.030818645093966 -0.17419708728741545 -15.869368770565394 88 45 35
1.1389866162528328 0.9671705391809968 -12.873040993461622 153 138 137
1.1811689911262304 0.9858009291210121 -12.945355925167911 116 86 85
0.9057054806583116 0.8742695306797881 -12.765477626096487 115 74 71
0.8128832465686084 0.8375583143606382 -12.730007461536445 116 67 61
0.7209065948159852 0.8011819438665069 -12.694872476804493 115 64 55
0.6815169759395738 0.7863571979213158 -12.701576138483398 117 60 52
0.6495676980114702 0.7745809440996534 -12.714177287824237 119 59 51
0.5184801927701965 0.7221347060569072 -12.64673771246499 116 57 47
0.5090433307919318 0.7195833931927236 -12.677213219080167 116 53 44
0.4219144755075108 0.6851504530172148 -12.64468468362137 118 53 43
-1.0175186218220755 0.1344345487850067 -12.630841921163807 123 54 39
-1.0739026305184227 0.11243969117635721 -12.618098818208399 125 56 41
-1.3020744627998164 0.024601526270570773 -12.600280331647678 124 52 38
-1.3408928960046005 0.009840038849447064 -12.602508465856909 124 52 38
-1.3976243149389793 -0.012339605599391623 -12.588265092290715 124 52 38
-1.4651674446731633 -0.03900241750505229 -12.56391257389998 126 54 39
-1.5044720256589805 -0.053980444033717045 -12.565254598456475 125 53 37
-1.5522336348148587 -0.07246513870335503 -12.558692329797502 122 51 33
-1.5794093151350346 -0.08242652135875361 -12.571008368700596 120 51 32
-1.5898134820362477 -0.08543943448144997 -12.598833482295976 118 50 31
-1.617647993481179 -0.09567529139172759 -12.610496437125637 117 49 32
-1.625192815873855 -0.09750105996022151 -12.641038179926865 115 48 31
-1.7021387019634195 -0.12810354695747161 -12.606718124221992 112 46 30
-1.7188446256987602 -0.1337312312208676 -12.628602085673368 111 45 29
-1.7311025923134817 -0.13751312148626726 -12.654685684696709 112 46 32
-1.7677563398502958 -0.15141703580071142 -12.657782549892676 113 46 32
-1.8058428247944907 -0.1659189829017007 -12.6594261880867 113 46 34
-2.0794325933952598 -0.27174136177669017 -12.623634299357821 158 86 49
-2.0823382586531762 -0.2716474642000575 -12.658398311673015 110 39 12
-2.083675855028007 -0.27089833284979026 -12.694773390162977 97 29 12
-2.1617713631867597 -0.302072431039929 -12.656639386234728 96 29 14
-2.1455233934362123 -0.2940076287271922 -12.710140294147681 103 41 21
-2.1092482835745567 -0.2776017511829656 -12.783424680058232 114 56 40
-2.113712179210742 -0.2781420097723597 -12.81707737102976 105 61 50
-1.6937079151431007 -0.0824494030286318 -13.831247662625616 13 5 5
-1.7475448438771668 -0.10352227957511806 -13.817013610921881 67 39 32
-1.7767322153477565 -0.114299191069819 -13.82798649749802 49 13 4
-1.8071305256854489 -0.12558430004153553 -13.837651919025266 47 11 4
-1.970879828136777 -0.1912259081656993 -13.749719405386992 55 11 5
-2.0053305385167164 -0.2042240662821051 -13.75465244005231 73 15 2
-2.1464879054626413 -0.26047726580838804 -13.68843457297946 135 85 50
-2.1166135650175804 -0.2465581092733169 -13.760565480806868 112 65 40
-2.100438314161262 -0.23836591461096646 -13.818545017636977 87 34 21
-2.124602001714374 -0.24706552893646627 -13.834047297594953 127 79 63
-2.1297866884127936 -0.24781299512301036 -13.869671674753565 132 82 56
-2.1667568034868063 -0.26188032528191085 -13.871542564267362 149 96 56
-2.2092525004511474 -0.2782680629844445 -13.867404879705129 105 48 20
-2.237371365526773 -0.28863149708982405 -13.878522962420398 84 27 15
-2.2685784043571706 -0.3002921954113176 -13.8862708271387 81 23 9
-2.1967159361753987 -0.26870825969886436 -14.004992927582299 97 33 13
-2.20835088167473 -0.2721482109158755 -14.03407162266901 113 46 22
-2.176808408074285 -0.2574599267300046 -14.109996592990388 117 61 42
-2.1823870770315086 -0.2583482870035483 -14.145901167540522 117 68 54
-2.167308427557706 -0.2505566745948493 -14.204417582940756 122 71 53
-2.162594520419562 -0.247111954781432 -14.251826825598085 136 82 61
-2.185248668904709 -0.25516333210598763 -14.26938393072389 71 52 46
-2.1403810939970827 -0.23483122559974134 -14.361186643837476 55 49 53
-2.1434728699517276 -0.23465055522881473 -14.40050793981409 56 49 53
-2.189378497499802 -0.2524733067210856 -14.392574218214323 53 51 54
-2.103723897256902 -0.21495348714418006 -14.530450568177848 52 51 53
-2.156966220519678 -0.23586041120340795 -14.514446279850365 52 52 52
-2.1526944551760536 -0.23256514646045856 -14.562419936203476 53 53 53
-2.1485032549346705 -0.2292982033060902 -14.610465022889583 56 53 56
-2.16470861729345 -0.23461593950184811 -14.63577178164209 54 55 57
-2.1624564959797175 -0.2321569891427635 -14.681890167979404 56 54 56
-2.1583215604394983 -0.22889942700577048 -14.730285218747285 73 53 50
-2.1564192819261114 -0.22657728462312043 -14.776314793625087 125 77 62
-2.144236798637789 -0.2199155763723546 -14.83417268584369 123 74 59
-2.135998525653556 -0.21490971512704338 -14.887755481175065 113 62 47
-2.131411667096219 -0.21143752733475196 -14.93735897606177 131 80 62
-2.1255941869930615 -0.20744016634912343 -14.988542706912398 96 56 42
-2.1259456491439632 -0.2060404704715304 -15.032813788287434 129 78 62
-2.1055056645220196 -0.1958576410827173 -15.10119417920345 124 73 57
-2.061281597596949 -0.1756204136110595 -15.197357714986456 107 63 51
-2.1122529663020444 -0.19558279388098265 -15.183559729340367 128 77 59
-2.116795720965156 -0.19593320686840343 -15.223561125901615 128 74 54
-2.1145379058019262 -0.19340525071681736 -15.271608140851185 139 75 58
-2.112668530419433 -0.19103601181137497 -15.31935985134339 125 64 51
-2.111581198542133 -0.18899206840472837 -15.366351058512711 110 59 48
-2.06354937290081 -0.16708321317842767 -15.468750391639407 121 69 58
-2.0698031204187943 -0.16812949268934752 -15.507544783894078 120 69 58
-2.0638793992368543 -0.16401763410513093 -15.560860793654218 116 67 55
-2.037238555094336 -0.15112742055260142 -15.638968121435362 111 64 52
-2.0306634610984142 -0.1467240200046218 -15.693512050300992 98 50 39
-2.0241532797499238 -0.14234133508704927 -15.74817423810473 95 40 26
-2.0340168773096767 -0.14489064960570763 -15.783415003248944 94 33 16
-2.046764286063449 -0.14865960349830187 -15.815271277203141 113 52 32
-2.06108514185646 -0.15309362870828203 -15.845291912715407 107 53 39
-2.009925504319561 -0.12809918454223013 -16.002233528347887 62 44 44
1.1511076040688515 1.0048482538450034 -12.851837434866791 176 164 163
1.2066784670820496 1.029117612406218 -12.934621848395786 118 91 88
0.850739990796801 0.8853146263029426 -12.729775559480213 116 70 65
0.7518651136544703 0.8459573110183871 -12.689335728926451 116 64 56
0.6667000791841575 0.812235882022387 -12.659495396648047 117 61 51
0.7009219456567255 0.8277071032329917 -12.725161666480203 117 59 49
0.62770286995275 0.7988983251675799 -12.704609308393358 117 57 46
0.5491048924575788 0.7678628159674401 -12.679463717848172 117 55 45
0.4762051412058472 0.7391672875112705 -12.658654737471203 117 54 44
-1.1442196000871592 0.11446876491544922 -12.56353103064297 123 54 39
-1.2474421511898743 0.0769387590002637 -12.620729279632615 123 51 36
-1.2970840685920937 0.05763872186784935 -12.613279589318367 126 54 39
-1.3548173700411974 0.03496656138843823 -12.598291897377198 125 53 39
-1.4212074054379773 0.008684650860105725 -12.575183231955204 123 51 36
-1.4971864909846602 -0.021597611830246333 -12.543027622469815 123 51 36
-1.5213718599345896 -0.03032754894320533 -12.558202615611712 122 51 35
-1.57534750111226 -0.051463918235028494 -12.545870842755669 123 52 34
-1.599334638667055 -0.060116083615223026 -12.56109520873327 122 53 33
-1.6134049066097802 -0.06463757806196768 -12.585495837519257 119 51 32
-1.6197165376446216 -0.06592486959884769 -12.617145533524303 118 50 32
-1.626039218603606 -0.06721421907286129 -12.648856109267747 116 49 31
-1.6323743955314098 -0.0685062218354433 -12.680626421432095 112 46 31
-1.6782367041404802 -0.08627912272706229 -12.67535566537476 113 46 31
-1.7225546472149533 -0.10341310576047236 -12.671392214456446 113 46 33
-1.7392552092914029 -0.10902968045373251 -12.693373385916441 114 46 33
-1.8400660835832623 -0.14974621260112753 -12.635695156088975 114 47 34
-1.8775721714296827 -0.16405470730110938 -12.637703673077702 112 45 32
-1.9206854161281317 -0.1807079561697893 -12.634266527747645 114 47 32
-2.1180748579475717 -0.2564487373613731 -12.632622962675804 128 59 29
-2.1021345856197575 -0.2484377939563951 -12.685691409788545 87 21 6
-2.1828942029130234 -0.2808620110641018 -12.644900792735527 90 23 11
-2.178844048040319 -0.2778206492828288 -12.686492233402873 97 31 14
-2.143475463372795 -0.2616699856594349 -12.75885835209174 110 53 37
-2.1523261598986814 -0.2640153670427787 -12.788144811355721 109 63 48
-2.0990545132129244 -0.24035193686097478 -12.878630813393649 96 59 46
-1.7068557269292226 -0.056013539945266366 -13.827656553353139 6 3 2
-1.7527677233942374 -0.07383576079374388 -13.821540013049267 47 27 22
-1.8019359951836647 -0.09303230376588223 -13.811907791354674 54 18 9
-1.8310874300818458 -0.10381923641137814 -13.822809446552547 44 10 4
-1.8640217596625241 -0.11619906584106232 -13.829729867578411 45 8 4
-1.8938335543572142 -0.1272681934677884 -13.839821097117415 50 12 5
-2.000093018064767 -0.1705064661800093 -13.770052979915027 58 12 2
-2.218166839758738 -0.2593786441075423 -13.62308950877949 116 54 21
-2.1883101636534255 -0.24535591894216457 -13.69504786072346 141 96 62
-2.1768033251948102 -0.2390514147188414 -13.747931982306202 85 35 13
-2.1853495426421983 -0.2411888223233669 -13.77976767980744 103 52 37
-2.1953458882069796 -0.243934875129316 -13.810132348815237 130 80 64
-2.197725378884133 -0.24346787388959834 -13.848674117372045 144 96 67
-2.227338071998364 -0.2544801561419052 -13.858220665659783 128 75 40
-2.1713731236652256 -0.2294002448425001 -13.959431785819504 97 40 22
-2.2133699881002924 -0.24563202559765784 -13.955811109787387 81 25 13
-2.233874574286771 -0.25279907880336605 -13.975222682751232 85 22 3
-2.2394741257812285 -0.2536746608521159 -14.010747643195575 101 35 12
-2.221561268484412 -0.24461939303408053 -14.071863675143833 116 56 33
-2.243940159785854 -0.25257241003191044 -14.089393942086422 112 60 41
-2.2382148131899866 -0.24865314846943054 -14.137568795589717 126 73 55
-2.225962390017555 -0.24196982120917143 -14.193050299782438 135 81 59
-2.236012859301259 -0.24470622792659702 -14.224264357262598 86 60 53
-2.204327206265596 -0.229794129045076 -14.30147915348892 54 49 55
-2.234619162135708 -0.24108160639312937 -14.310613386046658 55 49 52
-2.238401309880139 -0.24115683798010146 -14.34903126219886 53 50 51
-2.1647827121290613 -0.20847583943256032 -14.47350223294827 53 52 53
-2.1893872817551774 -0.2173478890896079 -14.48919737399061 53 52 49
-2.211987986079876 -0.2253725534815718 -14.507102038097157 54 52 50
-2.198058740350585 -0.21792709555848067 -14.565914623457765 56 54 54
-2.195805978812621 -0.21542000437648845 -14.61183366015512 55 54 55
-2.1940813863166904 -0.21313137103779534 -14.657307010749472 59 52 54
-2.193226107053454 -0.2112059577991321 -14.701944526177346 64 54 53
-2.1927733407325745 -0.20944613660767963 -14.74626733335315 85 56 51
-2.188034932269309 -0.20586377045290227 -14.795602098944645 134 84 69
-2.1858175071107597 -0.2033448150147783 -14.8422312268259 116 67 53
-2.178005642339345 -0.19844642870729556 -14.895411211170968 120 67 53
-2.1728041868419723 -0.19464922067202872 -14.945788308746835 124 74 58
-2.1700589963577537 -0.1918886617763178 -14.993514190502811 99 55 42
-2.2114181577590672 -0.20785387224635432 -14.990510082726733 135 82 68
-2.2124755446583944 -0.20670276657021258 -15.034002975338492 112 64 51
-2.2253582396672282 -0.2105720684072594 -15.063904332737321 120 70 53
-2.2122338673366713 -0.20338451789052625 -15.12413338985995 132 76 55
-2.1450158002171635 -0.17318809942180335 -15.247751441915689 140 77 58
-2.1401663591264066 -0.169496688791841 -15.29894361745301 129 66 53
-2.1263179714418605 -0.16197034455353876 -15.360882627796826 112 60 51
-2.1414237631172908 -0.16675740904492597 -15.388956687617885 117 66 53
-2.1144192172956258 -0.15361684747667015 -15.466821611616103 116 64 50
-2.100587751422907 -0.14607365115581894 -15.52941280028584 120 69 55
-2.0796199739127266 -0.13548201734421195 -15.60072961513223 115 66 50
-2.073968687013193 -0.13140572530062 -15.654085705500819 106 57 43
-2.0545099623856027 -0.12143794895699411 -15.724137715774336 98 47 35
-2.062799992700948 -0.12328987690870719 -15.761205722323107 86 29 16
-2.105225125827391 -0.13969553335231932 -15.757314807841372 101 43 23
-2.092173749534018 -0.13244138817826467 -15.820186718041837 110 54 36
1.1577564602910497 1.0402679435702389 -12.826325464097941 197 190 191
1.2224674937803472 1.068471318050006 -12.916165525138602 137 111 110
1.2665455374221821 1.0881521215706702 -12.990089109228185 117 78 75
0.648856948246725 0.8395772571503137 -12.691383699683705 115 56 45
0.6722647441152736 0.8506894763370108 -12.748532729498722 115 55 44
0.5705131136066042 0.809943387831001 -12.704785735673163 117 55 44
-1.1335244246069074 0.15006786748496648 -12.581497348516944 122 53 38
-1.1997634398837462 0.12378393843217195 -12.559552160346836 123 54 39
-1.2310680001270748 0.11208859685368533 -12.568854014321413 122 53 38
-1.2435348361646295 0.10826434465163803 -12.595126493003548 121 52 37
-1.2829016525364398 0.09319573986433172 -12.597041741919757 122 51 36
-1.3211093362899735 0.07860791258073707 -12.599905084778722 126 54 39
-1.3624544653767732 0.06270412112552126 -12.59980586865947 125 53 38
-1.4310544130155822 0.035393770742973674 -12.574652185608844 122 50 35
-1.502801626667563 0.006756621138727104 -12.546344794526462 123 51 36
-1.5395913536613177 -0.007259352574473521 -12.549927118771596 122 50 34
-1.609809453055881 -0.03527382303510107 -12.52255746348579 121 50 32
-1.6300437651348272 -0.04236749489000213 -12.541185515077503 123 53 35
-1.642900775163814 -0.046371328353303154 -12.566658231293133 125 57 38
-1.6508444256971995 -0.048315374475288886 -12.596741642666066 121 53 34
-1.6526688324046797 -0.04769279285167882 -12.632602757585943 119 51 32
-1.6523505578543087 -0.04616852979665631 -12.670567257499862 114 47 31
-1.7472253900567258 -0.08455134348702065 -12.61920114989313 114 47 31
-1.7526642741683673 -0.0854431654623593 -12.65169384057629 114 47 31
-1.8123092866911845 -0.10906997558401232 -12.633032501167783 114 48 33
-1.825064464250457 -0.1130314280925604 -12.658592396996578 113 47 33
-1.897655386452148 -0.14210316383908572 -12.627302783765892 112 46 32
-1.9447079350128833 -0.1604654833227117 -12.620064320476345 114 48 34
-2.12637913921965 -0.22984006528343315 -12.633357291407581 141 76 46
-2.1463569300665615 -0.23684953681601573 -12.651594009543455 86 25 10
-2.20517621813676 -0.2588035643501916 -12.66963433894929 101 33 17
-2.1701050501498917 -0.24265524425538776 -12.74169736330883 107 45 30
-2.1868841146767553 -0.2483156209702071 -12.763155641128492 110 58 45
-2.1875398299608797 -0.24718859296099893 -12.800506285092212 104 60 47
-2.05078154428407 -0.18820010292048206 -12.973698935239387 76 53 48
-1.6339610300153886 0.002201508649044559 -13.788975729737851 17 14 15
-1.7677770124754897 -0.04826231888411714 -13.815999948293136 18 7 6
-1.8234301302777025 -0.07026911388503043 -13.799636445608336 69 39 32
-1.8575583396710096 -0.08318309436327365 -13.805343346495535 46 11 7
-1.8844192348332136 -0.09302679111297385 -13.818510837094129 47 8 2
-1.91775968144721 -0.10561308377931411 -13.824887659202627 46 11 2
-2.0170421518339694 -0.14610530107516384 -13.762300224759812 53 14 3
-2.2453201079217164 -0.23822889031337446 -13.644914041892742 139 84 49
-2.2238546972278286 -0.22763700911711116 -13.708200987673287 120 77 45
-2.2054044852844736 -0.2183132663383911 -13.768547399610359 79 27 10
-2.2358575918071164 -0.22970742919065446 -13.777137946451798 121 73 58
-2.239804237432108 -0.22986677750357565 -13.81392581824151 124 81 60
-2.2425222632745383 -0.22950146064712174 -13.85212663516182 144 95 59
-2.180059244929539 -0.20148379567967378 -13.960349888448498 111 53 23
-2.2300815162485197 -0.2211738979278417 -13.948082016054638 87 34 22
-2.267158749027166 -0.2353770339685073 -13.949590009821865 83 26 12
-2.2624024746221147 -0.2318246539438933 -13.996258268489608 88 24 5
-2.272526444760018 -0.23458535070465025 -14.026933044749802 112 47 21
-2.2714271888514785 -0.23257650922334783 -14.069886916880396 113 57 33
-2.2812048045064106 -0.23518411682942952 -14.101100379529331 121 69 49
-2.286954138009807 -0.23607728923063798 -14.136789745760069 136 79 60
-2.300344734624103 -0.24021556394623866 -14.164178759758359 106 69 56
-2.264775855578401 -0.22353262654518957 -14.2455364655195 56 48 49
-2.2658718417916504 -0.2224322292698684 -14.286751214238643 55 49 50
-2.2633715483456918 -0.21979712268019425 -14.332073819905634 56 51 49
-2.205446304005834 -0.193567501873098 -14.439133953646113 72 51 45
-2.2306599060767986 -0.20271326592341232 -14.454046354151306 102 67 55
-2.2405652029092176 -0.20534126356585247 -14.486037390350564 102 67 53
-2.24353670443074 -0.20501317843884515 -14.525869799407014 85 57 50
-2.249935157317572 -0.20614107324792696 -14.56196294802815 64 48 47
-2.2293387856650577 -0.1957600204973522 -14.628591163354768 59 52 51
-2.229098297607761 -0.1940473726935812 -14.672467519638401 62 52 52
-2.225811440928096 -0.19103049859151433 -14.71993709582765 69 50 50
-2.221743270612338 -0.18767447844705254 -14.768454064754767 111 69 59
-2.2216158036801783 -0.18599391589964887 -14.81263859064078 133 79 62
-2.221853470182439 -0.1844640858597586 -14.856543829280515 110 60 47
-2.2246127926666146 -0.18400584474063875 -14.897691262805617 125 76 58
-2.2208615274095855 -0.18076260027922197 -14.946454584506487 108 62 47
-2.217440224261919 -0.17765421727248665 -14.995002130078728 117 68 55
-2.288778120692429 -0.2064869999032064 -14.95713378531434 129 75 57
-2.1786645258275845 -0.15776911701012653 -15.12968086599004 112 64 48
-2.1703720135000957 -0.152555580667042 -15.184506667570254 129 76 55
-2.1693551557709965 -0.15044656973955606 -15.231031427809398 138 77 58
-2.137388558302626 -0.1350903497471605 -15.313976506039353 134 72 59
-2.1551263570252868 -0.14099268266089204 -15.338867219855103 114 61 51
-2.145966050316665 -0.13537912306338118 -15.395488383222693 112 62 49
-2.1602808933619304 -0.13981056213170096 -15.424563861683431 114 64 50
-2.1086516417829895 -0.11599256365784205 -15.531884854884556 116 66 53
-2.1194532769423997 -0.11890664467429568 -15.565463463264429 116 66 52
-2.111481611259391 -0.11377146780723413 -15.621508708742757 113 65 50
-2.0877850173886623 -0.10188664991375562 -15.696573073193907 102 54 42
-2.092263541319526 -0.10207384470399106 -15.738146191875456 94 40 27
-2.1203439601456937 -0.1123821425943774 -15.751432624313322 93 35 17
-2.1137515769713957 -0.10781263178952871 -15.806523673121834 109 52 32
-2.9511365385755743 -0.3917107688698316 -16.839291758499254 182 182 184
1.1658859786530957 1.0762865900309206 -12.801990588508499 207 200 200
1.2372552463770106 1.1074284679969306 -12.896902776915734 157 135 133
1.281423302630789 1.1272775405657158 -12.97078371814619 121 81 79
0.7608310125765696 0.9181000155316723 -12.75087838474639 116 57 46
0.703408004007442 0.8956594093788777 -12.743234832650412 116 55 45
-1.3062925778055812 0.11441101498443906 -12.584275244997059 122 51 36
-1.3692309543511536 0.0908127107071377 -12.602107965601508 122 50 35
-1.4191240398114733 0.07126118906103307 -12.594059375189826 123 51 36
-1.5013448766001902 0.03810373242423637 -12.556160755015476 123 51 36
-1.5656710208624602 0.012463109253969096 -12.534401979213934 122 50 34
-1.6118203847636678 -0.005536446713486409 -12.529188273012723 121 50 32
-1.64510377336015 -0.018125115100328548 -12.535747340299412 121 51 33
-1.6636600241158979 -0.024515170756755023 -12.555913522214288 125 57 38
-1.6726385396231764 -0.026870940757448114 -12.585008971075249 120 52 33
-1.6717573315245184 -0.025070611229720985 -12.623376346933695 119 51 32
-1.682790870478935 -0.028287048941024073 -12.650685663095206 117 49 32
-1.7846838860798213 -0.0698004311109357 -12.592615432567051 115 47 30
-1.7538590316773384 -0.05537460437460373 -12.659234963754809 115 46 30
-1.8256768338439224 -0.08422537782923079 -12.629058609103712 114 47 32
-1.8691060658273617 -0.10111207855594873 -12.625516402634581 113 47 33
-1.921201554938837 -0.12166059120659645 -12.613593768652892 111 45 31
-1.988935525581712 -0.1488163213404634 -12.586564605318292 111 45 31
-2.134216683139857 -0.20302899011550268 -12.634545069949361 155 88 56
-2.16522992186827 -0.21470529235427027 -12.642068451740148 99 39 18
-2.1819068925429272 -0.22032280342873412 -12.663486563497585 93 28 12
-2.1901897222952593 -0.22238983379215926 -12.69311779638855 97 29 13
-2.2038714817524516 -0.22673839884902347 -12.717520584450899 97 30 14
-2.1895044261597256 -0.21921744313303226 -12.769516456304554 111 54 40
-2.190380215631631 -0.21814056226004674 -12.806682557353536 104 59 47
-2.0938702327983405 -0.1758310773550289 -12.940217138286492 85 59 52
-1.6229467183190192 0.03892561047192977 -13.81001943929536 18 14 15
-1.840030315749778 -0.04548011877147662 -13.792404095040482 41 22 18
-1.87996074463448 -0.060895178883858314 -13.792068430185477 55 17 10
-1.9077812086480916 -0.07116469850475893 -13.804195617453768 49 8 3
-1.931305238268668 -0.07960834382305704 -13.820752674433189 47 11 6
-1.975355420132881 -0.09678706832210793 -13.815831060154036 50 12 5
-2.251454652944024 -0.20811446661519062 -13.688987376768608 138 98 58
-2.231856063486692 -0.19821233847836384 -13.750525643231416 87 37 11
-2.232207420530341 -0.1968040768996384 -13.791083185535388 99 50 34
-2.2347086131163936 -0.1963077735692158 -13.829467909851635 119 76 62
-2.2532098932160602 -0.2026308466412141 -13.850836767301928 148 103 72
-2.198922611614849 -0.17790300487456534 -13.950345498116096 129 68 27
-2.2382881782096327 -0.19311965017157906 -13.949498371656507 97 42 18
-2.3025338837051406 -0.21896055555229177 -13.921662763026276 81 33 23
-2.290995098259909 -0.21245610603466147 -13.975614192447779 81 20 3
-2.2998250503695408 -0.21464294002168716 -14.007642344425355 105 38 11
-2.3007363564700096 -0.21344430877048026 -14.04836691213037 119 56 29
-2.3132034833089428 -0.21717903031690255 -14.07658761283474 116 61 39
-2.3195726764723608 -0.21830545258308698 -14.111537886075181 132 74 54
-2.3340234282498784 -0.22288391549183784 -14.137693607879575 127 81 62
-2.310527206116351 -0.21123169775981676 -14.205712077412517 64 47 42
-2.3063394595979174 -0.20782906406153057 -14.252667048423776 55 49 49
-2.240245760531848 -0.17792883706242435 -14.36841991457241 64 48 45
-2.251817658436832 -0.181252495785432 -14.398367907805238 119 74 55
-2.262691997864091 -0.18427533520310524 -14.429150057575594 138 77 51
-2.2769397328134424 -0.18874070529989861 -14.456219592252978 135 77 51
-2.2816385290135095 -0.18911350287183204 -14.494041485142027 131 76 55
-2.285829227040738 -0.18926464887405192 -14.532537604792424 113 69 57
-2.2608750042175307 -0.17691770733200052 -14.604032627431476 78 51 45
-2.2613962417744657 -0.1754835225982525 -14.646992712157093 67 49 48
-2.259403834299441 -0.17296610007324364 -14.692938663838493 67 50 50
-2.25671635430406 -0.1701447453995657 -14.739825742601063 85 50 44
-2.2579561587492174 -0.1690030666110811 -14.782382965754614 133 78 63
-2.2545644855662674 -0.1658680548697502 -14.830374233606033 119 74 56
-2.265139918465324 -0.16872514307432773 -14.86248189720873 110 63 50
-2.2628976907784493 -0.1660734156581949 -14.909424645410464 130 79 60
-2.2464040190855075 -0.15729175248172655 -14.972990767372204 99 53 38
-2.232927759388094 -0.14979747390269127 -15.033312779690233 134 80 61
-2.2159515162774106 -0.14078940162432385 -15.0979367939349 121 65 47
-2.207522012886547 -0.13544748244644422 -15.152855187888456 120 69 55
-2.195735591789136 -0.12865364388045464 -15.21189983151279 134 77 57
-2.2149006069853945 -0.13517177601642416 -15.234870250298108 138 77 60
-2.1990994982434335 -0.12663652221791244 -15.298981018713658 116 62 50
-2.177227227493578 -0.11547711449201126 -15.370509177564374 107 58 46
-2.205891746057425 -0.126075930755551 -15.382538603807328 111 63 49
-2.1671787947419343 -0.1076438208528625 -15.474473888791762 111 62 49
-2.183124257078788 -0.112755418663955 -15.501770230520188 112 64 50
-2.144478849734039 -0.09432776584120628 -15.59427288660373 115 67 53
-2.1398260800806677 -0.09054519391107219 -15.646497004937117 106 60 47
-2.132960641534347 -0.08580102910434784 -15.701561183892762 96 46 32
-2.1456923987130745 -0.0895069293027988 -15.73322072532963 92 35 19
-2.1485794529021236 -0.0889604663324155 -15.776833388976893 102 43 24
-2.138656476125183 -0.08287702486416482 -15.836098331509028 103 56 41
-2.1101905543760653 -0.06877478304905571 -15.918121354845173 73 47 40
-2.931718557949033 -0.3490408965672116 -16.880186235236806 180 180 182
-2.9727999524970663 -0.3650889517710123 -16.874884341925316 181 181 183
1.5052445762640403 1.2475226659107526 -12.958261774522814 214 214 216
1.4252589718462847 1.2156701651120299 -12.935121403274389 212 212 214
1.2388082141391568 1.1408735907206196 -12.867235379287965 170 154 153
1.306389002354087 1.1706330984536903 -12.959406616802923 122 87 83
-1.5446879028464036 0.052020417403281005 -12.562229358388873 122 50 34
-1.596336543195454 0.03163722116613821 -12.551999240260114 122 51 33
-1.6436167941795716 0.013095934410568555 -12.545642250993822 124 54 36
-1.6904923274512171 -0.005280034290982227 -12.53950816004682 125 57 38
-1.6974783500559338 -0.006770945306575182 -12.570420734981521 119 51 32
-1.7202301165145757 -0.014936843764368435 -12.586655036542743 117 49 30
-1.7260436148529807 -0.01592741961306232 -12.61875887688516 121 49 34
-1.8043785418164804 -0.047647478574065705 -12.58270687356252 119 48 33
-1.804991606520855 -0.046435765049311684 -12.619665221484258 117 46 31
-1.8656187821169095 -0.07066526515344207 -12.599930009579504 115 46 32
-1.9121094885279302 -0.08890860469750339 -12.593381288429395 113 47 33
-1.9556607335598786 -0.10591101721113638 -12.589477488714625 111 45 31
-1.9842233784422563 -0.11655889514449114 -12.599747243305874 112 46 32
-2.0028804944036054 -0.12300469153562532 -12.619449056147621 109 41 27
-2.191091712584746 -0.19557442627635613 -12.62573832276263 131 69 39
-2.2130137576800504 -0.20341830438395547 -12.641998456694918 92 28 9
-2.221127680880545 -0.20539150626063685 -12.671739663120984 94 29 12
-2.2123810615158135 -0.20019108499838922 -12.718074103978768 92 24 7
-2.2193835049312174 -0.20168462492202122 -12.749081672132998 104 44 29
-2.2210391436167223 -0.2009001115495277 -12.785431840638584 105 62 48
-2.1970703811979684 -0.1892042467886914 -12.847229371569874 95 67 55
-2.138578095320071 -0.16279916054604016 -12.943527613463655 67 54 50
-1.8154214487778457 -0.004717835789785685 -13.7867291652454 6 3 3
-1.8522744220466656 -0.01886062480900197 -13.789665442306436 27 13 10
-1.9074421590614774 -0.04083765285043217 -13.773508765008327 74 34 22
-1.978445780945945 -0.06638346840672726 -13.822598559885304 48 10 6
-2.0232148867868034 -0.08393223795643179 -13.816776984845694 55 11 4
-2.2563370737268356 -0.1773467574863301 -13.734570336741218 120 75 40
-2.2418252263207146 -0.16952312982462514 -13.790922230006693 84 34 17
-2.2288013962384037 -0.16232907464518442 -13.845899776401549 113 71 62
-2.261583020827815 -0.1747717179869004 -13.852024476980473 126 84 60
-2.297874725869627 -0.18872340852575853 -13.854296315505017 137 80 33
-2.2573129068724382 -0.16969963309462388 -13.939262350314038 114 51 12
-2.3167264474642213 -0.19357497712765115 -13.916583979129893 90 40 23
-2.3187502935209006 -0.19281868366170274 -13.95584802385492 80 22 7
-2.322312195295149 -0.19271853725363375 -13.993553671736764 92 24 4
-2.3319600943474947 -0.19522900081724526 -14.024728731379112 112 45 18
-2.3401333331234495 -0.19710316920704596 -14.057581435337067 117 55 33
-2.3531151836507904 -0.20104150050414216 -14.085236194802734 124 68 50
-2.364334524816571 -0.2042202091473917 -14.114873741135558 134 83 63
-2.327306198119607 -0.1866439221868239 -14.197788189084461 82 56 48
-2.3123109437799716 -0.17853301726577664 -14.2566973448366 58 50 53
-2.302455449367404 -0.1726252431748403 -14.310131762272224 75 54 49
-2.3070277212841495 -0.1729211674755664 -14.347705468498338 136 77 54
-2.3010681292425614 -0.1686776196635833 -14.397136273375668 140 72 48
-2.3065440126327026 -0.16935343957836801 -14.433937067319583 123 61 44
-2.320979476320237 -0.17388617590372624 -14.460775004514602 121 62 42
-2.3247948206668294 -0.1738398073902956 -14.499610026256654 125 69 48
-2.3311251447008265 -0.17487354708701286 -14.535713215411128 126 75 57
-2.337635682328517 -0.17598139076651576 -14.571704632753423 88 53 44
-2.343863800981457 -0.176963800739804 -14.608108505798945 71 49 46
-2.3520943746055094 -0.17880670390849396 -14.642324535977277 76 47 44
-2.355226222959061 -0.1784453680881204 -14.682448527499687 103 57 48
-2.362296611486241 -0.1797802462025202 -14.718173746566903 138 84 65
-2.2788792118907253 -0.14202489972450705 -14.858015996871861 110 60 45
-2.2760512260019174 -0.13906368639095623 -14.90564187203465 123 72 56
-2.2722248948807167 -0.13566473371144783 -14.954581236610725 117 68 52
-2.243437184747246 -0.11616864854447995 -15.16778932868827 132 76 56
-2.2277264117257234 -0.10759014722854454 -15.231564677022192 141 80 60
-2.2448031698665627 -0.11319986063189535 -15.256997205092212 125 68 56
-2.217490126486932 -0.09958015383579744 -15.334864347062894 108 59 49
-2.2224499420784563 -0.09993137124618867 -15.374852172735961 110 62 51
-2.252346743632371 -0.11108707262137374 -15.385334743975417 114 66 55
-2.217734063092978 -0.09427492419584649 -15.472596786418915 109 61 50
-2.206902791395569 -0.08776195940904863 -15.531838735760502 116 68 55
-2.1901803719157877 -0.07868420980545077 -15.598365270690072 112 66 53
-2.1658012425032265 -0.06627290959087029 -15.674362273251116 99 52 38
-2.17895386541165 -0.07014300825322861 -15.705442793149942 96 43 27
-2.165166555669578 -0.06231132663648564 -15.769150327005594 89 32 13
-2.16237614278909 -0.05924711567553853 -15.819774246921051 104 52 34
-2.2458991211965635 -0.09368487733249076 -15.765598443757835 94 56 45
-2.212598247352589 -0.0773562193203392 -15.85347342274935 57 37 35
-2.213835911600822 -0.07228667118850973 -15.995000868753682 54 49 47
-2.9288059806510978 -0.31548699706626415 -16.847260355308475 178 178 180
-2.9591431824438263 -0.32685181361936433 -16.85675499481801 178 178 180
-2.9914915564196995 -0.33910634387244043 -16.863402465606548 180 180 182
-3.02711646714702 -0.35280974682562194 -16.86542723899079 181 181 183
1.465511999612426 1.2640177191677284 -12.896276083394241 214 213 214
1.4595551626314371 1.2630972858014067 -12.930756867667373 212 213 216
1.379893493704608 1.2312571933027932 -12.907760109238925 211 209 211
1.2235961356456837 1.167246638248948 -12.824472520437457 188 175 176
1.2868038715021175 1.1953448519551093 -12.912980827768031 125 94 92
-1.5688541008057992 0.07251468376460046 -12.548457252877355 122 50 35
-1.6225320867342434 0.05119435029455488 -12.536290397181194 122 50 35
-1.658387189219244 0.03744955333833411 -12.540469407328148 122 53 35
-1.7200022173690845 0.01273813201844054 -12.520589900100504 120 52 33
-1.7341714283854976 0.008214640617486335 -12.544752207158702 121 53 33
-1.765732098768427 -0.0037130875382711537 -12.552665014736377 117 49 28
-1.7757413221696075 -0.006464483490124184 -12.580739514777722 118 49 31
-1.8241015095630253 -0.025552390113711354 -12.572758713484696 118 49 32
-1.8494409938271126 -0.03483681346378087 -12.586352794585554 118 48 33
-1.9176221271512128 -0.062383975775560874 -12.55933969682128 115 46 31
-1.9512583841721804 -0.07521348507682957 -12.564864034674862 113 47 31
-1.9673781449865855 -0.08057589153891542 -12.586993469199829 113 46 30
-1.9889987291486104 -0.08828424087223197 -12.60388354987277 114 47 31
-2.0152575787959206 -0.09797235046866493 -12.616314353852882 114 46 33
-2.1937603506637675 -0.16660900304497717 -12.631941540382787 163 96 55
-2.204799097859941 -0.16980757762704224 -12.658834273257536 108 44 18
-2.240463679172315 -0.18353215023308667 -12.66168206581342 89 25 10
-2.236238058171903 -0.18020245979448846 -12.703570957789191 90 26 10
-2.2466924000551876 -0.18314664457870466 -12.73114816227735 97 34 19
-2.2468304182593117 -0.18167488236895046 -12.768956141811582 106 57 42
-2.2512014923883195 -0.1820103625086702 -12.802683548155581 100 64 50
-2.205487825417487 -0.16090126545293582 -12.886218850651211 85 60 51
-2.1787635086832244 -0.14790840742425204 -12.951225529098068 64 56 53
-1.666927744223801 0.08434074352853349 -13.784904656667011 21 14 15
-2.0015909919535266 -0.04457649302029587 -13.808382173708097 47 10 8
-2.040971844301726 -0.05986706950487308 -13.808158286927553 51 12 6
-2.281941771587136 -0.15207478279140885 -13.840368136528422 122 77 61
-2.297786337753692 -0.1572466347509205 -13.864573887156137 148 97 59
-2.329098839391899 -0.16909255429323533 -13.872127481762597 130 67 20
-2.3624234169414056 -0.18181000386077484 -13.877431564585377 102 47 20
-2.3832368519328444 -0.18912866342523316 -13.896217337987792 83 32 20
-2.3984904487396763 -0.19404616335650227 -13.921043488126228 77 18 5
-2.3590743179470266 -0.17534202970581658 -14.005539636181151 103 33 11
-2.373714012213605 -0.17998479803699796 -14.031270751256525 120 54 32
-2.38745109714766 -0.1842360108204315 -14.058025627856159 115 59 40
-2.3647674578052404 -0.17273553090426086 -14.124905867340903 128 77 57
-2.363610773589812 -0.17053603932357353 -14.168298998686215 107 71 54
-2.372292580646646 -0.17258824698378783 -14.200936547929837 59 51 51
-2.3676065589194373 -0.16885130961385286 -14.248491500844167 77 54 47
-2.3571598574887886 -0.16261361842918198 -14.302623681288022 140 79 55
-2.352219888488337 -0.15875286770685237 -14.350805009092126 141 72 54
-2.3348884976696684 -0.14951698034468297 -14.41303326045069 133 63 50
-2.3501558686687494 -0.15439862953275307 -14.438880526549976 132 65 51
-2.3645386195044775 -0.15889549243107304 -14.46575679288245 125 62 46
-2.3256066974864504 -0.14027118918750459 -14.552931525133502 125 66 49
-2.3257895478066093 -0.1385981468429578 -14.596159835397296 128 77 59
-2.319843320879273 -0.13426018700826647 -14.6464910750988 83 51 42
-2.324086202032829 -0.1343377088553197 -14.685379457432719 75 46 42
-2.3151773498304076 -0.12870055299409477 -14.739417929083082 84 46 38
-2.3114575359685006 -0.12530913819241807 -14.78770185533929 129 76 58
-2.235532182723193 -0.07599704654432404 -15.279713283252214 132 73 59
-2.2467408245536937 -0.079036795260504 -15.312176942786746 110 59 52
-2.2500903420842917 -0.07864839247570155 -15.354021396875062 108 59 50
-2.2417160432613894 -0.0731434853943056 -15.409923399168422 111 64 52
-2.2398370233072793 -0.0704631079935023 -15.4582884660737 112 66 53
-2.232323278915394 -0.06531789886928552 -15.513551855873423 113 67 54
-2.215444515668726 -0.05607740948038398 -15.580247749824395 117 69 55
-2.2166933407242704 -0.054739987134133195 -15.625410089640829 106 58 47
-2.203390486054772 -0.04704194781268223 -15.688268062492885 97 50 36
-2.188509560094394 -0.03864457377531094 -15.75328180363892 92 35 17
-2.1854522222669726 -0.035403697109140264 -15.804206340418446 101 41 23
-2.1908908952147437 -0.035869785200524085 -15.844965015663716 106 55 42
-2.1763780571399574 -0.027606573114969724 -15.910193726937617 75 48 40
-2.1566927643908995 -0.01124831067395915 -16.126322882654456 56 48 50
-2.9303043907383257 -0.28392891116262176 -16.80834865984238 177 177 179
-2.967338146345874 -0.29622625050303864 -16.85974250102639 178 178 180
-3.01957282006272 -0.3173347457787523 -16.838944046496938 180 180 182
1.4494637014697913 1.2919105082831945 -12.891832143163715 213 213 214
1.3885398358548926 1.2678525742240216 -12.883490136163987 211 211 213
1.3353721871491713 1.247057203681334 -12.88102509917237 201 194 193
1.2963595864139759 1.232225115995604 -12.8895054452087 139 114 114
1.345138623182737 1.2544212893069453 -12.9669101716575 118 77 74
-1.568370456319105 0.1034814192242528 -12.557414833182536 122 50 35
-1.6209721898220293 0.08254540799846533 -12.546250320099345 122 50 35
-1.6707671083852205 0.06280235593351757 -12.537509167588688 122 52 36
-1.7288810971016613 0.03949321048446408 -12.52085501602524 124 55 37
-1.7955072494612985 0.012532458809457747 -12.49603813861375 125 57 38
-1.8162127970272008 0.005217521710041195 -12.513966627926312 120 52 31
-1.836911159127733 -0.0020947053545097294 -12.531893030138097 118 50 31
-1.8437954364270137 -0.0034908913875435488 -12.56282490297601 119 50 33
-1.8544139005483524 -0.006483993156826129 -12.590296439838701 124 55 39
-1.9384989331001545 -0.04095697458152259 -12.548192625899809 118 50 35
-1.9760707677549583 -0.055507835231073166 -12.549934964157018 113 46 30
-1.9624349216440198 -0.04810761437917632 -12.600388951459026 114 46 30
-1.9810437175050506 -0.05452848808342625 -12.620197576209085 113 45 29
-2.014681943006373 -0.06739667135449268 -12.625596598512669 112 42 29
-2.171864746365917 -0.12706034034059832 -12.662059083428272 170 97 55
-2.221768753775157 -0.14693733001296994 -12.65111280311865 137 73 40
-2.2683548011795143 -0.16539560871177028 -12.64323618123118 81 21 6
-2.28483163630574 -0.1709155017829358 -12.664761357213148 81 23 11
-2.2862984595241134 -0.16997967634003874 -12.701081007979408 91 27 16
-2.28882959379915 -0.16949749471466946 -12.73645070647158 100 43 29
-2.280472591219594 -0.16432621762915 -12.782700954012949 107 63 47
-2.306197430052917 -0.17381778459750352 -12.795251661678183 103 69 57
-2.246102156403694 -0.1463619775621965 -12.893273463142261 71 53 49
-1.9916657832142173 -0.010228257217871128 -13.787713716662687 52 10 3
-2.009609850853577 -0.016287957714707257 -13.809992096071374 50 10 6
-2.029355225984748 -0.02312674809682358 -13.830389982789878 48 11 4
-2.1027793254740734 -0.0532041467917983 -13.794223148553836 52 12 7
-2.2794501196164614 -0.12122629032801413 -13.812036636713607 83 26 16
-2.289636070121216 -0.12393610156849766 -13.842279154796756 122 72 61
-2.317089008094481 -0.13413439447573072 -13.85400688244328 124 78 53
-2.3389671372394307 -0.14019986635779658 -13.913054819046947 112 59 24
-2.352590670328529 -0.14439478777155124 -13.939749397056513 90 42 29
-2.4083221237009873 -0.1668781815432263 -13.920647547582618 75 25 13
-2.3719139325861125 -0.14933688378963828 -14.001907114025968 92 27 8
-2.3999136578403872 -0.15977416334396022 -14.013003905768858 115 44 19
-2.4165139950599928 -0.1652576076592216 -14.036566357931058 120 58 35
-2.3943309229672414 -0.1538733476383105 -14.102867453807947 122 69 48
-2.4058040933574025 -0.15711935432946467 -14.13226139536701 126 82 64
-2.4046453105200873 -0.15486605808642517 -14.175705843076459 70 52 47
-2.411672252108449 -0.15617033997162855 -14.210191526585174 76 55 46
-2.4221242134592336 -0.15896251327818467 -14.24094436554117 138 81 57
-2.409952482944159 -0.15189771484694825 -14.297049036184966 144 72 54
-2.3686636489984414 -0.13213734229489482 -14.386010299202011 136 63 51
-2.3762960233066623 -0.13368256951157775 -14.42036803376275 131 64 49
-2.402263508489826 -0.14321831120911632 -14.43413037050155 124 64 50
-2.362935942906553 -0.12427858377619394 -14.521710172409946 116 60 46
-2.3560273869315385 -0.11946574732568171 -14.572909243051274 125 72 53
-2.348662055012383 -0.11444602728996411 -14.624809872495657 123 74 56
-2.3576738418491736 -0.11656799204885626 -14.658206694358348 84 46 36
-2.351453334858606 -0.11203505080240106 -14.709114016576114 78 46 41
-2.3452061377916316 -0.10748300106501052 -14.760231549371372 98 55 40
-2.343377130862299 -0.10485407340804409 -14.806442707051037 137 84 63
-2.337978054633636 -0.10065835225499731 -14.856927822799403 113 65 49
-2.2679746239141716 -0.05885748863524265 -15.207782142350087 136 77 59
-2.2789364122378126 -0.061772276791309366 -15.240362444815009 137 78 60
-2.2761098437209393 -0.058641351391854446 -15.289315363119798 117 65 53
-2.2809102133413433 -0.058847250250707805 -15.329388377505662 106 58 48
-2.29389843292505 -0.06263927166926031 -15.359834502556321 106 60 50
-2.2715502597279214 -0.050927004635139106 -15.432493292691223 114 67 54
-2.257952044116715 -0.04304191764173382 -15.494988072680894 115 66 52
-2.245009259970729 -0.035434386689595865 -15.556941478153686 116 68 53
-2.232000320365822 -0.027787775742105225 -15.6192162521255 112 67 54
-2.23177968837887 -0.02574882766951747 -15.666295381596996 97 54 43
-2.2153672395250252 -0.016588249036977754 -15.733133379107581 93 43 28
-2.2070140684213753 -0.010959219159262013 -15.790453752636491 94 34 16
-2.2138390023967336 -0.01199571940609756 -15.829499140926334 112 52 36
-2.2149677857795282 -0.010522233098609668 -15.875607733408337 101 56 46
-2.1880358336845935 0.003305111472123645 -15.956246480560623 48 33 32
-2.1959152151247503 0.003815501974726132 -16.042472476631623 56 46 47
-2.17064338718615 0.018955090954705156 -16.170318009371783 58 48 51
-2.8996875633167276 -0.24022961860045644 -16.762407977981283 175 175 177
-2.912400889909163 -0.24378471884250752 -16.795986115224352 175 175 177
-2.9218866821205456 -0.24589741678165788 -16.834053350292237 175 175 177
-2.963711664389071 -0.2624344389958799 -16.827821339863576 176 176 178
-3.0267368930659906 -0.2863205591384421 -16.843335546358798 180 180 182
-6.771961324914172 -1.741728932814638 -16.897602523950006 215 215 215
1.4326124540651017 1.3194417944949457 -12.88675924362137 213 212 214
1.3785666972389645 1.2982157284806142 -12.88374564600743 208 207 206
1.3127800411786916 1.2720087009367815 -12.8714018539775 167 152 148
1.3613837270529947 1.2942705272225532 -12.948550585772633 119 81 78
-1.5360366259742904 0.14818041258220127 -12.59579709643343 123 51 36
-1.572234829060096 0.1342255926899376 -12.599919229508131 123 51 36
-1.6099603820246084 0.11961014005152104 -12.602530398251854 122 52 36
-1.7405124834869694 0.06506753518917763 -12.518556543586058 122 53 37
-1.6990692009337476 0.0844907917763309 -12.594687272232573 122 54 36
-1.7451753794270237 0.06625445338715608 -12.589102280343962 120 52 33
-1.7955991879842959 0.04615331926480515 -12.579310062243334 120 52 33
-1.8532801693393424 0.02292020192772748 -12.562502747722629 120 52 35
-1.9104012697706576 -8.09403261230468e-05 -12.546010182580524 117 48 33
-1.9629238126019093 -0.021110125285447534 -12.53366612754985 115 46 31
-1.995408706119222 -0.03351289345208275 -12.540192918538146 115 46 31
-2.015345827607633 -0.04051043183264813 -12.558613839497074 115 46 31
-1.9823480577301886 -0.024685347959342074 -12.627675457474716 114 45 30
-1.979144684080497 -0.021697157793533428 -12.668440784623494 113 41 28
-2.0547065811136402 -0.05268219469466606 -12.633526988711814 115 45 32
-2.2972119784562777 -0.14776179256159416 -12.623818870193052 89 30 8
-2.3140288817974737 -0.15342555229117427 -12.644955271528268 79 23 11
-2.3094912264476104 -0.14985573408983743 -12.687146229016918 88 26 17
-2.3078955416236697 -0.1475525011709229 -12.726565676493035 98 37 22
-2.3182234272630966 -0.15040253496607847 -12.754285618113537 110 54 39
-2.323276620658951 -0.15096783907853806 -12.787299650789805 107 62 49
-2.299669189551933 -0.13912338647537892 -12.848972385788766 93 62 55
-2.2755705628087393 -0.1270555699674969 -12.911386857765148 67 53 50
-1.61010517657407 0.17151236004210846 -13.82144690914311 23 19 20
-2.0235648951940934 0.00942708999296471 -13.80538172862734 54 10 3
-2.0614333052871556 -0.005298729856820117 -13.806712002361538 46 10 2
-2.1134331516865563 -0.02618097001701747 -13.793028469290583 48 12 5
-2.144281531456304 -0.037861327518126764 -13.801515801218688 56 11 7
