ply
format ascii 1.0
element vertex 839
property float x
property float y
property float z
property float nx
property float ny
property float nz
property uchar diffuse_red
property uchar diffuse_green
property uchar diffuse_blue
property uchar class
property uchar detection
end_header
-4.0017 2.2198 -12.4387 -0.032 0.424 0.905 116 44 29 0 0
-4.0079 2.2443 -12.4522 -0.081 0.311 0.947 116 43 28 0 0
-4.0131 2.2635 -12.4707 -0.112 0.311 0.944 116 43 28 0 0
-4.0187 2.2850 -12.4869 -0.390 0.257 0.884 117 44 29 0 0
-4.1456 2.8239 -12.4807 -0.002 0.704 0.710 116 41 22 0 0
-4.2202 3.0996 -12.7563 -0.107 0.384 0.917 87 45 35 0 0
-4.2334 3.1460 -12.8203 -0.894 0.447 0.040 77 41 32 0 0
-4.2771 3.2120 -13.6337 -0.637 0.560 0.529 72 32 28 0 0
-4.2866 3.2461 -13.6755 -0.613 0.567 0.550 88 38 26 0 0
-3.8029 1.5029 -12.4032 0.188 0.490 0.851 109 47 33 0 0
-3.8099 1.5307 -12.4151 0.133 0.343 0.930 111 48 34 0 0
-3.8236 1.5848 -12.4400 0.151 0.410 0.899 116 53 38 0 0
-3.8434 1.6687 -12.4382 -0.665 0.343 0.663 113 50 35 0 0
-3.9691 2.2009 -12.4264 0.048 0.608 0.792 119 46 31 0 0
-3.9753 2.2248 -12.4406 -0.031 0.498 0.866 117 45 30 0 0
-3.9813 2.2480 -12.4553 -0.100 0.560 0.823 117 44 29 0 0
-3.9864 2.2669 -12.4740 -0.179 0.342 0.922 115 42 27 0 0
-4.1228 2.8437 -12.4681 -0.416 0.235 0.878 119 45 27 0 0
-4.1280 2.8630 -12.4855 -0.259 0.466 0.846 115 42 25 0 0
-4.1964 3.1080 -12.7919 -0.546 0.774 0.321 77 40 31 0 0
-4.2641 3.2715 -13.6555 -0.423 0.604 0.676 76 32 23 0 0
-4.2742 3.3089 -13.6935 -0.436 0.572 0.695 120 74 60 0 0
-4.2743 3.3027 -13.7402 -0.742 0.644 0.186 121 86 76 0 0
-4.2748 3.2985 -13.7850 -0.713 0.691 0.119 110 84 80 0 0
-4.2013 2.5612 -16.8018 0.219 -0.264 0.939 127 127 127 0 0
-3.5880 0.6989 -12.5522 -0.327 -0.445 0.833 214 214 216 0 0
-3.6069 0.7718 -12.6015 0.707 0.694 0.139 100 61 56 0 0
-3.7496 1.3945 -12.4318 -0.609 0.036 0.792 109 47 35 0 0
-3.7605 1.4408 -12.4277 -0.040 0.116 0.992 110 48 35 0 0
-3.7681 1.4712 -12.4374 -0.096 0.113 0.989 113 50 37 0 0
-3.9499 2.2350 -12.4376 -0.155 0.672 0.724 116 43 28 0 0
-3.9550 2.2539 -12.4563 -0.155 0.672 0.724 117 44 29 0 0
-3.9599 2.2715 -12.4762 -0.231 0.533 0.814 116 43 28 0 0
-4.0270 2.5553 -12.4626 -0.273 0.384 0.882 118 42 26 0 0
-4.0959 2.8429 -12.4756 -0.347 0.396 0.850 121 47 28 0 0
-4.1024 2.8687 -12.4867 -0.332 0.501 0.800 121 47 27 0 0
-4.2226 3.2595 -13.3234 -0.446 0.616 0.649 79 18 5 0 0
-4.2276 3.2781 -13.3422 -0.467 0.561 0.683 98 34 8 0 0
-4.2381 3.2791 -13.6551 -0.540 0.412 0.734 74 31 24 0 0
-4.2515 3.3199 -13.7692 -0.713 0.691 0.119 114 86 78 0 0
-4.2070 3.0045 -14.7089 -0.603 0.796 0.061 106 77 73 0 0
-4.1624 2.5317 -16.8012 0.091 0.319 0.943 120 120 119 0 0
-3.5682 0.7439 -12.5204 -0.327 -0.445 0.833 205 199 198 0 0
-3.7410 1.4772 -12.4384 -0.013 0.224 0.974 113 48 35 0 0
-3.9345 2.2816 -12.4733 -0.349 0.302 0.887 117 44 29 0 0
-4.1715 3.2137 -12.9216 -0.791 0.588 -0.168 105 68 61 0 0
-4.2378 3.3822 -13.7475 -0.766 0.339 0.546 112 83 78 0 0
-4.2393 3.3834 -13.7862 -0.750 0.520 0.409 105 79 75 0 0
-4.2011 3.1576 -14.2876 -0.070 0.910 0.410 102 72 69 0 0
-4.2049 3.1698 -14.3153 -0.070 0.910 0.410 102 73 69 0 0
-4.2132 3.2044 -14.3171 -0.639 0.760 -0.121 102 73 69 0 0
-4.1959 3.0251 -15.1281 -0.819 0.552 -0.157 91 57 47 0 0
-3.6100 1.0540 -12.4102 -0.110 -0.294 0.949 103 50 41 0 0
-3.7725 1.7320 -12.4006 -0.302 0.491 0.817 118 51 37 0 0
-3.9118 2.3042 -12.4587 -0.480 0.235 0.846 119 46 30 0 0
-3.9879 2.6277 -12.4067 -0.417 0.330 0.847 120 45 28 0 0
-4.1673 3.2557 -13.3430 0.030 0.315 0.949 56 11 4 0 0
-4.1746 3.2853 -13.3498 -0.231 0.042 0.972 73 13 3 0 0
-4.2080 3.3773 -13.7212 -0.752 0.633 0.181 122 78 60 0 0
-4.1715 3.1452 -14.3521 -0.023 0.985 -0.174 101 72 68 0 0
-4.1943 3.2378 -14.3707 -0.921 0.332 -0.203 104 75 71 0 0
-4.1914 3.2176 -14.4362 -0.922 0.318 -0.220 105 76 72 0 0
-4.1226 3.1783 -13.3951 -0.238 0.411 0.880 43 9 4 0 0
-3.8882 2.4404 -12.4165 -0.345 0.102 0.933 119 46 29 0 0
-3.9903 2.8622 -12.4110 -0.076 0.808 0.585 119 42 26 0 0
-3.9913 2.8617 -12.4478 0.161 0.685 0.710 122 46 30 0 0
-4.1033 3.2731 -12.8814 -0.880 0.145 0.451 83 48 42 0 0
-4.0707 3.0736 -13.4371 -0.156 0.030 0.987 39 8 5 0 0
-4.1722 3.4528 -13.7725 -0.602 0.647 0.467 108 83 79 0 0
-4.1303 3.1216 -15.1283 -0.917 0.352 0.187 94 58 48 0 0
-4.0517 2.5803 -16.9802 0.298 -0.355 0.886 126 126 126 0 0
-3.4257 0.6423 -12.5196 -0.357 -0.459 0.814 210 203 203 0 0
-3.5785 1.2815 -12.4155 0.044 0.463 0.885 111 49 38 0 0
-3.7419 1.9541 -12.4012 0.223 0.471 0.854 118 49 34 0 0
-3.9910 2.9664 -12.4973 -0.185 0.410 0.893 111 32 17 0 0
-4.1454 3.4621 -13.7301 -0.772 0.555 0.311 121 81 67 0 0
-4.1484 3.4711 -13.7600 -0.698 0.621 0.356 113 85 79 0 0
-4.1517 3.4815 -13.7884 -0.687 0.632 0.358 105 80 76 0 0
-4.1571 3.5015 -13.8058 -0.495 0.793 0.354 105 76 72 0 0
-4.1089 3.1592 -15.0923 -0.898 0.434 0.071 93 59 51 0 0
-4.0918 3.0601 -15.3459 -0.646 0.645 -0.410 85 59 53 0 0
-4.0811 3.0034 -15.4602 -0.704 0.605 -0.372 65 54 53 0 0
-4.0686 2.9383 -15.5853 -0.668 0.629 -0.397 61 56 57 0 0
-4.0441 2.7850 -16.0526 0.684 0.536 0.494 73 67 68 0 0
-4.0104 2.5412 -16.9921 0.155 -0.365 0.918 120 120 118 0 0
-3.3809 0.5778 -12.5428 -0.328 -0.464 0.823 214 212 214 0 0
-3.4037 0.6757 -12.4978 -0.313 -0.440 0.842 159 139 138 0 0
-3.4270 0.7763 -12.4502 -0.178 -0.339 0.924 104 67 63 0 0
-3.7685 2.1754 -12.4228 -0.456 0.076 0.887 121 48 33 0 0
-4.1149 3.4580 -13.6629 -0.636 0.641 0.430 80 33 20 0 0
-4.1246 3.4884 -13.7485 -0.687 0.632 0.358 117 84 77 0 0
-4.1322 3.5143 -13.7996 -0.495 0.793 0.354 103 78 72 0 0
-4.1352 3.5233 -13.8295 -0.428 0.890 0.154 103 75 69 0 0
-4.0854 3.1861 -15.0690 -0.922 0.314 0.225 96 62 54 0 0
-4.0882 3.1940 -15.1035 -0.886 0.462 0.028 93 57 48 0 0
-4.0898 3.1961 -15.1453 -0.719 0.588 -0.372 103 65 55 0 0
-4.0642 3.0642 -15.3955 -0.702 0.603 -0.379 71 52 53 0 0
-4.0507 2.9953 -15.5251 -0.668 0.629 -0.397 66 58 64 0 0
-4.0101 2.7692 -16.0825 0.684 0.536 0.494 71 67 66 0 0
-3.3861 0.7284 -12.4597 -0.154 -0.340 0.928 109 80 78 0 0
-3.6787 1.9250 -12.4040 -0.157 0.010 0.988 119 51 35 0 0
-4.0912 3.4756 -13.6513 -0.655 0.594 0.466 72 28 18 0 0
-4.0995 3.5048 -13.6982 -0.702 0.572 0.425 113 66 44 0 0
-4.1077 3.5285 -13.7916 -0.752 0.615 0.238 105 80 75 0 0
-4.0588 3.2090 -14.9630 -0.627 0.778 -0.041 107 79 75 0 0
-4.0599 3.2036 -15.0572 -0.760 0.644 0.083 100 69 63 0 0
-4.0600 3.1987 -15.1072 -0.675 0.733 -0.085 95 62 54 0 0
-4.0319 3.0468 -15.4716 -0.740 0.558 -0.376 63 56 58 0 0
-3.9855 2.6943 -17.0645 0.470 -0.320 0.823 134 134 134 0 0
-3.3430 0.6717 -12.4764 -0.253 -0.445 0.859 126 99 97 0 0
-3.4523 1.1115 -12.5081 -0.178 0.639 0.748 110 48 35 0 0
-3.6361 1.8681 -12.3891 -0.201 0.246 0.948 118 49 33 0 0
-3.9407 3.0951 -12.4630 -0.477 0.157 0.865 117 39 22 0 0
-3.9940 3.2158 -13.4324 -0.333 0.441 0.834 41 9 6 0 0
-4.0857 3.5497 -13.8160 -0.641 0.738 0.212 102 78 74 0 0
-4.0360 3.2232 -15.0869 -0.675 0.733 -0.085 96 66 59 0 0
-4.0368 3.2222 -15.1323 -0.784 0.617 -0.073 94 57 49 0 0
-4.0368 3.2172 -15.1827 -0.854 0.513 -0.091 104 62 53 0 0
-3.9532 2.7852 -16.1301 -0.990 0.062 0.128 69 68 66 0 0
-3.3547 0.8443 -12.4113 -0.178 -0.339 0.924 102 51 41 0 0
-3.6408 1.9974 -12.4238 -0.129 0.283 0.950 118 49 32 0 0
-3.8441 2.8148 -12.4545 -0.397 0.502 0.768 120 44 27 0 0
-3.9175 3.1108 -12.4541 -0.327 0.259 0.909 118 40 24 0 0
-3.9945 3.3780 -12.9208 -0.901 0.413 0.131 89 51 43 0 0
-4.0026 3.4062 -12.9664 -0.037 -0.259 0.965 90 54 49 0 0
-4.0178 3.4705 -12.9358 0.164 -0.271 0.948 31 4 3 0 0
-3.9689 3.2270 -13.4280 -0.134 0.756 0.641 40 9 6 0 0
-4.0634 3.5736 -13.7968 -0.734 0.639 0.229 103 80 78 0 0
-4.0645 3.5748 -13.8358 -0.660 0.736 0.150 102 75 71 0 0
-4.0164 3.2584 -15.1419 -0.854 0.513 -0.091 95 58 49 0 0
-4.0143 3.2439 -15.2041 -0.843 0.529 -0.096 108 69 58 0 0
-3.2288 0.4427 -12.5684 -0.240 -0.468 0.850 212 215 217 0 0
-3.3112 0.7859 -12.4298 -0.293 -0.331 0.897 102 53 46 0 0
-3.7543 2.5676 -12.4082 0.296 0.552 0.780 120 45 26 0 0
-3.7602 2.5900 -12.4232 0.023 0.805 0.593 122 47 28 0 0
-3.7972 2.7386 -12.4259 -0.389 0.477 0.788 123 47 31 0 0
-3.8737 3.0397 -12.4953 -0.380 0.442 0.813 128 51 31 0 0
-4.0365 3.5810 -13.7564 -0.793 0.607 0.056 117 83 72 0 0
-3.9908 3.2661 -15.2309 -0.786 0.571 -0.237 111 73 60 0 0
-3.9803 3.2141 -15.3398 -0.852 0.471 -0.230 73 54 49 0 0
-3.9314 2.9610 -15.9768 -0.990 0.102 0.100 70 70 68 0 0
-3.7728 2.7506 -12.4210 -0.417 0.504 0.756 119 43 27 0 0
-3.8691 3.1335 -12.4452 -0.066 0.201 0.977 123 46 27 0 0
-3.9766 3.5224 -12.9331 0.082 -0.196 0.977 34 5 3 0 0
-4.0146 3.5953 -13.8694 -0.545 0.835 -0.079 104 76 72 0 0
-3.9902 3.4519 -14.4088 -0.523 0.809 0.268 103 74 70 0 0
-3.9696 3.3073 -15.1453 -0.854 0.506 0.118 98 58 47 0 0
-3.9708 3.3085 -15.1884 -0.891 0.424 -0.164 110 70 55 0 0
-3.9642 3.2748 -15.2745 -0.852 0.471 -0.230 93 64 53 0 0
-3.5578 2.0052 -12.3996 0.031 -0.076 0.997 120 48 34 0 0
-3.6971 2.5571 -12.4314 -0.152 0.517 0.843 120 48 28 0 0
-3.8254 3.0636 -12.4852 -0.157 0.522 0.839 119 42 22 0 0
-3.9781 3.5815 -13.6123 -0.813 0.369 0.451 74 44 36 0 0
-3.9619 3.4526 -14.4168 0.069 0.952 0.299 103 74 70 0 0
-3.9675 3.4734 -14.4343 -0.687 0.554 0.470 105 76 72 0 0
-3.8781 2.9834 -16.1103 -0.780 0.568 -0.263 79 79 79 0 0
-3.7999 3.0698 -12.4859 -0.279 0.513 0.812 122 44 24 0 0
-3.8129 3.1198 -12.5091 -0.362 0.472 0.804 120 43 23 0 0
-3.9645 3.6485 -13.4657 -0.739 0.506 0.445 108 54 42 0 0
-3.9661 3.6520 -13.5012 -0.786 0.427 0.447 93 52 44 0 0
-3.9567 3.6079 -13.5905 -0.848 0.343 0.404 83 49 41 0 0
-3.9441 3.5025 -14.3246 -0.400 0.730 0.554 101 71 68 0 0
-3.8705 3.1005 -15.7848 -0.600 0.778 -0.186 60 57 60 0 0
-3.8706 3.0970 -15.8357 0.001 0.996 -0.094 64 62 63 0 0
-3.7649 3.0386 -12.4873 -0.046 0.586 0.809 127 49 29 0 0
-3.8143 3.2315 -12.5134 -0.136 0.654 0.744 121 48 32 0 0
-3.8421 3.0865 -16.0941 0.391 0.683 0.617 83 83 83 0 0
-3.5853 2.4443 -12.4125 -0.362 0.289 0.886 119 46 29 0 0
-3.7220 2.9795 -12.4430 -0.318 0.489 0.812 123 44 27 0 0
-3.8805 3.5741 -12.8699 -0.902 0.183 0.392 82 48 39 0 0
-3.9112 3.6543 -13.4752 -0.604 0.796 0.041 113 61 33 0 0
-3.9123 3.6531 -13.5555 -0.792 0.389 0.471 90 50 42 0 0
-3.9167 3.6691 -13.5771 -0.735 0.579 0.353 84 49 45 0 0
-3.8968 3.5428 -14.2945 -0.845 0.417 0.334 101 70 67 0 0
-3.7917 3.0054 -16.1607 -0.246 0.961 -0.128 78 78 76 0 0
-3.8043 3.0559 -16.1437 0.276 0.847 0.455 81 81 81 0 0
-3.5676 2.4832 -12.4187 -0.411 0.195 0.890 119 46 29 0 0
-3.6974 2.9899 -12.4396 -0.318 0.489 0.812 122 43 25 0 0
-3.8898 3.6743 -13.5397 -0.822 0.361 0.440 95 52 43 0 0
-3.8795 3.5839 -14.3385 -0.761 0.578 0.295 102 71 68 0 0
-3.8475 3.3983 -15.3042 -0.647 0.643 -0.410 79 57 52 0 0
-3.7889 3.1403 -15.7650 -0.424 0.823 -0.379 42 41 47 0 0
-3.7729 3.0693 -15.9012 -0.049 0.958 -0.284 25 24 29 0 0
-3.7580 2.9965 -16.1350 -0.256 0.908 -0.331 66 67 65 0 0
-3.7634 3.0162 -16.1574 0.232 0.965 -0.126 77 77 76 0 0
-3.7720 3.0493 -16.1626 0.545 0.739 0.396 80 80 80 0 0
-2.9736 0.2679 -12.5691 -0.235 -0.439 0.867 214 214 216 0 0
-3.6641 2.9666 -12.4329 -0.425 0.140 0.894 122 43 21 0 0
-3.6728 3.0000 -12.4364 -0.306 0.364 0.880 123 44 22 0 0
-3.8522 3.5884 -14.3419 -0.649 0.703 0.292 102 71 68 0 0
-3.7295 3.0063 -16.1329 -0.242 0.909 -0.339 72 73 71 0 0
-3.7298 3.0048 -16.1824 0.232 0.965 -0.126 75 77 74 0 0
-3.4678 2.3139 -12.3723 0.235 0.748 0.620 120 49 31 0 0
-3.5791 2.7439 -12.4015 -0.065 0.872 0.485 120 44 28 0 0
-3.5836 2.7605 -12.4219 -0.159 0.567 0.808 119 43 27 0 0
-3.5938 2.8000 -12.4201 -0.168 0.357 0.919 121 45 28 0 0
-3.7673 3.4181 -13.4468 -0.596 -0.055 0.801 40 9 4 0 0
-3.8678 3.7944 -13.6979 -0.557 0.260 0.789 118 65 44 0 0
-3.8860 3.8652 -13.6960 -0.066 0.232 0.970 115 84 77 0 0
-3.8126 3.5021 -15.1492 -0.842 0.538 -0.034 95 58 47 0 0
-3.8130 3.5011 -15.1950 -0.678 0.630 -0.378 107 69 63 0 0
-2.9070 0.2454 -12.5625 -0.235 -0.439 0.867 217 211 215 0 0
-2.9965 0.5943 -12.4976 -0.168 0.142 0.976 107 52 42 0 0
-3.0059 0.6304 -12.5045 -0.136 0.089 0.987 104 47 36 0 0
-3.1551 1.2150 -12.3405 -0.108 0.431 0.896 113 49 37 0 0
-3.1613 1.2381 -12.3573 -0.225 0.488 0.844 112 48 36 0 0
-3.1678 1.2623 -12.3730 -0.225 0.488 0.844 112 48 36 0 0
-3.5523 2.7462 -12.4060 0.041 0.610 0.792 120 44 28 0 0
-3.6239 3.0218 -12.4285 -0.306 0.364 0.880 120 43 20 0 0
-3.7996 3.6830 -12.7829 -0.535 0.637 0.555 78 37 33 0 0
-3.8517 3.8391 -13.6944 -0.527 0.278 0.803 116 68 49 0 0
-3.8614 3.8770 -13.6906 -0.214 0.058 0.975 118 82 71 0 0
-3.8298 3.7367 -14.0586 -0.832 0.529 0.166 103 72 69 0 0
-3.7917 3.5369 -15.1153 -0.842 0.538 -0.034 92 59 49 0 0
-2.8617 0.1872 -12.5788 -0.249 -0.450 0.858 215 214 217 0 0
-3.1285 1.2247 -12.3384 -0.045 0.625 0.779 112 48 36 0 0
-3.1349 1.2486 -12.3544 0.002 0.689 0.725 112 48 36 0 0
-3.1398 1.2665 -12.3755 -0.052 0.707 0.705 112 47 35 0 0
-3.1468 1.2926 -12.3896 -0.189 0.508 0.840 113 48 36 0 0
-3.4084 2.3004 -12.3615 -0.201 0.216 0.956 122 50 34 0 0
-3.5060 2.6773 -12.3334 0.255 0.709 0.658 119 43 28 0 0
-3.7798 3.7094 -12.7994 -0.459 0.670 0.583 77 37 32 0 0
-2.9426 0.6178 -12.4902 -0.288 0.431 0.855 106 48 37 0 0
-3.1199 1.3009 -12.3886 -0.189 0.508 0.840 114 48 37 0 0
-3.3818 2.3056 -12.3632 0.025 0.149 0.989 122 50 35 0 0
-3.5121 2.8032 -12.4007 -0.186 0.511 0.839 123 45 27 0 0
-3.5349 2.8892 -12.4264 -0.447 0.319 0.836 122 44 24 0 0
-3.5529 2.9583 -12.4317 -0.718 0.451 0.531 123 45 23 0 0
-3.7692 3.7774 -12.6594 -0.242 0.921 0.305 91 47 39 0 0
-3.7613 3.7426 -12.7712 -0.393 0.694 0.604 76 37 31 0 0
-3.7358 3.6170 -13.4467 -0.312 0.641 0.701 49 8 4 0 0
-3.7914 3.8268 -13.5255 -0.648 0.413 0.640 93 54 42 0 0
-3.7729 3.7296 -14.1673 -0.400 0.305 0.864 101 70 67 0 0
-3.7455 3.5857 -15.1181 -0.792 0.585 -0.173 96 60 51 0 0
-3.7229 3.4884 -15.3754 -0.784 0.498 -0.370 72 56 53 0 0
-2.8463 0.3650 -12.4827 -0.256 -0.427 0.867 108 74 70 0 0
-2.9192 0.6432 -12.4752 -0.678 0.211 0.704 105 48 37 0 0
-3.3520 2.2978 -12.3770 0.193 0.228 0.954 122 50 35 0 0
-3.4711 2.7520 -12.3841 0.320 0.326 0.889 121 45 29 0 0
-3.4821 2.7942 -12.3797 0.133 0.456 0.880 121 45 28 0 0
-3.4937 2.8371 -12.4110 -0.239 0.308 0.921 121 42 23 0 0
-3.7368 3.7514 -12.7691 -0.149 0.886 0.440 76 37 29 0 0
-3.7340 3.7360 -12.8986 -0.826 0.555 0.096 87 50 42 0 0
-3.7176 3.6544 -13.4128 -0.232 0.668 0.707 47 9 5 0 0
-3.7977 3.9472 -13.7544 -0.386 0.608 0.693 106 80 76 0 0
-3.7690 3.8264 -14.0609 0.042 0.382 0.923 102 71 68 0 0
-3.7722 3.8377 -14.0888 -0.105 0.223 0.969 100 69 66 0 0
-3.7219 3.6050 -15.1929 -0.918 0.381 -0.109 103 64 53 0 0
-2.7997 0.3020 -12.5031 -0.213 -0.416 0.884 117 91 90 0 0
-2.9630 0.9250 -12.4291 0.099 -0.013 0.995 111 49 38 0 0
-3.0642 1.3092 -12.4307 -0.644 0.481 0.594 114 48 34 0 0
-3.3301 2.3203 -12.3991 -0.612 0.233 0.756 121 49 33 0 0
-3.3368 2.3453 -12.4122 -0.612 0.233 0.756 121 48 31 0 0
-3.4468 2.7644 -12.3788 0.100 0.420 0.902 124 48 32 0 0
-3.4542 2.7924 -12.3882 -0.144 0.451 0.881 124 48 31 0 0
-3.4606 2.8161 -12.4016 -0.189 0.463 0.866 124 46 28 0 0
-3.6320 3.4658 -12.4475 -0.079 0.762 0.643 124 46 25 0 0
-3.7745 3.9646 -13.7424 -0.705 0.384 0.597 110 81 77 0 0
-3.7453 3.8423 -14.0920 -0.405 0.317 0.858 101 70 67 0 0
-3.6891 3.5885 -15.3136 -0.784 0.509 -0.355 83 60 55 0 0
-4.4713 6.5092 -16.8651 0.440 0.179 0.880 215 215 215 0 0
-4.4778 6.5334 -16.8739 0.325 0.345 0.881 215 215 215 0 0
-2.8054 0.4385 -12.5088 0.139 0.226 0.964 104 49 39 0 0
-3.4278 2.7961 -12.3912 0.272 0.481 0.834 126 49 29 0 0
-3.4527 2.8901 -12.4093 -0.122 0.315 0.941 124 45 27 0 0
-3.4600 2.9172 -12.4194 -0.122 0.315 0.941 125 47 25 0 0
-3.7529 3.9877 -13.7236 -0.354 0.571 0.740 113 82 76 0 0
-3.7172 3.8421 -14.1010 -0.732 0.262 0.629 104 71 66 0 0
-4.4498 6.5335 -16.8878 0.349 0.431 0.832 215 215 215 0 0
-4.4585 6.5666 -16.8800 0.529 0.450 0.720 215 215 215 0 0
-4.4648 6.5900 -16.8900 0.529 0.450 0.720 215 215 215 0 0
-3.1113 1.7087 -12.3485 -0.222 0.600 0.769 117 48 32 0 0
-3.1168 1.7287 -12.3672 -0.247 0.608 0.755 116 47 31 0 0
-3.1241 1.7561 -12.3793 -0.137 0.372 0.918 118 46 31 0 0
-3.3488 2.6029 -12.3647 0.115 0.530 0.840 120 45 28 0 0
-3.4010 2.7990 -12.3952 -0.044 0.444 0.895 125 48 28 0 0
-3.4178 2.8616 -12.4073 -0.261 0.168 0.951 127 50 30 0 0
-3.4283 2.9012 -12.4052 0.341 0.780 0.524 118 40 21 0 0
-3.5765 3.4572 -12.5069 0.030 0.658 0.752 129 52 30 0 0
-3.7073 3.9261 -13.4838 -0.601 0.625 0.497 116 69 48 0 0
-3.7234 3.9814 -13.6991 0.014 0.202 0.979 116 66 50 0 0
-3.7317 4.0122 -13.7031 -0.011 0.379 0.925 114 78 66 0 0
-3.6972 3.8722 -14.1151 -0.674 0.705 0.219 102 71 68 0 0
-3.6529 3.6815 -15.0809 -0.714 0.654 0.249 96 67 62 0 0
-3.6561 3.6928 -15.1113 -0.838 0.393 0.378 92 61 54 0 0
-4.4147 6.5067 -16.8977 0.193 0.227 0.955 210 210 210 0 0
-4.4225 6.5359 -16.8974 0.192 0.284 0.939 204 204 204 0 0
-4.4281 6.5569 -16.9120 0.274 0.444 0.853 209 209 209 0 0
-4.4344 6.5803 -16.9221 0.274 0.444 0.853 213 213 213 0 0
-4.4360 6.5851 -16.9670 0.200 0.779 0.594 215 215 215 0 0
-2.6596 0.1171 -12.5600 -0.232 -0.447 0.864 206 198 200 0 0
-2.8215 0.7275 -12.4292 0.081 0.087 0.993 108 48 37 0 0
-3.0900 1.7358 -12.3672 0.071 0.773 0.630 116 47 31 0 0
-3.2807 2.4515 -12.3688 -0.184 0.304 0.935 121 48 31 0 0
-3.3042 2.5389 -12.3956 -0.022 0.304 0.952 120 46 29 0 0
-3.3751 2.8051 -12.3960 -0.199 0.304 0.932 127 50 30 0 0
-3.3990 2.8942 -12.4188 0.272 0.740 0.615 122 41 20 0 0
-3.4053 2.9175 -12.4326 0.290 0.525 0.800 124 44 22 0 0
-3.6776 3.9186 -13.4215 -0.530 0.782 0.328 138 89 62 0 0
-3.6804 3.9285 -13.4496 -0.530 0.782 0.328 129 83 53 0 0
-3.6873 3.9533 -13.5003 -0.491 0.805 0.333 101 54 41 0 0
-3.6903 3.9639 -13.5277 -0.514 0.755 0.407 80 46 40 0 0
-3.6288 3.7017 -15.0651 -0.714 0.654 0.249 100 71 65 0 0
-3.6335 3.7187 -15.0882 -0.838 0.393 0.378 96 67 59 0 0
-3.6329 3.7137 -15.2290 -0.777 0.599 -0.192 115 76 62 0 0
-4.3793 6.4791 -16.9092 0.438 0.182 0.880 209 209 209 0 0
-4.4074 6.5841 -16.9292 0.336 0.467 0.818 214 214 214 0 0
-4.4078 6.5845 -16.9823 0.316 0.765 0.562 214 214 214 0 0
-2.6497 0.1934 -12.6543 0.612 0.723 0.321 104 50 42 0 0
-2.6880 0.3377 -12.5731 -0.312 0.484 0.818 107 49 40 0 0
-3.3745 2.9052 -12.4149 -0.272 0.817 0.509 124 43 22 0 0
-3.3836 2.9392 -12.4181 -0.387 0.330 0.861 126 45 24 0 0
-3.5843 3.6722 -13.4328 -0.480 0.061 0.875 42 8 5 0 0
-3.5918 3.7002 -13.4408 -0.578 -0.003 0.816 43 9 4 0 0
-3.6660 3.9754 -13.5625 -0.246 0.885 0.394 81 50 44 0 0
-3.6894 4.0604 -13.7034 -0.125 0.032 0.992 119 78 67 0 0
-3.6638 3.9552 -14.2835 -0.756 0.636 0.154 102 71 67 0 0
-3.6648 3.9582 -14.3219 0.239 -0.064 0.969 103 72 69 0 0
-3.6048 3.7219 -15.0494 -0.743 0.584 0.328 104 75 68 0 0
-3.6109 3.7446 -15.0651 -0.838 0.393 0.378 98 69 60 0 0
-4.3463 6.4613 -16.9025 -0.027 -0.088 0.996 214 214 214 0 0
-4.3528 6.4857 -16.9111 0.294 0.213 0.932 214 214 214 0 0
-4.3590 6.5086 -16.9225 0.302 0.205 0.931 214 214 214 0 0
-4.3650 6.5306 -16.9353 0.514 0.358 0.780 214 214 214 0 0
-4.3716 6.5554 -16.9431 0.568 0.276 0.775 212 212 212 0 0
-4.3785 6.5808 -16.9497 0.512 0.391 0.765 215 215 215 0 0
-2.6155 0.1809 -12.6330 0.667 0.514 0.539 101 51 43 0 0
-2.6628 0.3574 -12.5629 -0.704 0.514 0.490 107 49 37 0 0
-3.0364 1.7507 -12.3301 -0.329 0.898 0.291 118 49 33 0 0
-3.0857 1.9334 -12.3852 0.102 0.613 0.784 118 46 31 0 0
-3.3548 2.9340 -12.4300 -0.393 0.517 0.760 125 43 22 0 0
-3.4552 3.3075 -12.4240 -0.330 0.866 0.376 126 45 26 0 0
-3.5092 3.5075 -12.5130 -0.505 0.195 0.841 127 49 27 0 0
-3.6542 4.0320 -13.7051 -0.566 0.092 0.819 104 48 33 0 0
-3.6360 3.9577 -14.2053 -0.183 0.974 0.134 101 70 65 0 0
-3.6393 3.9691 -14.2755 -0.269 0.926 0.264 101 70 65 0 0
-3.6458 3.9925 -14.3311 -0.324 0.929 -0.178 104 73 68 0 0
-3.5831 3.7519 -14.9326 -0.919 0.371 0.133 105 76 70 0 0
-3.5834 3.7525 -14.9761 -0.919 0.291 0.266 105 76 70 0 0
-3.5968 3.8013 -15.0475 -0.611 0.777 -0.149 98 65 57 0 0
-4.3250 6.4868 -16.9231 0.228 0.179 0.957 215 215 215 0 0
-4.3311 6.5096 -16.9348 0.454 0.335 0.826 214 214 214 0 0
-3.0068 1.7472 -12.3396 -0.356 0.613 0.705 115 46 30 0 0
-3.0182 1.7889 -12.3755 -0.583 0.622 0.523 119 47 32 0 0
-3.0262 1.8187 -12.3854 -0.533 0.259 0.806 119 47 32 0 0
-3.0591 1.9406 -12.3852 -0.290 0.623 0.726 119 47 32 0 0
-3.1451 2.2590 -12.3858 -0.771 0.302 0.561 120 49 31 0 0
-3.3515 3.0237 -12.4217 -0.129 0.429 0.894 125 42 24 0 0
-3.4761 3.4846 -12.5069 0.104 0.413 0.905 133 53 29 0 0
-3.4818 3.5054 -12.5222 -0.189 0.200 0.962 128 51 26 0 0
-3.5972 3.9306 -12.8146 -0.867 0.400 0.296 73 35 30 0 0
-3.5954 3.9234 -12.8602 -0.763 0.626 0.163 81 44 38 0 0
-3.6372 4.0711 -13.7077 -0.745 0.159 0.648 114 62 46 0 0
-3.6459 4.1032 -13.7100 -0.514 0.190 0.837 119 79 66 0 0
-3.6186 4.0004 -13.9140 -0.816 0.577 -0.036 104 79 77 0 0
-3.6092 3.9634 -14.1655 0.066 0.772 0.633 100 69 64 0 0
-3.6203 4.0034 -14.2846 -0.456 0.890 0.001 101 70 65 0 0
-3.6202 4.0029 -14.3275 -0.599 0.785 -0.162 103 72 67 0 0
-3.5728 3.8221 -14.8979 -0.485 0.869 0.095 105 76 70 0 0
-3.5692 3.8084 -14.9594 -0.870 0.464 0.166 106 77 71 0 0
-3.5734 3.8231 -15.0295 -0.611 0.777 -0.149 99 68 61 0 0
-2.9919 1.7978 -12.3739 -0.496 0.593 0.635 118 46 31 0 0
-3.0011 1.8318 -12.3800 -0.435 0.310 0.845 120 48 33 0 0
-3.1191 2.2674 -12.3845 -0.249 0.486 0.838 120 49 31 0 0
-3.3202 3.0092 -12.4062 -0.034 0.845 0.534 124 41 23 0 0
-3.5943 4.0154 -13.5407 -0.569 0.495 0.656 111 53 35 0 0
-3.6226 4.1190 -13.6997 -0.383 0.024 0.923 123 70 49 0 0
-3.6308 4.1494 -13.7039 -0.383 0.024 0.923 119 82 71 0 0
-3.5875 3.9868 -14.2718 -0.145 0.931 0.335 100 69 64 0 0
-3.5387 3.8019 -15.2458 -0.745 0.645 -0.173 105 68 57 0 0
-2.4742 0.0006 -12.5720 -0.290 -0.484 0.825 202 195 196 0 0
-3.0935 2.2768 -12.3824 -0.249 0.486 0.838 120 47 30 0 0
-3.2012 2.6728 -12.4109 -0.445 0.526 0.725 122 47 28 0 0
-3.3203 3.1106 -12.4226 -0.327 0.208 0.922 127 44 26 0 0
-3.5683 4.0209 -13.5426 -0.498 0.633 0.593 120 59 32 0 0
-3.5768 4.0520 -13.5462 -0.619 0.112 0.777 95 50 39 0 0
-3.5795 4.0620 -13.5744 -0.516 0.271 0.813 86 53 42 0 0
-3.5601 3.9902 -14.2766 -0.068 0.946 0.315 100 69 64 0 0
-3.5668 4.0146 -14.2889 0.025 0.960 0.278 100 69 64 0 0
-2.4226 -0.0750 -12.6014 -0.264 -0.491 0.830 211 211 211 0 0
-2.4755 0.1185 -12.5203 -0.149 -0.317 0.937 108 71 68 0 0
-2.8778 1.5908 -12.3876 -0.300 0.105 0.948 117 48 33 0 0
-3.1565 2.6109 -12.4037 -0.320 0.326 0.889 127 51 35 0 0
-3.2684 3.0203 -12.4090 0.120 0.477 0.871 124 41 24 0 0
-3.5317 3.9852 -12.7398 -0.495 0.369 0.786 82 34 27 0 0
-3.5268 3.9678 -12.9099 -0.699 0.715 0.024 84 46 39 0 0
-3.5442 4.0331 -13.5366 -0.467 0.654 0.595 123 64 28 0 0
-3.5509 4.0579 -13.5476 -0.466 0.367 0.805 108 56 35 0 0
-3.5569 4.0799 -13.5618 -0.241 0.438 0.866 93 51 39 0 0
-3.5666 4.1157 -13.6399 -0.728 0.515 0.452 66 25 17 0 0
-3.5724 4.1370 -13.6549 -0.577 0.354 0.736 77 27 15 0 0
-3.5319 3.9917 -14.6259 -0.204 0.971 -0.128 104 75 69 0 0
-2.3791 -0.1203 -12.6061 -0.156 -0.366 0.918 213 214 214 0 0
-2.4320 0.0720 -12.5265 -0.207 -0.395 0.895 112 82 79 0 0
-2.4704 0.2120 -12.4879 -0.173 -0.315 0.933 104 54 48 0 0
-2.4899 0.2828 -12.4677 -0.173 -0.315 0.933 105 50 43 0 0
-2.4980 0.3124 -12.4809 -0.157 -0.126 0.980 107 50 40 0 0
-3.1319 2.6226 -12.3991 -0.320 0.326 0.889 123 47 31 0 0
-3.4982 3.9621 -12.9620 -0.419 0.264 0.869 89 49 40 0 0
-3.4751 3.8814 -13.5212 0.141 -0.392 0.909 53 10 6 0 0
-3.5153 4.0279 -13.5111 -0.563 0.588 0.581 159 106 72 0 0
-3.5218 4.0519 -13.5229 -0.531 0.355 0.769 134 78 41 0 0
-3.5278 4.0739 -13.5372 -0.531 0.355 0.769 119 62 31 0 0
-3.5338 4.0958 -13.5514 -0.531 0.355 0.769 100 50 37 0 0
-2.3549 -0.0951 -12.5919 -0.156 -0.366 0.918 210 206 207 0 0
-2.4569 0.2747 -12.5178 0.194 0.165 0.967 107 49 38 0 0
-3.1168 2.6693 -12.3978 -0.266 0.828 0.494 122 46 29 0 0
-3.3408 3.4831 -12.4702 -0.393 0.391 0.832 131 50 29 0 0
-3.3951 3.6800 -12.4499 -0.170 0.780 0.603 130 48 27 0 0
-3.3997 3.6970 -12.4689 -0.684 0.671 0.285 129 48 27 0 0
-3.4532 3.9024 -13.5053 0.076 -0.417 0.906 51 11 6 0 0
-3.4958 4.0559 -13.4074 -0.575 0.810 0.112 70 13 3 0 0
-3.4609 3.9479 -15.1872 -0.898 0.434 0.067 108 61 49 0 0
-3.3782 3.6552 -15.8943 -0.811 0.538 -0.231 77 73 74 0 0
-2.3064 -0.1576 -12.6104 -0.176 -0.378 0.909 213 212 216 0 0
-2.3307 -0.0699 -12.5778 -0.156 -0.366 0.918 179 166 167 0 0
-2.3639 0.0493 -12.5194 -0.194 -0.361 0.912 107 77 73 0 0
-2.4180 0.2441 -12.4740 -0.155 -0.245 0.957 104 51 43 0 0
-3.4727 4.0627 -12.7899 -0.525 0.308 0.793 68 25 19 0 0
-3.4264 3.9048 -13.4709 -0.602 0.170 0.780 47 10 3 0 0
-3.4381 3.9470 -13.4621 -0.353 0.861 0.365 49 10 3 0 0
-3.4323 3.9516 -15.2375 -0.615 0.765 -0.192 114 67 52 0 0
-3.3337 3.6078 -16.1111 -0.780 0.570 -0.258 82 82 81 0 0
-2.2828 -0.1301 -12.5944 -0.176 -0.378 0.909 203 198 197 0 0
-2.3409 0.0774 -12.5028 -0.179 -0.358 0.916 103 63 59 0 0
-2.3628 0.1557 -12.4770 -0.194 -0.361 0.912 102 53 46 0 0
-2.9615 2.3097 -12.3480 -0.203 0.035 0.978 121 48 31 0 0
-3.1669 3.0505 -12.4064 0.227 0.422 0.878 130 47 29 0 0
-3.1746 3.0784 -12.4155 0.189 0.527 0.828 130 47 29 0 0
-3.3378 3.6672 -12.4775 -0.204 0.667 0.716 133 52 31 0 0
-3.3458 3.6962 -12.4840 -0.198 0.406 0.892 132 52 32 0 0
-3.3532 3.7232 -12.4925 -0.161 0.524 0.837 127 48 30 0 0
-3.3589 3.7438 -12.5076 -0.287 0.478 0.830 127 49 32 0 0
-3.4496 4.0789 -12.9693 -0.116 -0.215 0.970 102 62 48 0 0
-3.4157 3.9662 -13.4879 -0.231 0.358 0.905 48 9 2 0 0
-3.4531 4.1169 -14.3775 -0.797 0.593 -0.114 104 73 68 0 0
-2.3335 0.1612 -12.4786 -0.185 -0.302 0.935 105 54 47 0 0
-2.3528 0.2301 -12.4601 -0.185 -0.302 0.935 107 51 42 0 0
-3.3133 3.6758 -12.4756 -0.438 0.504 0.744 137 56 35 0 0
-3.3276 3.7277 -12.4950 -0.452 0.274 0.849 131 52 34 0 0
-3.3876 3.9646 -13.4980 -0.215 0.221 0.951 50 10 3 0 0
-2.2354 -0.0770 -12.5639 -0.137 -0.355 0.925 115 87 84 0 0
-2.3065 0.1745 -12.4739 -0.035 -0.229 0.973 108 52 44 0 0
-3.0820 2.9439 -12.4151 -0.177 0.272 0.946 122 43 23 0 0
-3.0906 2.9749 -12.4213 -0.242 0.402 0.883 126 46 25 0 0
-3.4118 4.1341 -12.8847 -0.831 0.545 0.112 84 41 36 0 0
-3.4025 4.1027 -12.9581 -0.157 -0.041 0.987 94 53 45 0 0
-3.3632 3.9763 -13.4927 -0.545 -0.096 0.833 53 12 5 0 0
-2.1877 -0.1355 -12.5791 -0.087 -0.325 0.942 152 134 135 0 0
-2.3776 0.5363 -12.4453 -0.222 -0.133 0.966 111 50 39 0 0
-3.0786 3.0300 -12.4106 -0.078 0.366 0.927 128 47 26 0 0
-3.3917 4.1576 -12.8661 -0.871 0.441 0.217 80 37 32 0 0
-3.3780 4.1114 -12.9561 -0.027 -0.022 0.999 88 47 43 0 0
-3.3978 4.1818 -12.9532 0.247 -0.248 0.937 88 49 41 0 0
-3.3970 4.2164 -14.2386 -0.646 0.763 -0.040 101 68 60 0 0
-3.3998 4.2275 -14.2671 -0.491 0.869 0.059 101 70 62 0 0
-3.3112 3.9469 -15.4671 -0.658 0.641 -0.395 60 50 45 0 0
-2.1122 -0.2905 -12.6331 -0.198 -0.463 0.864 213 213 215 0 0
-2.2402 0.1601 -12.5352 -0.177 -0.391 0.903 105 51 38 0 0
-2.8376 2.2711 -12.3368 0.336 0.415 0.845 122 49 34 0 0
-2.8454 2.2991 -12.3474 0.336 0.415 0.845 122 49 33 0 0
-2.8444 2.2969 -12.3861 -0.476 -0.055 0.877 122 49 32 0 0
-2.8872 2.4486 -12.3909 0.231 0.347 0.909 122 49 32 0 0
-3.0513 3.0313 -12.4161 0.285 0.569 0.771 127 46 25 0 0
-3.3704 4.1765 -12.8526 -0.701 0.685 0.201 73 32 25 0 0
-3.3534 4.1196 -12.9547 -0.031 -0.003 1.000 80 37 34 0 0
-3.3600 4.1434 -12.9661 0.172 0.022 0.985 95 51 44 0 0
-3.3908 4.2673 -13.4078 -0.326 0.777 0.539 123 69 36 0 0
-3.3960 4.2861 -13.4253 -0.394 0.679 0.619 138 95 61 0 0
-3.4030 4.3112 -13.4353 -0.143 0.693 0.706 118 70 45 0 0
-3.3755 4.2407 -14.2596 -0.491 0.869 0.059 98 64 56 0 0
-3.1978 3.6709 -16.0804 0.198 0.964 -0.177 58 55 54 0 0
-3.2114 3.7201 -16.1105 0.733 0.485 0.477 81 80 78 0 0
-2.0924 -0.2498 -12.6068 -0.198 -0.463 0.864 208 205 206 0 0
-2.8167 2.2981 -12.3548 0.489 0.640 0.593 124 51 35 0 0
-2.8163 2.2981 -12.3916 -0.328 -0.018 0.945 122 49 32 0 0
-3.0038 2.9598 -12.3833 0.146 0.575 0.805 122 44 24 0 0
-3.0105 2.9837 -12.3965 0.083 0.506 0.859 124 45 25 0 0
-3.0187 3.0133 -12.4041 0.078 0.555 0.828 126 46 25 0 0
-3.0686 3.1896 -12.4126 -0.431 -0.027 0.902 132 50 29 0 0
-3.0954 3.2846 -12.4273 -0.062 0.148 0.987 131 49 28 0 0
-3.1819 3.5909 -12.4453 -0.256 0.513 0.820 128 47 25 0 0
-3.1877 3.6117 -12.4604 -0.437 0.464 0.771 129 47 26 0 0
-3.2002 3.6571 -12.4869 -0.162 0.585 0.795 133 50 32 0 0
-3.3431 4.1793 -12.9717 0.356 0.089 0.930 105 60 52 0 0
-3.3522 4.2113 -12.9737 0.376 0.112 0.920 95 52 45 0 0
-3.3804 4.3372 -13.6939 -0.246 0.204 0.947 75 25 18 0 0
-3.3844 4.3521 -13.7164 -0.759 0.631 0.161 106 48 33 0 0
-3.3858 4.3582 -13.7497 -0.777 0.592 0.216 117 68 56 0 0
-3.3519 4.2583 -14.2893 -0.528 0.828 0.187 102 68 59 0 0
-2.8056 2.3570 -12.3067 -0.750 0.610 0.255 122 50 33 0 0
-2.7926 2.3143 -12.3831 -0.328 -0.018 0.945 122 49 32 0 0
-2.9840 2.9880 -12.3991 -0.386 0.658 0.647 123 45 25 0 0
-3.0536 3.2334 -12.4124 -0.534 0.532 0.657 130 48 27 0 0
-3.2051 3.7692 -12.4872 0.018 0.634 0.773 135 58 40 0 0
-3.3249 4.2103 -12.9827 0.461 0.196 0.865 108 61 52 0 0
-3.3574 4.3434 -13.4536 -0.048 0.529 0.847 109 62 49 0 0
-3.3559 4.3477 -13.6898 -0.246 0.204 0.947 66 19 15 0 0
-3.3646 4.3799 -13.7320 -0.759 0.631 0.161 116 66 48 0 0
-2.0545 -0.1646 -12.5509 -0.188 -0.487 0.853 129 102 102 0 0
-2.7748 2.3488 -12.3209 -0.567 0.491 0.661 121 48 32 0 0
-3.3279 4.3233 -13.1702 -0.188 0.982 -0.036 50 9 3 0 0
-3.3244 4.3329 -13.6758 -0.355 0.289 0.889 69 30 25 0 0
-2.9286 2.9870 -12.3771 -0.329 -0.004 0.944 123 45 25 0 0
-2.9991 3.2333 -12.3896 -0.489 0.240 0.838 127 46 25 0 0
-3.0224 3.3160 -12.4165 -0.373 0.138 0.918 126 44 23 0 0
-3.3227 4.4259 -13.7339 -0.748 0.660 0.069 120 61 39 0 0
-2.7403 2.4266 -12.3346 -0.505 0.347 0.790 121 48 31 0 0
-2.7497 2.4611 -12.3756 -0.592 0.275 0.758 121 48 31 0 0
-2.7607 2.4995 -12.3760 -0.265 0.220 0.939 123 51 34 0 0
-2.9956 3.3180 -12.4215 0.263 0.586 0.767 126 44 23 0 0
-3.0068 3.3571 -12.4187 -0.089 0.362 0.928 126 43 24 0 0
-3.0633 3.5561 -12.4727 -0.193 0.662 0.724 131 50 28 0 0
-3.3010 4.4433 -13.6806 -0.759 0.631 0.161 82 27 15 0 0
-3.2252 4.2532 -15.1230 -0.750 0.632 -0.194 86 53 46 0 0
-1.9150 -0.3177 -12.6151 -0.096 -0.337 0.936 168 154 154 0 0
-1.9391 -0.2356 -12.5878 -0.082 -0.277 0.958 108 72 71 0 0
-2.7250 2.4733 -12.3707 -0.596 0.501 0.627 122 49 32 0 0
-2.9461 3.2421 -12.4313 -0.331 0.146 0.932 128 47 26 0 0
-3.0900 3.7407 -12.4352 -0.063 0.627 0.777 130 49 30 0 0
-3.2679 4.4235 -13.6728 -0.685 0.559 0.466 67 26 21 0 0
-3.2726 4.4409 -13.6922 -0.632 0.526 0.569 70 23 16 0 0
-3.0625 3.8538 -16.2853 -0.831 0.499 -0.247 87 87 89 0 0
-1.9124 -0.2192 -12.5808 -0.082 -0.277 0.958 108 63 58 0 0
-1.9737 -0.0108 -12.5277 -0.058 -0.288 0.956 106 49 40 0 0
-2.8952 3.1602 -12.4099 0.003 0.171 0.985 127 44 24 0 0
-3.1151 3.9241 -12.5067 -0.147 0.499 0.854 129 51 34 0 0
-3.2473 4.4460 -13.6541 -0.784 0.490 0.382 71 30 25 0 0
-3.0585 3.9352 -16.0872 -0.823 0.511 -0.246 76 76 76 0 0
-3.0645 3.9571 -16.1055 -0.919 0.374 -0.125 82 82 84 0 0
-3.0561 3.9353 -16.2327 -0.919 0.374 -0.125 87 87 89 0 0
-2.7247 2.6656 -12.3484 0.071 0.517 0.853 120 47 30 0 0
-2.9776 3.5398 -12.4371 -0.190 0.485 0.854 135 52 33 0 0
-3.0642 3.8362 -12.4228 0.019 0.582 0.813 130 52 32 0 0
-3.0700 3.8570 -12.4376 0.019 0.582 0.813 130 51 31 0 0
-3.2350 4.4999 -13.6781 -0.670 0.374 0.641 70 25 17 0 0
-3.0425 3.9905 -16.1674 -0.725 0.647 -0.235 86 86 88 0 0
-2.6841 2.6210 -12.3243 0.205 0.457 0.866 122 49 32 0 0
-2.6974 2.6685 -12.3524 0.071 0.517 0.853 121 48 31 0 0
-2.7893 2.9844 -12.3769 -0.336 0.523 0.783 124 47 27 0 0
-3.0814 3.9935 -12.5210 0.238 0.706 0.667 135 60 42 0 0
-3.2031 4.4764 -13.5534 -0.755 0.522 0.396 88 51 42 0 0
-3.1842 4.4638 -14.3589 -0.667 0.744 0.043 103 69 60 0 0
-3.1240 4.3132 -15.2200 -0.756 0.608 -0.243 95 57 47 0 0
-3.0275 4.0405 -16.1093 -0.808 0.588 -0.028 85 85 85 0 0
-3.0489 4.1134 -16.1048 -0.292 0.667 0.686 89 89 91 0 0
-2.6633 2.6474 -12.3424 0.071 0.517 0.853 121 48 31 0 0
-2.7580 2.9715 -12.3597 -0.337 0.547 0.766 122 45 26 0 0
-2.8053 3.1365 -12.4174 -0.076 0.100 0.992 127 44 26 0 0
-2.8187 3.1817 -12.4092 0.296 0.512 0.806 126 43 27 0 0
-3.0192 3.8698 -12.4754 -0.217 0.609 0.763 134 54 35 0 0
-3.1742 4.5057 -14.0604 -0.539 0.615 0.576 101 68 59 0 0
-2.9922 4.0234 -16.0956 -0.608 0.785 -0.119 71 71 72 0 0
-2.9853 4.0048 -16.1699 -0.648 0.745 -0.156 82 82 82 0 0
-3.0080 4.0785 -16.1160 -0.434 0.901 -0.003 85 85 86 0 0
-2.5987 2.5244 -12.3557 -0.140 0.116 0.983 121 48 31 0 0
-2.6276 2.6239 -12.3716 -0.569 0.259 0.781 121 48 31 0 0
-2.7721 3.1172 -12.4067 0.078 0.260 0.963 124 42 23 0 0
-2.7807 3.1469 -12.4140 0.078 0.260 0.963 125 42 24 0 0
-2.7903 3.1796 -12.4183 0.296 0.512 0.806 126 43 26 0 0
-2.9974 3.8864 -12.4650 -0.203 0.632 0.748 141 60 42 0 0
-3.0202 3.9656 -12.4914 -0.038 0.342 0.939 135 56 39 0 0
-3.1516 4.4566 -13.1182 -0.345 0.927 0.146 87 49 40 0 0
-3.1461 4.4419 -13.1746 -0.121 0.715 0.689 89 51 42 0 0
-3.1465 4.4459 -13.2091 -0.184 0.475 0.861 90 53 44 0 0
-3.1500 4.4593 -13.2324 -0.611 0.313 0.727 91 54 45 0 0
-3.1498 4.5171 -14.0551 -0.699 0.706 0.119 101 68 59 0 0
-3.1506 4.5223 -14.0906 -0.337 0.922 0.192 100 67 58 0 0
-3.1531 4.5330 -14.1191 -0.518 0.720 0.463 99 66 57 0 0
-2.9850 4.1026 -16.0936 -0.795 0.528 0.300 84 84 86 0 0
-2.7423 3.1111 -12.4197 -0.009 0.549 0.836 125 44 25 0 0
-2.7505 3.1394 -12.4284 0.056 0.409 0.911 124 42 22 0 0
-2.9065 3.6684 -12.4429 -0.061 0.622 0.781 131 49 29 0 0
-2.9724 3.8929 -12.4653 0.025 0.700 0.714 131 52 32 0 0
-3.0083 4.0180 -12.5166 -0.101 0.325 0.940 131 54 36 0 0
-3.1336 4.5230 -13.6033 -0.178 0.890 0.419 84 47 41 0 0
-3.1419 4.5570 -13.6835 -0.028 0.565 0.824 70 32 28 0 0
-3.1250 4.5275 -14.0512 -0.499 0.867 0.009 101 68 60 0 0
-3.1260 4.5332 -14.0859 0.010 0.891 0.454 101 67 58 0 0
-3.1314 4.5529 -14.1030 -0.284 0.709 0.645 100 67 58 0 0
-3.1347 4.5658 -14.1287 -0.419 0.894 0.159 99 66 57 0 0
-3.1354 4.5709 -14.1645 -0.545 0.817 0.191 99 66 59 0 0
-2.9563 4.0994 -15.9643 -0.607 0.753 -0.256 36 36 40 0 0
-2.9407 4.0680 -16.2508 -0.832 0.555 -0.004 86 86 88 0 0
-3.3104 5.3680 -16.9147 0.208 0.978 0.011 197 197 197 0 0
-2.5869 2.6745 -12.3367 -0.287 0.497 0.819 121 48 31 0 0
-2.6850 3.0085 -12.3806 0.530 0.440 0.724 124 45 30 0 0
-2.7158 3.1155 -12.4222 -0.009 0.549 0.836 126 45 26 0 0
-2.7240 3.1437 -12.4311 0.150 0.423 0.893 126 45 24 0 0
-2.8472 3.5605 -12.4512 0.075 0.547 0.834 129 48 27 0 0
-2.9599 3.9434 -12.4927 -0.195 0.516 0.834 137 60 40 0 0
-3.1229 4.5866 -13.6965 -0.107 0.586 0.803 64 24 18 0 0
-3.1100 4.5737 -14.0858 -0.627 0.455 0.632 100 67 58 0 0
-3.1089 4.5733 -14.1284 -0.300 0.910 0.285 99 66 57 0 0
-3.0340 4.4094 -15.2688 -0.730 0.594 -0.338 101 67 59 0 0
-2.9184 4.0909 -16.1810 -0.670 0.728 0.144 82 82 84 0 0
-2.9116 4.0738 -16.2539 -0.776 0.623 -0.097 86 86 88 0 0
-3.2836 5.3823 -16.9569 0.596 0.492 0.635 198 198 198 0 0
-1.6641 -0.3122 -12.5450 -0.159 -0.473 0.867 107 69 66 0 0
-2.6846 3.1024 -12.4053 -0.002 0.688 0.726 125 46 28 0 0
-2.6893 3.1198 -12.4248 -0.009 0.549 0.836 125 45 25 0 0
-2.7045 3.1725 -12.4461 -0.076 0.384 0.920 127 45 24 0 0
-2.9348 3.9497 -12.4934 -0.023 0.522 0.852 137 60 40 0 0
-3.0934 4.5398 -13.2010 -0.113 0.902 0.417 88 51 42 0 0
-3.0981 4.5568 -13.2200 -0.432 0.467 0.772 88 51 42 0 0
-3.0941 4.5834 -13.7092 -0.186 0.410 0.893 70 32 26 0 0
-3.0616 4.5466 -14.6024 -0.707 0.670 0.225 94 63 58 0 0
-3.0141 4.4389 -15.2391 -0.718 0.625 -0.307 105 66 58 0 0
-3.0042 4.4123 -15.3213 -0.691 0.631 -0.353 76 50 46 0 0
-2.9489 4.2520 -15.6335 -0.630 0.709 -0.316 28 24 28 0 0
-2.8908 4.1047 -16.2218 -0.776 0.623 -0.097 85 85 87 0 0
-2.8920 4.1120 -16.2607 -0.668 0.743 -0.052 87 87 89 0 0
-3.2156 5.2558 -16.9668 0.140 -0.389 0.911 194 194 194 0 0
-1.6060 -0.3972 -12.5800 -0.174 -0.484 0.858 124 97 96 0 0
-2.5449 2.7227 -12.3408 -0.155 0.372 0.915 120 47 30 0 0
-2.5443 2.7239 -12.3763 -0.357 0.668 0.653 120 47 30 0 0
-2.7624 3.4574 -12.4236 -0.138 0.360 0.923 125 47 25 0 0
-2.7697 3.4827 -12.4346 -0.138 0.360 0.923 124 46 24 0 0
-2.7937 3.5651 -12.4606 -0.181 0.263 0.948 134 53 32 0 0
-2.9522 4.1004 -12.5238 -0.335 0.252 0.908 141 67 49 0 0
-3.0601 4.4825 -12.7738 -0.306 0.911 0.277 112 53 29 0 0
-3.0664 4.5105 -12.8559 -0.573 0.578 0.581 82 37 28 0 0
-3.0718 4.5299 -12.8717 -0.571 0.688 0.448 80 37 28 0 0
-3.0866 4.6109 -13.2424 -0.443 0.355 0.823 89 52 43 0 0
-3.0945 4.6379 -13.2494 0.056 0.761 0.647 90 53 44 0 0
-3.0540 4.5745 -14.1031 -0.493 0.794 0.356 100 67 59 0 0
-3.0769 4.6532 -14.1292 -0.419 0.861 -0.287 98 64 57 0 0
-2.9838 4.4368 -15.2523 -0.540 0.785 -0.303 98 62 53 0 0
-2.9746 4.4127 -15.3311 -0.540 0.785 -0.303 91 62 56 0 0
-3.1718 5.2169 -17.0433 -0.059 -0.464 0.884 193 193 193 0 0
-2.7446 3.4904 -12.4338 -0.138 0.360 0.923 129 51 29 0 0
-3.0496 4.5441 -12.8631 -0.599 0.590 0.542 81 36 27 0 0
-3.0619 4.6217 -13.2773 -0.516 0.718 0.468 90 53 44 0 0
-3.0592 4.6325 -13.5038 -0.573 0.691 0.442 91 53 44 0 0
-3.0376 4.6200 -14.1812 -0.924 0.383 0.002 96 66 59 0 0
-2.9620 4.4600 -15.2313 -0.540 0.785 -0.303 97 63 56 0 0
-2.9527 4.4360 -15.3099 -0.540 0.785 -0.303 100 68 59 0 0
-2.8830 4.2472 -15.8039 -0.691 0.697 -0.193 27 27 28 0 0
-2.7475 3.5922 -12.4469 -0.204 0.251 0.946 127 46 25 0 0
-2.7770 3.6909 -12.4553 -0.346 0.233 0.909 131 50 29 0 0
-2.8705 4.0076 -12.5274 -0.192 0.675 0.713 139 61 41 0 0
-2.8819 4.0453 -12.5239 -0.266 0.397 0.879 144 67 47 0 0
-3.0334 4.5796 -12.8682 -0.760 0.495 0.421 82 39 31 0 0
-3.0406 4.6330 -13.1931 -0.688 0.715 0.124 88 51 42 0 0
-1.4591 -0.5594 -12.6491 -0.110 -0.446 0.888 182 169 168 0 0
-2.7537 3.7032 -12.4495 -0.346 0.233 0.909 129 48 27 0 0
-2.7740 3.7706 -12.4530 -0.138 0.438 0.888 129 48 27 0 0
-2.8359 3.9760 -12.4573 0.071 0.591 0.803 134 56 34 0 0
-2.8485 4.0232 -12.5179 -0.400 0.738 0.544 139 61 40 0 0
-3.0316 4.6772 -13.0314 -0.798 0.463 0.387 85 48 40 0 0
-3.0133 4.6563 -13.4515 -0.381 0.714 0.588 92 54 45 0 0
-3.0174 4.6717 -13.4729 -0.381 0.714 0.588 92 54 45 0 0
-2.8447 4.3414 -16.0308 -0.645 0.629 0.434 82 82 82 0 0
-1.4356 -0.5320 -12.6338 -0.099 -0.434 0.896 136 115 113 0 0
-2.6987 3.6110 -12.4416 -0.150 0.316 0.937 131 50 29 0 0
-2.7259 3.7024 -12.4576 -0.275 0.268 0.923 130 49 28 0 0
-2.7401 3.7480 -12.4468 -0.053 0.335 0.941 130 49 29 0 0
-2.8069 3.9702 -12.4707 0.261 0.447 0.856 135 57 35 0 0
-2.8102 3.9834 -12.4938 -0.072 0.719 0.691 133 55 33 0 0
-2.9908 4.6062 -12.7767 -0.217 0.681 0.699 101 42 21 0 0
-2.9858 4.5945 -12.8284 -0.381 0.745 0.548 90 42 29 0 0
-3.0076 4.6826 -12.9943 -0.514 0.620 0.592 87 47 40 0 0
-3.0104 4.6943 -13.0192 -0.608 0.631 0.482 86 47 40 0 0
-2.9939 4.6834 -13.4671 -0.694 0.656 0.298 91 54 45 0 0
-2.9979 4.7023 -13.5244 -0.694 0.704 0.148 86 50 42 0 0
-2.9865 4.7154 -14.0442 -0.498 0.863 -0.080 99 69 65 0 0
-2.9843 4.7124 -14.0901 -0.498 0.863 -0.080 99 68 64 0 0
-2.9812 4.7072 -14.1393 -0.528 0.849 -0.012 96 66 60 0 0
-2.9800 4.7073 -14.1816 -0.528 0.849 -0.012 97 67 62 0 0
-2.9785 4.7066 -14.2251 -0.572 0.820 0.003 98 68 63 0 0
-2.9781 4.7091 -14.2646 -0.519 0.855 0.018 98 67 62 0 0
-2.9703 4.6936 -14.3708 -0.631 0.774 -0.051 97 65 60 0 0
-2.9685 4.6921 -14.4160 -0.631 0.774 -0.051 98 66 60 0 0
-2.8795 4.4868 -15.3181 -0.501 0.768 -0.400 93 66 63 0 0
-2.8636 4.4445 -15.4225 -0.577 0.728 -0.371 53 44 45 0 0
-2.8196 4.3576 -16.0191 -0.109 0.283 0.953 81 81 81 0 0
-2.4926 3.0149 -12.3486 -0.241 0.254 0.936 120 45 26 0 0
-2.6259 3.4597 -12.4195 0.066 0.336 0.939 130 49 28 0 0
-2.6807 3.6429 -12.4527 -0.084 0.354 0.932 133 52 31 0 0
-2.6892 3.6716 -12.4599 -0.279 0.384 0.880 131 50 29 0 0
-2.7021 3.7131 -12.4536 -0.275 0.268 0.923 130 49 29 0 0
-2.7817 3.9797 -12.5050 0.019 0.459 0.888 133 55 33 0 0
-2.7899 4.0075 -12.5124 -0.192 0.336 0.922 137 59 37 0 0
-2.9666 4.6806 -13.4390 -0.748 0.391 0.536 93 56 47 0 0
-2.9810 4.7405 -13.5668 -0.406 0.890 0.207 86 48 39 0 0
-2.9295 4.6970 -14.8151 -0.147 0.984 -0.097 99 70 62 0 0
-2.8622 4.5228 -15.2792 -0.544 0.724 -0.425 92 67 63 0 0
-2.8430 4.4715 -15.3960 -0.458 0.783 -0.421 55 44 45 0 0
-2.7798 4.3145 -15.8978 -0.265 0.961 0.075 6 6 8 0 0
-2.7729 4.3073 -16.0530 -0.253 0.965 -0.073 64 64 64 0 0
-2.7896 4.3595 -16.0276 0.059 0.667 0.743 79 79 79 0 0
-2.7964 4.3833 -16.0425 0.135 0.569 0.811 81 81 81 0 0
-2.7875 4.4597 -17.0910 -0.010 -0.337 0.941 152 152 152 0 0
-2.3665 2.6962 -12.3697 0.122 -0.053 0.991 125 52 35 0 0
-2.6651 3.6816 -12.4566 -0.279 0.384 0.880 132 51 30 0 0
-2.6782 3.7238 -12.4496 -0.275 0.268 0.923 132 51 31 0 0
-2.6842 3.7449 -12.4645 -0.376 0.232 0.897 133 52 33 0 0
-2.9672 4.7117 -12.8605 -0.288 0.909 0.302 93 47 35 0 0
-2.9689 4.7235 -12.9234 -0.492 0.781 0.385 93 49 39 0 0
-2.9749 4.7484 -12.9711 -0.563 0.629 0.537 90 50 39 0 0
-2.9759 4.7620 -13.0714 -0.446 0.865 0.228 87 50 41 0 0
-2.9573 4.7519 -13.5614 -0.505 0.853 0.132 92 52 43 0 0
-2.9593 4.8031 -13.9918 0.043 0.999 -0.031 119 82 69 0 0
-2.7459 4.3053 -15.9218 0.511 0.802 0.309 7 7 9 0 0
-2.7491 4.3186 -15.9513 0.511 0.802 0.309 8 8 10 0 0
-2.7649 4.4857 -17.0639 0.220 -0.203 0.954 149 149 149 0 0
-1.2914 -0.6801 -12.6909 -0.043 -0.364 0.930 191 184 183 0 0
-2.3123 2.6132 -12.3819 -0.082 0.154 0.985 121 49 31 0 0
-2.3416 2.7071 -12.3660 -0.021 -0.070 0.997 122 49 32 0 0
-2.8152 4.2688 -12.5405 -0.376 0.125 0.918 135 67 52 0 0
-2.9425 4.7215 -12.8953 -0.150 0.911 0.384 104 57 38 0 0
-2.9459 4.7350 -12.9179 -0.248 0.881 0.404 100 54 38 0 0
-2.9526 4.7617 -12.9634 -0.555 0.596 0.580 92 50 37 0 0
-2.9575 4.7795 -12.9809 -0.269 0.743 0.613 89 49 40 0 0
-2.9324 4.7482 -13.4534 -0.675 0.725 0.138 99 62 53 0 0
-2.9338 4.7597 -13.5199 -0.675 0.725 0.138 100 62 51 0 0
-2.9345 4.7657 -13.5530 -0.424 0.906 -0.012 102 64 54 0 0
-2.9077 4.7554 -14.2755 -0.314 0.949 0.019 112 80 68 0 0
-2.9067 4.7566 -14.3169 -0.314 0.949 0.019 107 75 63 0 0
-2.9057 4.7578 -14.3585 -0.314 0.949 0.019 110 78 66 0 0
-2.8247 4.5854 -15.2143 -0.699 0.612 -0.370 96 68 64 0 0
-1.3884 -0.2729 -12.5684 -0.759 0.382 0.528 106 47 39 0 0
-2.5444 3.4651 -12.4352 -0.242 0.513 0.824 130 52 32 0 0
-2.5559 3.5023 -12.4342 -0.007 0.410 0.912 136 56 35 0 0
-2.5619 3.5234 -12.4496 -0.157 0.531 0.832 126 45 24 0 0
-2.6283 3.7389 -12.4481 -0.321 0.295 0.900 128 47 26 0 0
-2.7860 4.2625 -12.5550 0.012 0.451 0.892 136 69 54 0 0
-2.8663 4.5350 -12.6623 -0.474 0.822 0.317 122 59 41 0 0
-2.9151 4.7200 -12.9051 -0.250 0.911 0.329 112 65 39 0 0
-2.9170 4.7294 -12.9326 -0.250 0.911 0.329 103 57 35 0 0
-2.9224 4.7487 -12.9484 -0.164 0.871 0.464 96 52 37 0 0
-2.9254 4.7609 -12.9725 -0.164 0.871 0.464 93 49 37 0 0
-2.9284 4.7732 -12.9966 -0.164 0.871 0.464 88 46 36 0 0
-2.9313 4.7855 -13.0207 -0.164 0.871 0.464 88 47 38 0 0
-2.9219 4.7659 -13.1224 -0.240 0.893 0.380 88 49 40 0 0
-2.9086 4.7587 -13.4491 -0.458 0.875 0.156 100 61 52 0 0
-2.9091 4.7642 -13.4826 -0.512 0.844 0.160 96 57 49 0 0
-2.9109 4.7732 -13.5118 -0.435 0.900 0.024 95 57 47 0 0
-2.9108 4.7768 -13.5478 -0.424 0.906 -0.012 96 59 48 0 0
-2.8854 4.7687 -14.2247 -0.442 0.897 0.023 88 56 49 0 0
-2.8822 4.7638 -14.2740 -0.314 0.949 0.019 90 57 50 0 0
-2.8812 4.7651 -14.3153 -0.365 0.931 0.007 90 58 50 0 0
-2.8800 4.7659 -14.3574 -0.365 0.931 0.007 90 57 49 0 0
-2.6642 4.2576 -16.1084 0.377 0.925 -0.043 64 64 66 0 0
-2.6601 4.2507 -16.1671 0.484 0.871 0.082 71 71 73 0 0
-2.6610 4.2580 -16.2058 0.590 0.742 0.319 75 75 76 0 0
-2.7612 4.6474 -16.7904 -0.180 0.045 0.983 144 144 143 0 0
-2.8174 4.8425 -16.9042 -0.407 0.259 0.876 161 159 160 0 0
-1.2966 -0.4659 -12.5738 -0.037 -0.304 0.952 111 68 63 0 0
-1.3518 -0.2900 -12.5499 -0.255 0.068 0.965 106 50 41 0 0
-2.5282 3.5026 -12.4409 -0.229 0.443 0.867 135 55 35 0 0
-2.5365 3.5305 -12.4493 -0.157 0.531 0.832 126 45 24 0 0
-2.7604 4.2669 -12.5576 0.012 0.451 0.892 136 69 52 0 0
-2.9008 4.7873 -13.1442 -0.051 0.904 0.426 85 45 38 0 0
-2.8851 4.7702 -13.4436 -0.511 0.847 0.147 94 55 46 0 0
-2.8861 4.7769 -13.4756 -0.512 0.844 0.160 92 54 44 0 0
-2.8880 4.7863 -13.5043 -0.576 0.815 0.068 90 52 41 0 0
-2.8870 4.8242 -13.8668 -0.385 0.922 -0.035 100 67 56 0 0
-2.8853 4.8233 -13.9097 -0.385 0.922 -0.035 96 73 66 0 0
-2.8673 4.7978 -14.1963 -0.702 0.711 -0.038 88 55 50 0 0
-2.8639 4.7965 -14.2837 -0.702 0.711 -0.038 88 55 50 0 0
-2.8604 4.7910 -14.3339 -0.662 0.747 -0.062 89 56 51 0 0
-2.8495 4.7687 -14.4501 -0.445 0.886 -0.133 89 56 51 0 0
-2.8422 4.7569 -14.5533 -0.428 0.897 -0.112 90 58 53 0 0
-2.8176 4.7095 -14.8387 -0.372 0.907 -0.197 88 57 52 0 0
-2.6844 4.3819 -15.7518 0.126 0.977 -0.171 12 11 13 0 0
-2.6758 4.3625 -15.8268 0.020 0.967 -0.254 11 11 13 0 0
-2.6162 4.2104 -16.1864 0.401 0.907 -0.129 40 40 42 0 0
-2.6107 4.1999 -16.2505 0.512 0.857 -0.053 68 68 70 0 0
-2.6057 4.1908 -16.3129 0.546 0.836 -0.052 73 73 75 0 0
-2.4000 3.1747 -12.4095 -0.047 0.183 0.982 124 46 26 0 0
-2.4981 3.4923 -12.4215 -0.279 0.496 0.822 123 45 25 0 0
-2.5022 3.5078 -12.4427 0.123 0.616 0.778 125 46 25 0 0
-2.5118 3.5394 -12.4472 -0.268 0.696 0.666 125 44 23 0 0
-2.5174 3.5593 -12.4639 -0.119 0.560 0.820 125 44 23 0 0
-2.7125 4.1960 -12.5310 -0.528 0.648 0.549 153 82 65 0 0
-2.7406 4.2915 -12.5753 -0.423 0.625 0.656 132 70 52 0 0
-2.8406 4.6304 -12.7198 -0.371 0.471 0.801 131 44 17 0 0
-2.8186 4.7581 -14.4304 -0.364 0.926 -0.106 88 55 50 0 0
-2.7779 4.6936 -15.0058 -0.233 0.966 -0.109 87 56 53 0 0
-2.6418 4.3485 -15.8095 -0.557 0.829 -0.045 26 28 29 0 0
-2.6396 4.3472 -15.8593 -0.557 0.829 -0.045 32 33 35 0 0
-2.5966 4.2424 -16.1525 -0.582 0.770 -0.260 32 31 35 0 0
-2.5630 4.1594 -16.3690 0.546 0.836 -0.052 70 70 72 0 0
-2.5589 4.1531 -16.4278 0.546 0.836 -0.052 74 74 74 0 0
-2.4943 3.5727 -12.4571 -0.169 0.804 0.570 125 45 25 0 0
-2.8323 4.6910 -12.7334 -0.520 0.380 0.765 90 38 17 0 0
-2.7729 4.7244 -14.6165 -0.510 0.860 0.028 89 57 52 0 0
-2.6639 4.4840 -15.5365 -0.630 0.674 -0.386 14 14 18 0 0
-2.5526 4.2123 -16.2557 -0.460 0.811 -0.362 32 31 35 0 0
-1.2394 -0.3354 -12.6041 -0.316 0.572 0.756 108 50 39 0 0
-2.3711 3.2612 -12.4109 -0.170 0.142 0.975 125 47 27 0 0
-2.5346 3.7944 -12.4930 0.043 0.816 0.576 129 48 27 0 0
-2.6717 4.2381 -12.5370 -0.393 0.493 0.776 144 71 54 0 0
-2.8052 4.7651 -13.3552 -0.001 0.866 0.500 80 43 37 0 0
-2.8003 4.7600 -13.4419 -0.001 0.712 0.703 83 46 40 0 0
-2.7466 4.7456 -14.7308 -0.780 0.625 -0.036 86 55 50 0 0
-1.0417 -0.8458 -12.7402 -0.083 -0.453 0.887 208 206 205 0 0
-1.2269 -0.2731 -12.5991 -0.032 0.564 0.825 110 52 41 0 0
-1.2453 -0.2156 -12.5915 0.335 0.542 0.770 110 52 41 0 0
-2.0541 2.3324 -12.3537 -0.423 -0.127 0.897 119 51 32 0 0
-2.4899 3.7340 -12.4521 0.004 0.450 0.893 131 53 31 0 0
-2.4971 3.7584 -12.4637 -0.028 0.595 0.803 136 56 35 0 0
-2.5047 3.7840 -12.4740 -0.147 0.736 0.661 128 47 26 0 0
-2.5077 3.7965 -12.4980 0.043 0.816 0.576 129 48 27 0 0
-2.5154 3.8223 -12.5080 -0.040 0.815 0.578 129 48 27 0 0
-2.6434 4.2310 -12.5149 -0.161 0.817 0.554 154 78 60 0 0
-2.7537 4.6012 -12.6631 -0.231 0.493 0.839 126 45 24 0 0
-2.8006 4.7650 -12.7771 -0.420 0.573 0.704 36 8 5 0 0
-2.7843 4.7408 -12.9986 -0.518 0.558 0.648 81 22 10 0 0
-2.7890 4.7579 -13.0170 -0.518 0.558 0.648 78 24 12 0 0
-2.7936 4.7750 -13.0355 -0.518 0.558 0.648 73 26 17 0 0
-2.7674 4.7456 -13.4683 -0.223 0.430 0.875 81 44 38 0 0
-2.7856 4.8090 -13.5109 -0.172 0.953 0.249 83 46 40 0 0
-2.7958 4.8768 -13.7944 -0.423 0.655 0.627 60 17 10 0 0
-2.7708 4.8539 -14.2464 -0.509 0.860 -0.031 91 58 53 0 0
-2.7274 4.7728 -14.7041 -0.742 0.668 -0.064 87 56 51 0 0
-2.7142 4.8650 -15.7778 -0.110 0.956 0.272 89 83 81 0 0
-2.7151 4.8774 -15.8562 0.416 0.894 0.164 95 89 87 0 0
-1.1999 -0.2578 -12.5930 0.199 0.805 0.559 110 52 41 0 0
-2.4168 3.5858 -12.4279 -0.504 0.779 0.372 129 51 31 0 0
-2.4225 3.6060 -12.4441 -0.517 0.473 0.713 129 51 31 0 0
-2.5417 3.9855 -12.4532 -0.181 0.358 0.916 130 51 29 0 0
-2.5465 4.0032 -12.4715 -0.112 0.462 0.880 127 49 28 0 0
-2.6211 4.2447 -12.5074 -0.549 0.529 0.648 146 73 52 0 0
-2.7522 4.8758 -14.1841 0.199 0.974 0.105 91 58 53 0 0
-2.7448 4.8604 -14.2474 -0.225 0.962 0.157 91 58 53 0 0
-2.7454 4.8668 -14.2819 -0.209 0.943 0.259 89 56 51 0 0
-2.7076 4.7882 -14.6048 -0.875 0.137 0.465 89 58 53 0 0
-2.6867 4.8722 -15.7786 0.055 0.963 0.265 88 64 61 0 0
-2.6871 4.9420 -16.3139 -0.126 0.915 0.384 126 125 123 0 0
-2.6661 4.9132 -16.6115 -0.886 0.458 -0.073 136 135 133 0 0
-0.9489 -0.9262 -12.7758 -0.074 -0.441 0.895 209 208 210 0 0
-1.1810 -0.2191 -12.5683 -0.491 0.757 0.431 110 52 41 0 0
-1.9010 2.0348 -12.3818 0.145 0.316 0.938 115 46 30 0 0
-2.2108 3.0105 -12.3477 -0.368 -0.026 0.929 120 48 30 0 0
-2.2894 3.2650 -12.3910 -0.139 0.219 0.966 125 48 29 0 0
-2.2987 3.2952 -12.3977 -0.167 0.168 0.971 125 47 27 0 0
-2.3946 3.6015 -12.4188 -0.339 0.696 0.633 127 49 28 0 0
