ply
format ascii 1.0
element vertex 824
property float x
property float y
property float z
property float nx
property float ny
property float nz
property uchar diffuse_red
property uchar diffuse_green
property uchar diffuse_blue
property uchar class
property uchar detection
end_header
1.5410 -2.3024 -14.6892 -0.394 -0.868 0.303 100 56 28 0 0
1.5378 -2.3109 -14.7251 -0.395 -0.886 0.243 100 53 25 0 0
1.5347 -2.3194 -14.7611 -0.395 -0.886 0.243 91 40 18 0 0
1.5509 -2.3419 -15.0705 -0.328 -0.703 0.631 78 30 16 0 0
1.5418 -2.3561 -15.0989 -0.495 -0.789 0.365 64 25 14 0 0
1.3493 -2.6350 -15.5260 -0.414 0.692 0.591 7 6 5 0 0
1.3020 -2.6857 -15.4969 -0.505 0.643 0.576 10 8 8 0 0
1.2771 -2.7150 -15.5014 -0.577 0.618 0.534 19 9 9 0 0
1.2483 -2.7480 -15.4998 -0.632 0.644 0.430 30 13 11 0 0
1.2366 -2.7648 -15.5244 -0.815 0.503 0.289 41 18 13 0 0
2.1812 -1.3772 -13.6426 -0.665 -0.744 0.064 166 100 72 0 0
2.1821 -1.3814 -13.6820 -0.665 -0.744 0.064 140 86 70 0 0
1.9016 -1.7196 -13.7890 -0.516 -0.529 0.674 126 50 30 0 0
1.5132 -2.2236 -14.2076 -0.348 -0.925 0.151 70 12 1 0 0
1.5224 -2.3261 -15.0664 -0.409 -0.734 0.543 82 38 21 0 0
1.5151 -2.3386 -15.0972 -0.495 -0.789 0.365 72 31 17 0 0
1.3921 -2.5453 -15.5869 -0.579 0.651 0.491 6 4 5 0 0
0.7953 -3.2814 -15.9392 -0.895 -0.415 0.164 106 102 100 0 0
0.7428 -3.3709 -16.1582 -0.927 -0.373 -0.042 112 108 108 0 0
0.7166 -3.4598 -16.6034 0.492 0.145 0.859 171 170 170 0 0
2.1755 -1.3392 -13.6670 -0.625 -0.632 0.459 170 108 78 0 0
2.1371 -1.3875 -13.6959 -0.192 -0.551 0.812 133 72 59 0 0
1.8789 -1.6990 -13.7920 -0.442 -0.597 0.670 125 50 28 0 0
1.5215 -2.1422 -14.0183 -0.446 -0.468 0.763 88 17 1 0 0
1.4906 -2.1980 -14.1716 -0.236 -0.754 0.613 96 29 11 0 0
0.7629 -3.2811 -16.0146 -0.952 -0.291 -0.095 106 105 103 0 0
1.5683 -2.2381 -15.5445 -0.386 -0.922 0.033 4 3 1 0 0
1.4662 -2.3700 -15.6485 0.106 -0.151 0.983 7 5 6 0 0
1.4769 -2.3652 -15.7075 0.472 -0.317 0.823 6 4 5 0 0
0.8431 -3.2203 -16.6352 -0.669 0.280 0.689 143 140 141 0 0
1.4213 -2.1812 -14.1449 -0.001 -0.887 0.463 103 32 11 0 0
1.2142 -2.6192 -15.6900 -0.360 0.272 0.892 17 15 15 0 0
1.1931 -2.6451 -15.7002 -0.356 -0.040 0.934 18 17 15 0 0
1.1386 -2.7196 -15.7878 -0.721 -0.433 0.542 26 19 19 0 0
0.7346 -3.3259 -16.8588 0.396 -0.387 0.833 185 183 186 0 0
1.6623 -1.8150 -13.8396 -0.314 -0.484 0.817 142 60 30 0 0
1.2606 -2.5142 -15.6723 0.010 -0.551 0.835 12 8 9 0 0
1.7936 -1.6109 -13.8115 -0.635 -0.444 0.633 125 45 21 0 0
1.3646 -2.1472 -14.0959 -0.343 -0.898 0.274 94 16 1 0 0
1.4048 -2.2546 -15.3327 0.179 -0.923 0.340 16 5 6 0 0
0.9721 -2.9148 -16.5755 -0.167 -0.629 0.759 121 119 120 0 0
0.9410 -2.9730 -16.7510 0.035 -0.320 0.947 138 136 137 0 0
0.8976 -3.0260 -16.7691 -0.001 -0.093 0.996 146 144 147 0 0
0.6233 -3.3502 -16.8016 0.242 -0.214 0.946 191 191 191 0 0
1.3494 -2.1148 -14.0699 -0.232 -0.918 0.321 102 23 1 0 0
1.3365 -2.1325 -14.0914 -0.493 -0.863 0.107 95 18 1 0 0
1.3387 -2.2193 -14.8160 -0.369 -0.908 0.197 87 39 16 0 0
0.9246 -2.9501 -16.8136 -0.056 -0.106 0.993 146 144 146 0 0
0.9081 -2.9717 -16.8315 0.107 0.125 0.986 150 148 151 0 0
0.5606 -3.3665 -16.7375 0.097 0.053 0.994 191 191 191 0 0
1.3178 -2.1035 -14.0606 -0.232 -0.918 0.321 106 27 3 0 0
1.3093 -2.1555 -14.4052 -0.663 -0.444 0.603 92 38 17 0 0
1.4439 -2.1430 -15.5962 -0.364 -0.931 0.033 6 4 5 0 0
1.0340 -2.6678 -15.9596 -0.720 -0.564 -0.403 45 41 37 0 0
1.2010 -2.5539 -16.6312 0.522 -0.074 0.849 100 100 102 0 0
1.6917 -1.5878 -13.8157 -0.605 -0.351 0.715 132 44 18 0 0
1.2863 -2.0923 -14.0513 -0.232 -0.918 0.321 109 29 6 0 0
0.8906 -2.8883 -16.7993 -0.262 -0.597 0.758 146 144 146 0 0
0.8757 -2.9083 -16.8201 -0.262 -0.597 0.758 150 148 150 0 0
1.2449 -2.0959 -14.0675 -0.789 -0.437 0.432 101 24 2 0 0
1.2763 -2.1020 -14.4293 -0.264 -0.453 0.852 90 35 14 0 0
1.3564 -2.1403 -15.5431 -0.247 -0.873 0.420 4 2 3 0 0
0.9587 -2.7442 -16.6833 -0.816 -0.505 0.281 123 123 123 0 0
0.9636 -2.7449 -16.7373 -0.831 -0.496 0.252 128 126 127 0 0
0.9517 -2.7619 -16.7634 -0.773 -0.604 0.197 132 130 131 0 0
0.7093 -3.0528 -16.8101 -0.293 -0.826 0.482 176 176 176 0 0
-2.4149 -6.7177 -16.7068 -0.888 0.164 0.430 218 218 218 0 0
1.2277 -2.0702 -14.0780 -0.808 -0.391 0.442 106 30 5 0 0
0.9079 -2.6390 -15.7075 -0.261 -0.445 0.856 12 11 13 0 0
0.9284 -2.7397 -16.7686 -0.820 -0.398 0.412 133 131 132 0 0
0.6661 -3.0505 -16.7805 -0.099 -0.839 0.535 178 177 177 0 0
0.6598 -3.0621 -16.8157 -0.175 -0.574 0.800 180 180 182 0 0
1.1896 -2.0612 -14.0202 -0.562 -0.604 0.564 109 29 6 0 0
1.2028 -2.0523 -14.0779 -0.724 -0.506 0.468 105 29 3 0 0
1.1939 -2.1218 -14.5854 -0.424 -0.897 0.122 88 43 28 0 0
1.2456 -2.1419 -15.2836 -0.360 -0.932 0.038 30 10 6 0 0
1.1491 -2.2935 -15.6071 0.181 -0.907 0.380 15 13 16 0 0
0.8075 -2.8403 -16.8387 0.633 -0.089 0.769 156 154 157 0 0
0.6436 -3.0226 -16.7408 -0.099 -0.839 0.535 176 174 176 0 0
0.4961 -3.1938 -16.7133 0.450 -0.158 0.879 190 190 192 0 0
2.3034 -0.6637 -13.7481 -0.096 -0.325 0.941 148 86 55 0 0
1.1803 -2.0320 -14.0811 -0.746 -0.401 0.531 104 27 3 0 0
1.1944 -2.1490 -15.2453 -0.244 -0.958 0.152 33 10 6 0 0
1.1212 -2.2818 -15.6471 0.116 -0.271 0.955 15 13 16 0 0
0.6268 -2.9893 -16.7109 0.109 -0.836 0.538 172 172 172 0 0
0.6097 -3.0114 -16.7273 -0.021 -0.788 0.615 176 176 178 0 0
0.4582 -3.1868 -16.6923 0.505 0.106 0.857 190 190 192 0 0
2.2976 -0.6149 -13.6946 -0.419 -0.379 0.825 119 60 43 0 0
2.2808 -0.6369 -13.7130 -0.293 -0.585 0.756 118 64 44 0 0
1.1491 -2.0162 -14.0326 0.317 -0.620 0.718 106 29 6 0 0
1.1692 -2.0000 -14.1002 -0.256 -0.433 0.864 103 26 1 0 0
1.1620 -2.1371 -15.2353 -0.326 -0.945 0.041 36 12 8 0 0
0.5439 -3.0370 -16.7040 0.233 -0.527 0.817 179 180 182 0 0
0.3671 -3.2376 -16.6229 -0.097 0.339 0.936 192 192 194 0 0
1.1870 -1.9114 -13.9233 -0.349 -0.607 0.714 111 35 12 0 0
1.1396 -1.9824 -14.0540 -0.197 -0.883 0.426 106 31 7 0 0
1.0728 -2.0521 -14.3933 -0.347 -0.882 0.320 93 44 21 0 0
2.1928 -0.5954 -13.7396 -0.304 -0.166 0.938 154 90 61 0 0
1.0755 -1.9573 -13.9940 -0.585 -0.536 0.609 94 23 4 0 0
0.7576 -2.5337 -15.8006 -0.867 -0.461 -0.189 22 21 19 0 0
0.7841 -2.5115 -15.8877 -0.830 -0.466 -0.307 24 23 21 0 0
1.1305 -2.1944 -16.7735 0.209 0.510 0.834 64 59 56 0 0
0.6905 -2.7246 -16.8183 0.639 -0.405 0.654 154 156 155 0 0
0.7357 -2.5159 -15.8509 -0.840 -0.513 -0.174 23 22 20 0 0
0.9939 -2.2669 -16.4080 -0.269 -0.851 -0.450 36 31 31 0 0
1.0497 -2.2148 -16.5458 -0.341 -0.830 -0.442 42 36 35 0 0
0.6369 -2.7330 -16.7709 0.489 -0.756 0.435 154 156 155 0 0
1.7969 -0.9698 -13.7346 -0.257 0.185 0.949 136 87 69 0 0
0.9776 -2.0622 -14.7729 -0.467 -0.857 0.220 71 23 6 0 0
1.0900 -2.0037 -15.4935 -0.927 -0.027 0.375 2 3 4 0 0
1.4682 -1.3231 -13.8075 -0.515 -0.557 0.652 129 49 25 0 0
1.1813 -1.6642 -13.7724 -0.754 -0.407 0.516 140 64 40 0 0
0.6676 -2.5003 -15.8678 -0.369 -0.921 -0.123 23 22 21 0 0
0.7435 -2.4269 -16.0371 0.007 -0.976 -0.217 28 26 24 0 0
0.5157 -2.7648 -16.6511 -0.147 -0.981 -0.124 155 157 156 0 0
1.4440 -1.3038 -13.8088 -0.416 -0.586 0.695 127 47 23 0 0
1.1660 -1.6360 -13.7855 -0.105 -0.717 0.689 145 68 44 0 0
0.6887 -2.4379 -15.9894 0.007 -0.976 -0.217 27 25 23 0 0
0.9300 -1.9111 -14.1618 -0.022 -0.683 0.730 108 35 10 0 0
0.6806 -2.3602 -15.6211 -0.392 0.069 0.917 27 27 29 0 0
0.6561 -2.3901 -15.6252 -0.290 -0.121 0.949 35 35 35 0 0
0.5948 -2.4673 -15.6565 -0.126 -0.666 0.735 15 15 15 0 0
0.5839 -2.4831 -15.6824 -0.309 -0.729 0.610 22 22 22 0 0
0.5928 -2.4872 -15.8292 -0.333 -0.941 0.061 27 26 25 0 0
0.5903 -2.4944 -15.8694 -0.381 -0.925 -0.014 26 24 22 0 0
2.1076 -0.3901 -13.6701 -0.004 -0.388 0.921 128 65 51 0 0
1.7407 -0.8383 -13.7153 0.200 -0.678 0.707 158 86 58 0 0
1.7223 -0.8620 -13.7309 0.113 -0.855 0.506 141 88 66 0 0
1.7110 -0.8782 -13.7556 0.113 -0.855 0.506 142 94 78 0 0
0.5626 -2.4778 -15.8661 -0.628 -0.778 -0.028 29 26 24 0 0
2.0771 -0.3762 -13.6644 -0.004 -0.388 0.921 123 58 46 0 0
0.8486 -1.9209 -14.2363 -0.158 -0.707 0.690 113 74 63 0 0
0.5363 -2.4467 -15.7323 -0.536 -0.477 0.696 19 17 18 0 0
0.5363 -2.4598 -15.8651 -0.503 -0.860 -0.092 33 28 27 0 0
0.6407 -2.3549 -16.0839 -0.327 -0.800 -0.503 31 26 23 0 0
2.4285 0.0746 -13.9351 -0.512 -0.836 0.197 117 74 66 0 0
2.0427 -0.3665 -13.6538 -0.098 -0.413 0.905 122 58 46 0 0
1.3490 -1.2207 -13.7769 -0.071 -0.049 0.996 136 64 41 0 0
0.8263 -1.8962 -14.1998 -0.482 -0.736 0.475 89 42 27 0 0
0.8185 -1.9085 -14.2286 -0.612 -0.362 0.704 103 62 51 0 0
0.8163 -1.9148 -14.2658 -0.475 -0.855 0.208 90 39 21 0 0
0.8187 -1.9845 -15.0137 -0.732 -0.640 0.236 114 60 28 0 0
0.8648 -1.9815 -15.5587 0.286 -0.941 0.178 5 5 5 0 0
0.5128 -2.4259 -15.7358 -0.496 -0.344 0.798 25 23 25 0 0
2.4141 0.1074 -13.9503 -0.660 -0.750 0.037 117 71 61 0 0
2.1315 -0.2104 -13.6790 -0.013 -0.126 0.992 122 61 48 0 0
0.6398 -2.2078 -15.5900 -0.395 -0.494 0.775 22 22 24 0 0
2.3904 0.1340 -13.9137 -0.719 -0.694 0.032 126 94 88 0 0
2.1040 -0.1930 -13.6771 -0.013 -0.126 0.992 121 63 50 0 0
1.9560 -0.3707 -13.6494 -0.152 -0.442 0.884 121 57 45 0 0
0.7594 -1.8637 -14.0142 -0.128 -0.351 0.928 109 26 5 0 0
0.8511 -1.8989 -15.5754 0.174 -0.431 0.885 3 3 3 0 0
0.4469 -2.3879 -15.5355 -0.663 -0.535 0.524 26 26 28 0 0
0.1097 -2.9280 -16.9067 0.190 -0.801 0.567 199 199 201 0 0
0.0801 -2.9678 -16.9469 0.223 -0.740 0.635 200 200 202 0 0
1.9498 -0.3302 -13.6743 -0.497 -0.677 0.542 120 56 45 0 0
1.4385 -0.9518 -13.6434 -0.472 -0.295 0.830 126 54 34 0 0
0.3103 -2.5962 -16.5180 0.041 0.657 0.753 133 133 133 0 0
0.0482 -2.9508 -16.8883 0.531 -0.552 0.643 199 199 201 0 0
1.9239 -0.3112 -13.6744 -0.497 -0.677 0.542 121 59 47 0 0
1.1074 -1.3169 -13.7423 -0.167 -0.677 0.716 133 47 21 0 0
0.9770 -1.4816 -13.7985 -0.447 -0.466 0.764 141 63 38 0 0
0.6968 -1.9171 -14.8136 -0.565 -0.824 -0.030 95 45 27 0 0
0.4036 -2.3389 -15.5041 -0.494 -0.347 0.797 26 26 28 0 0
0.3282 -2.3980 -15.6851 -0.102 -0.691 0.715 24 23 20 0 0
0.3019 -2.4302 -15.6852 -0.033 -0.285 0.958 22 19 17 0 0
0.4910 -2.2804 -16.6018 -0.416 0.604 0.680 80 76 73 0 0
2.0217 -0.0887 -13.6652 0.097 -0.043 0.994 128 70 62 0 0
1.9049 -0.2331 -13.6766 -0.601 -0.050 0.797 121 57 44 0 0
1.7790 -0.3877 -13.6744 -0.126 -0.563 0.817 166 92 48 0 0
0.7046 -1.8583 -15.3761 -0.776 -0.231 0.587 11 7 5 0 0
0.3041 -2.3781 -15.6874 -0.419 -0.508 0.753 20 19 17 0 0
0.2900 -2.3971 -15.7081 -0.419 -0.508 0.753 20 19 17 0 0
1.8477 -0.2562 -13.7162 -0.489 -0.095 0.867 110 52 41 0 0
0.7037 -1.6857 -13.9525 -0.292 -0.395 0.871 118 35 11 0 0
0.6375 -1.8187 -14.5462 -0.186 -0.887 0.422 94 47 31 0 0
0.2841 -2.3536 -15.6967 -0.691 -0.322 0.647 20 19 17 0 0
0.2529 -2.3952 -15.7328 -0.631 -0.485 0.606 22 20 18 0 0
0.2403 -2.4126 -15.7561 -0.443 -0.300 0.845 27 22 21 0 0
1.8037 -0.2609 -13.7330 -0.417 -0.233 0.879 104 47 36 0 0
0.5357 -1.8541 -14.0631 -0.363 -0.309 0.879 112 50 27 0 0
0.5961 -1.8326 -14.6881 -0.641 -0.650 0.408 96 51 33 0 0
0.5977 -1.8452 -14.8589 -0.720 -0.689 -0.085 93 46 32 0 0
0.5953 -1.8588 -14.9825 -0.561 -0.826 -0.046 66 20 9 0 0
0.6015 -1.8555 -15.0351 -0.430 -0.872 0.235 55 13 7 0 0
0.6052 -1.8551 -15.0836 -0.024 -0.981 0.194 51 13 8 0 0
0.6840 -1.8018 -15.6017 -0.314 -0.372 0.873 7 5 8 0 0
0.2499 -2.3446 -15.6820 -0.577 -0.370 0.729 20 19 17 0 0
0.2272 -2.3768 -15.7326 -0.657 -0.541 0.525 22 19 18 0 0
0.5486 -1.8322 -14.5702 -0.184 -0.954 0.235 95 48 31 0 0
0.5453 -1.8394 -14.6067 -0.121 -0.870 0.479 96 50 32 0 0
0.5645 -1.8216 -14.6781 -0.207 -0.835 0.510 97 51 32 0 0
0.5760 -1.8407 -15.0779 -0.053 -0.382 0.923 53 15 7 0 0
0.6585 -1.7825 -15.6024 -0.330 -0.480 0.813 7 6 8 0 0
0.2034 -2.3565 -15.7356 -0.498 -0.548 0.672 24 20 19 0 0
0.0026 -2.6826 -16.6660 -0.552 -0.013 0.834 183 183 185 0 0
0.5436 -1.7580 -14.1889 -0.616 -0.764 0.192 97 47 33 0 0
0.5797 -1.7758 -14.9525 -0.873 -0.467 -0.139 78 29 14 0 0
0.5640 -1.8038 -15.0561 -0.558 0.068 0.827 60 17 8 0 0
0.5437 -1.8298 -15.0671 -0.238 -0.347 0.907 55 17 8 0 0
0.5422 -1.8350 -15.1076 -0.711 -0.315 0.629 48 14 8 0 0
-0.0393 -2.6849 -16.6840 -0.692 -0.051 0.720 186 187 189 0 0
-0.0468 -2.6970 -16.7176 -0.782 0.027 0.623 189 190 192 0 0
-0.0647 -2.6693 -16.7327 0.091 -0.749 0.657 188 189 191 0 0
0.5228 -1.7627 -15.1581 -0.377 -0.563 0.735 52 14 9 0 0
0.4773 -1.8205 -15.1718 -0.855 -0.348 0.384 35 8 6 0 0
0.1140 -2.2546 -15.5784 -0.363 -0.534 0.763 26 24 29 0 0
0.0667 -2.3212 -15.6756 -0.217 -0.608 0.764 44 44 42 0 0
0.2845 -1.9420 -15.5974 0.442 -0.388 0.809 17 17 19 0 0
0.3515 -1.8119 -15.6636 0.403 -0.761 0.509 11 11 13 0 0
0.0705 -2.1657 -15.6796 0.058 -0.649 0.758 48 47 50 0 0
0.5056 -1.4387 -13.8633 0.097 -0.745 0.660 154 74 37 0 0
0.3523 -1.7342 -15.3076 -0.246 -0.958 0.145 3 2 5 0 0
0.2705 -1.8590 -15.6157 0.067 -0.113 0.991 10 10 12 0 0
0.1584 -1.9961 -15.5603 0.076 0.064 0.995 17 17 19 0 0
0.0404 -2.1524 -15.6717 -0.032 -0.551 0.834 44 43 45 0 0
-0.0744 -2.2954 -15.6517 -0.688 -0.527 0.500 29 28 26 0 0
0.4613 -1.4434 -13.8344 0.263 -0.799 0.541 156 77 48 0 0
0.4679 -1.4386 -13.8844 -0.229 -0.847 0.479 145 59 26 0 0
0.3290 -1.6360 -14.2048 -0.617 -0.571 0.542 91 38 19 0 0
0.2936 -1.7174 -14.7349 -0.471 -0.879 0.080 53 38 32 0 0
0.3193 -1.7240 -15.2956 -0.246 -0.958 0.145 13 7 7 0 0
1.5194 -0.0512 -13.7348 0.220 -0.731 0.646 127 59 40 0 0
0.2685 -1.7020 -14.7776 -0.639 -0.767 0.049 42 34 35 0 0
0.2718 -1.7011 -14.8256 -0.671 -0.738 -0.062 38 30 34 0 0
0.3372 -1.6675 -15.5453 -0.158 -0.325 0.932 6 6 8 0 0
0.2879 -1.5874 -14.1766 -0.057 -0.447 0.893 110 44 20 0 0
0.2584 -1.6272 -14.2136 -0.360 -0.773 0.522 80 27 15 0 0
0.2478 -1.6786 -14.7848 -0.736 -0.676 -0.033 42 33 34 0 0
0.2620 -1.6851 -15.1538 -0.301 -0.927 0.224 11 10 12 0 0
0.2579 -1.6927 -15.1909 -0.301 -0.927 0.224 13 13 14 0 0
0.3037 -1.6457 -15.3544 -0.937 -0.333 0.104 4 4 6 0 0
0.3212 -1.6373 -15.5618 -0.019 -0.786 0.618 6 6 8 0 0
-0.0424 -2.1131 -15.7969 -0.396 -0.230 0.889 27 26 24 0 0
0.4991 -1.2456 -13.7976 0.053 -0.475 0.878 146 66 35 0 0
0.2219 -1.6611 -14.7836 -0.685 -0.727 -0.042 42 35 36 0 0
0.2191 -1.6897 -15.1690 -0.518 -0.845 0.137 9 9 11 0 0
0.2170 -1.6949 -15.2094 -0.518 -0.845 0.137 6 6 8 0 0
0.4588 -1.2459 -13.7749 0.207 -0.636 0.743 149 70 40 0 0
0.3144 -1.4313 -13.8027 -0.039 -0.865 -0.500 161 98 78 0 0
0.1935 -1.6093 -14.1897 -0.343 -0.730 0.591 80 28 13 0 0
0.3743 -1.4436 -15.2013 -0.700 -0.701 -0.137 12 9 11 0 0
0.1558 -1.7180 -15.1503 -0.379 -0.826 0.417 5 5 7 0 0
0.2209 -1.6647 -15.6152 -0.128 -0.159 0.979 14 14 16 0 0
0.2002 -1.6917 -15.6253 -0.199 -0.070 0.977 15 15 17 0 0
-0.0697 -2.0339 -15.6120 -0.307 -0.351 0.885 38 37 40 0 0
0.7387 -0.8348 -13.6918 -0.114 -0.557 0.823 135 52 31 0 0
0.7306 -0.8470 -13.7204 -0.488 -0.540 0.686 125 42 20 0 0
0.1665 -1.5941 -14.1862 -0.752 -0.526 0.397 82 31 15 0 0
0.1621 -1.6543 -15.0714 -0.211 -0.975 0.076 10 8 9 0 0
-0.3779 -2.4385 -16.6341 -0.222 0.053 0.974 179 180 182 0 0
0.7078 -0.8260 -13.7237 -0.532 -0.326 0.781 127 42 21 0 0
0.1361 -1.5854 -14.2187 -0.500 -0.741 0.447 93 44 31 0 0
0.1653 -1.5737 -14.6430 0.207 -0.543 0.814 113 53 41 0 0
0.1615 -1.5807 -14.6796 -0.079 -0.985 0.151 108 51 40 0 0
0.1622 -1.5825 -14.7234 -0.327 -0.802 0.501 113 53 35 0 0
-0.1703 -2.0713 -15.7975 0.310 -0.842 0.441 33 30 27 0 0
-0.2111 -2.1218 -15.7702 0.439 -0.733 0.519 33 30 26 0 0
0.1517 -1.7209 -16.8042 0.530 0.241 0.813 74 70 69 0 0
0.6215 -0.8857 -13.7166 -0.026 -0.506 0.862 131 47 25 0 0
0.1088 -1.5705 -14.2146 -0.238 -0.819 0.521 93 43 30 0 0
0.0846 -1.6516 -15.0709 -0.265 -0.392 0.881 6 6 7 0 0
0.0806 -1.6875 -15.5986 0.175 -0.855 0.489 21 21 23 0 0
-0.2515 -2.1208 -15.7435 0.376 -0.719 0.584 34 32 29 0 0
-0.4413 -2.4143 -16.6120 0.148 -0.196 0.969 178 179 181 0 0
2.1755 1.1328 -14.1311 0.268 0.293 0.918 213 214 216 0 0
0.0460 -1.5863 -13.9493 -0.634 -0.654 0.413 100 23 4 0 0
1.4773 0.3166 -13.6712 -0.612 -0.694 0.379 130 67 52 0 0
0.9899 -0.3111 -13.7017 -0.545 -0.448 0.709 122 52 34 0 0
0.9727 -0.3341 -13.7184 -0.423 -0.141 0.895 121 49 30 0 0
0.0438 -1.5218 -13.6194 -0.442 -0.890 -0.113 159 91 74 0 0
-0.2705 -2.0436 -15.7551 -0.303 -0.630 0.715 39 39 39 0 0
0.0442 -1.5279 -14.6523 -0.423 -0.901 0.094 102 50 35 0 0
-0.3092 -2.0432 -15.7773 -0.251 -0.792 0.556 43 43 44 0 0
1.7885 0.8159 -13.8203 -0.754 -0.656 -0.045 161 145 145 0 0
0.0017 -1.5285 -14.5812 -0.389 -0.672 0.630 103 50 38 0 0
0.0169 -1.5124 -14.6487 -0.435 -0.898 0.070 101 50 36 0 0
1.7988 0.8787 -13.9099 -0.735 -0.134 0.665 124 78 69 0 0
1.4588 0.4514 -13.6693 -0.579 -0.092 0.810 120 55 43 0 0
-0.0268 -1.5146 -14.5754 -0.182 -0.861 0.475 99 47 34 0 0
-0.3146 -1.9375 -15.5846 -0.083 -0.807 0.585 26 26 28 0 0
-0.3381 -1.9703 -15.6337 -0.419 -0.842 0.340 30 30 32 0 0
0.4524 -0.8001 -13.6887 -0.226 -0.354 0.908 136 50 28 0 0
0.2807 -1.0239 -13.7195 -0.057 -0.234 0.971 140 54 28 0 0
-0.0679 -1.4954 -14.1278 0.356 -0.754 0.551 101 52 38 0 0
-0.0574 -1.5032 -14.5664 -0.182 -0.861 0.475 100 51 36 0 0
-0.3855 -1.9896 -15.8242 -0.543 -0.747 0.384 54 52 50 0 0
-0.1160 -1.6859 -16.7528 0.155 0.253 0.955 94 93 91 0 0
1.7744 0.9562 -13.9068 -0.489 -0.054 0.870 120 86 83 0 0
1.4588 0.5564 -13.6980 -0.553 -0.473 0.686 112 54 43 0 0
1.1935 0.2154 -13.6287 -0.017 -0.229 0.973 105 50 40 0 0
-0.0761 -1.4574 -14.1540 -0.124 -0.074 0.989 102 52 37 0 0
-0.0835 -1.4725 -14.2676 -0.561 -0.790 0.248 108 58 37 0 0
-0.0924 -1.4973 -14.5500 0.157 -0.868 0.471 100 50 35 0 0
-0.0369 -1.4735 -15.5715 -0.405 -0.410 0.817 3 3 5 0 0
-0.3913 -1.9320 -15.5380 -0.591 -0.505 0.629 28 28 30 0 0
-0.1765 -1.7097 -16.7382 0.106 0.299 0.948 101 98 97 0 0
-0.5808 -2.2348 -16.7437 0.755 -0.449 0.477 179 179 181 0 0
0.2874 -0.9132 -13.6813 -0.114 -0.108 0.988 112 42 26 0 0
-0.0953 -1.4386 -14.2885 -0.483 -0.864 -0.141 105 56 36 0 0
-0.1099 -1.4681 -14.5194 -0.071 -0.767 0.637 115 54 40 0 0
-0.1290 -1.4936 -14.5308 0.157 -0.868 0.471 99 48 34 0 0
-0.1263 -1.4921 -14.5782 -0.186 -0.981 0.058 101 48 36 0 0
0.0372 -1.3222 -15.5162 -0.540 -0.214 0.814 6 6 8 0 0
-0.0789 -1.4766 -15.5891 -0.347 -0.569 0.745 2 2 4 0 0
-0.4145 -1.9110 -15.5419 -0.565 -0.502 0.655 25 25 27 0 0
-0.4254 -1.9368 -15.7984 -0.713 -0.568 0.410 45 44 46 0 0
0.2175 -0.9546 -13.6952 -0.089 -0.257 0.962 107 39 23 0 0
0.1978 -0.9807 -13.7063 -0.037 -0.480 0.876 108 39 24 0 0
-0.1302 -1.4424 -14.4842 -0.099 -0.775 0.625 116 60 39 0 0
-0.1462 -1.4641 -14.5007 0.186 -0.646 0.740 116 55 42 0 0
-0.1333 -1.4501 -14.5647 -0.031 -0.988 0.149 102 50 38 0 0
-0.1418 -1.4624 -14.5937 -0.436 -0.887 0.152 101 48 36 0 0
0.0094 -1.3057 -15.5130 -0.898 -0.361 0.252 6 6 8 0 0
0.0154 -1.3043 -15.6608 -0.464 -0.349 0.814 2 2 4 0 0
1.5566 0.8455 -13.6853 -0.548 -0.187 0.816 112 75 70 0 0
0.0033 -1.1839 -13.6931 0.135 -0.578 0.805 112 43 23 0 0
-0.1441 -1.4035 -14.3320 -0.606 -0.784 -0.135 106 56 36 0 0
-0.1637 -1.4349 -14.4702 -0.159 -0.568 0.808 119 61 39 0 0
-0.1720 -1.4470 -14.4993 -0.141 -0.494 0.858 119 56 44 0 0
-0.1642 -1.4392 -14.5551 -0.525 -0.761 0.381 104 50 39 0 0
-0.0843 -1.3800 -15.6244 -0.507 -0.219 0.833 2 2 4 0 0
-0.0860 -1.3841 -15.6674 -0.774 -0.403 0.489 2 2 4 0 0
-0.0938 -1.3957 -15.6998 -0.819 -0.373 0.436 2 2 3 0 0
-0.4927 -1.9686 -16.9246 -0.105 0.523 0.846 167 165 166 0 0
-0.0083 -1.1484 -13.6721 -0.081 -0.301 0.950 103 36 20 0 0
-0.1598 -1.3777 -14.4318 -0.305 -0.578 0.757 113 55 35 0 0
-0.1987 -1.4312 -14.4964 -0.467 -0.643 0.606 118 53 41 0 0
-0.2086 -1.4452 -14.5229 -0.801 -0.438 0.407 105 49 39 0 0
0.0412 -1.1514 -15.3380 0.713 -0.406 0.571 8 7 5 0 0
0.0060 -1.2118 -15.6890 0.092 0.165 0.982 4 4 6 0 0
-0.1025 -1.3498 -15.5919 -0.485 -0.263 0.834 2 2 4 0 0
-0.0957 -1.3451 -15.6960 -0.385 -0.496 0.778 2 2 4 0 0
1.3354 0.6644 -13.6679 0.381 -0.322 0.867 144 77 45 0 0
0.2904 -0.7066 -13.6705 -0.268 -0.026 0.963 137 60 33 0 0
0.1473 -0.8955 -13.7013 0.013 -0.352 0.936 127 49 25 0 0
-0.2202 -1.4089 -14.5019 -0.586 -0.668 0.459 117 51 39 0 0
-0.1251 -1.3268 -15.5978 -0.485 -0.263 0.834 7 7 8 0 0
-0.4917 -1.8598 -16.9312 -0.814 -0.165 0.557 161 159 160 0 0
-0.5232 -1.9006 -16.9190 0.274 0.174 0.946 164 162 163 0 0
1.7341 1.2368 -13.8152 0.528 -0.400 0.750 212 212 213 0 0
1.0560 0.3514 -13.6534 0.184 -0.262 0.947 79 41 19 0 0
0.8171 0.0374 -13.6497 0.032 -0.206 0.978 113 66 46 0 0
0.7952 0.0082 -13.6598 0.032 -0.302 0.953 127 77 50 0 0
0.2915 -0.6542 -13.6682 -0.196 -0.132 0.972 149 73 32 0 0
-0.2501 -1.4019 -14.6232 -0.178 -0.841 0.511 119 61 44 0 0
-0.1146 -1.2590 -15.5697 -0.005 -0.383 0.924 8 8 10 0 0
-0.1477 -1.3038 -15.6037 -0.485 -0.263 0.834 25 25 25 0 0
-0.4026 -1.6766 -16.6106 0.572 0.284 0.769 113 114 111 0 0
-0.5126 -1.8336 -16.9424 -0.851 -0.130 0.509 162 160 163 0 0
-0.5101 -1.8323 -16.9977 -0.921 -0.103 0.377 165 163 166 0 0
-0.5464 -1.8793 -16.9758 -0.120 -0.897 0.426 168 166 167 0 0
-0.7187 -2.1023 -16.8810 0.478 -0.579 0.660 187 187 189 0 0
1.6212 1.1488 -13.6616 -0.642 -0.537 0.548 213 213 214 0 0
0.7657 0.0221 -13.6544 0.032 -0.302 0.953 45 30 19 0 0
0.7383 -0.0141 -13.6567 -0.052 -0.051 0.997 48 31 17 0 0
0.7127 -0.0480 -13.6613 0.032 0.005 0.999 51 32 16 0 0
0.5384 -0.2776 -13.6575 -0.016 -0.051 0.999 103 63 38 0 0
0.4849 -0.3482 -13.6619 -0.016 -0.051 0.999 104 63 37 0 0
0.4539 -0.3889 -13.6577 0.287 -0.429 0.857 100 58 30 0 0
0.4290 -0.4218 -13.6623 0.279 -0.462 0.842 87 44 21 0 0
0.4029 -0.4563 -13.6650 0.017 0.023 1.000 86 46 23 0 0
0.3740 -0.4943 -13.6635 0.114 -0.001 0.994 92 54 30 0 0
-0.1703 -1.2808 -15.6096 -0.485 -0.263 0.834 36 36 36 0 0
-0.5107 -1.7355 -15.7845 -0.289 -0.777 0.560 27 25 26 0 0
-0.3028 -1.4928 -16.6554 0.299 0.443 0.845 106 106 105 0 0
-0.5334 -1.8090 -17.0044 -0.810 -0.248 0.531 166 164 167 0 0
1.5711 1.1372 -13.6726 0.274 -0.451 0.850 203 197 197 0 0
0.7365 0.0362 -13.6494 -0.017 -0.233 0.972 12 11 11 0 0
0.7141 0.0062 -13.6586 -0.030 -0.107 0.994 14 12 11 0 0
-0.1968 -1.2003 -13.7769 0.337 -0.833 0.439 148 87 54 0 0
-0.1966 -1.2624 -15.6090 -0.294 -0.328 0.898 38 38 38 0 0
0.9420 0.3620 -13.6035 0.070 -0.161 0.984 7 6 7 0 0
-0.5627 -1.7023 -15.8774 -0.409 -0.837 0.363 38 34 31 0 0
-0.3558 -1.3299 -14.3973 -0.433 -0.752 0.496 133 64 38 0 0
-0.3610 -1.3378 -14.4317 -0.399 -0.818 0.415 130 61 38 0 0
-0.3922 -1.3789 -14.4225 -0.897 -0.305 0.319 116 51 39 0 0
-0.3021 -1.3015 -15.7928 -0.449 -0.542 0.710 121 50 33 0 0
-0.3085 -1.3110 -15.8284 -0.247 -0.524 0.815 115 48 32 0 0
-0.5544 -1.6391 -15.8938 -0.887 0.145 0.437 31 29 28 0 0
0.4179 -0.2262 -13.5476 0.361 -0.705 0.610 17 9 10 0 0
0.4037 -0.2456 -13.5679 0.285 -0.807 0.518 16 10 9 0 0
0.0294 -0.7388 -13.4218 0.655 -0.676 0.338 36 22 16 0 0
-0.3161 -1.2071 -13.7452 -0.418 -0.806 0.418 73 21 5 0 0
-0.3823 -1.3152 -14.4377 -0.537 -0.756 0.373 128 59 38 0 0
-0.3947 -1.2788 -14.3724 -0.579 -0.572 0.581 125 60 37 0 0
-0.3986 -1.2850 -14.4089 -0.573 -0.771 0.277 129 62 38 0 0
0.7102 0.2771 -13.1822 0.775 -0.477 0.414 101 84 84 0 0
0.8059 0.4584 -13.1471 0.752 -0.592 0.288 121 96 91 0 0
0.7732 0.4147 -13.1428 0.772 -0.515 0.372 123 97 92 0 0
0.7382 0.3681 -13.1351 0.781 -0.488 0.391 121 94 90 0 0
0.6566 0.2598 -13.1034 0.778 -0.459 0.428 117 89 85 0 0
0.6165 0.2065 -13.0882 0.775 -0.477 0.414 114 86 83 0 0
0.5527 0.1214 -13.0799 0.767 -0.550 0.330 103 77 75 0 0
0.5151 0.0713 -13.0674 0.765 -0.558 0.321 101 73 70 0 0
0.4829 0.0285 -13.0625 0.760 -0.580 0.292 100 71 67 0 0
0.4508 -0.0143 -13.0575 0.751 -0.616 0.238 99 71 67 0 0
-0.4389 -1.2348 -14.3384 -0.174 -0.968 0.179 96 50 33 0 0
-0.4464 -1.2528 -14.6736 -0.684 -0.727 0.067 107 92 85 0 0
-0.4474 -1.2714 -15.3918 -0.534 -0.844 0.054 92 48 32 0 0
-0.4552 -1.2826 -15.4239 -0.666 -0.744 -0.054 106 53 36 0 0
1.4627 1.3937 -13.0381 -0.183 -0.608 0.773 205 199 201 0 0
0.5228 0.1351 -12.9937 0.772 -0.486 0.409 123 73 66 0 0
0.4620 0.0538 -12.9888 0.759 -0.558 0.336 120 72 66 0 0
0.1182 -0.4067 -12.9776 0.048 0.028 0.998 114 68 59 0 0
0.0886 -0.4462 -12.9746 0.024 0.037 0.999 113 66 56 0 0
-0.4723 -1.2357 -14.6721 -0.633 -0.755 0.173 95 76 69 0 0
-0.4752 -1.2404 -14.7113 -0.567 -0.810 0.149 110 68 53 0 0
-0.4742 -1.2543 -15.3897 -0.534 -0.844 0.054 106 54 38 0 0
-0.4812 -1.2644 -15.4232 -0.590 -0.807 -0.023 100 48 32 0 0
-0.4309 -1.2052 -15.7955 -0.604 -0.423 0.675 118 44 26 0 0
-0.9192 -1.8798 -16.7014 -0.003 -0.283 0.959 178 178 180 0 0
1.4811 1.4751 -12.9341 0.458 -0.368 0.809 213 214 215 0 0
1.4464 1.4270 -13.0106 -0.014 -0.863 0.505 191 186 187 0 0
1.4329 1.4083 -13.0337 -0.183 -0.608 0.773 145 126 126 0 0
-0.4323 -1.1029 -13.3452 -0.116 -0.837 0.535 74 20 9 0 0
-0.5121 -1.2297 -14.2986 -0.637 -0.735 0.233 126 64 37 0 0
-0.5089 -1.2281 -14.4337 -0.430 -0.889 0.157 134 67 44 0 0
-0.4956 -1.2143 -14.6312 -0.642 -0.766 0.030 56 39 35 0 0
-0.4966 -1.2165 -14.6735 -0.630 -0.752 0.194 55 36 30 0 0
-0.5015 -1.2368 -15.3407 -0.416 -0.909 0.018 72 41 34 0 0
-0.5015 -1.2377 -15.3868 -0.416 -0.909 0.018 115 59 46 0 0
-0.5015 -1.2387 -15.4331 -0.416 -0.909 0.018 99 45 32 0 0
-0.4709 -1.2046 -15.7698 -0.004 -0.495 0.869 115 42 28 0 0
0.7830 0.5917 -12.8607 0.404 -0.271 0.874 117 53 38 0 0
0.7488 0.5458 -12.8547 0.410 -0.248 0.878 118 52 38 0 0
0.2767 -0.0915 -12.9574 0.193 -0.624 0.757 117 48 35 0 0
-0.4614 -1.0889 -13.1768 -0.170 -0.411 0.896 96 41 30 0 0
-0.5206 -1.1969 -14.6753 -0.630 -0.752 0.194 58 40 37 0 0
-0.5259 -1.2048 -14.7103 -0.567 -0.810 0.149 83 49 32 0 0
-0.5223 -1.2137 -15.4419 -0.612 -0.783 0.108 106 48 36 0 0
-0.4809 -1.1611 -15.6107 -0.525 -0.851 -0.022 93 47 33 0 0
-0.4880 -1.1740 -15.7862 -0.026 -0.834 0.551 113 40 26 0 0
1.2165 1.2275 -12.9446 0.112 -0.411 0.905 115 52 39 0 0
0.4951 0.2553 -12.9006 0.319 -0.274 0.907 118 48 35 0 0
0.2640 -0.0576 -12.9744 -0.008 -0.278 0.960 118 48 33 0 0
0.2394 -0.0908 -12.9792 0.043 -0.381 0.924 117 47 33 0 0
0.2268 -0.1083 -13.0009 0.024 -0.215 0.976 118 48 32 0 0
-0.5422 -1.1742 -14.6813 -0.693 -0.701 0.166 53 37 36 0 0
-0.5327 -1.1624 -14.7422 -0.795 -0.562 0.228 78 48 34 0 0
-0.4982 -1.1270 -15.3930 -0.418 -0.880 0.226 81 43 31 0 0
-0.5610 -1.2106 -15.3256 -0.392 -0.919 0.027 111 61 47 0 0
-0.5549 -1.2034 -15.3829 -0.595 -0.803 0.029 115 57 45 0 0
-0.5016 -1.1364 -15.6672 -0.545 -0.824 -0.153 83 42 30 0 0
-0.5800 -1.2453 -15.8538 -0.560 -0.502 0.659 34 34 34 0 0
-0.3711 -0.8641 -12.9517 -0.133 -0.756 0.640 112 38 24 0 0
-0.4436 -0.9629 -12.9994 -0.446 -0.454 0.772 128 53 26 0 0
-0.4557 -0.9796 -13.0205 -0.432 -0.608 0.666 100 35 16 0 0
-0.5151 -1.0626 -13.2077 -0.303 -0.857 0.417 106 52 37 0 0
-0.5349 -1.0896 -13.2167 -0.414 -0.887 0.203 101 53 38 0 0
-0.5789 -1.1574 -13.7596 -0.444 -0.811 0.381 95 44 30 0 0
-0.5860 -1.1676 -13.7895 -0.444 -0.811 0.381 96 45 31 0 0
-0.5914 -1.1753 -13.8226 -0.262 -0.915 0.308 94 45 31 0 0
-0.5912 -1.1815 -14.2473 -0.359 -0.904 0.234 98 50 38 0 0
-0.6062 -1.2021 -14.2649 -0.150 -0.780 0.607 103 50 35 0 0
-0.5742 -1.1665 -14.7582 -0.723 -0.577 0.381 124 66 46 0 0
-0.6099 -1.2145 -14.7401 -0.083 -0.688 0.721 116 54 37 0 0
-0.5879 -1.1938 -15.3233 -0.688 -0.723 -0.058 118 63 49 0 0
-0.5804 -1.1845 -15.3833 -0.595 -0.803 0.029 111 55 45 0 0
-1.0333 -1.8183 -16.7832 0.078 0.472 0.878 185 185 187 0 0
1.2346 1.3620 -12.8348 0.161 -0.419 0.894 117 61 51 0 0
1.2099 1.3284 -12.8432 0.119 -0.555 0.823 116 55 46 0 0
0.9975 1.0413 -12.8082 0.742 -0.388 0.547 117 51 37 0 0
0.8543 0.8477 -12.7794 0.025 0.067 0.997 117 51 37 0 0
0.7203 0.6659 -12.7994 -0.333 -0.174 0.927 123 57 41 0 0
-0.1585 -0.5237 -12.7530 -0.051 -0.657 0.752 121 50 32 0 0
-0.3514 -0.7875 -12.9385 0.355 -0.112 0.928 113 40 26 0 0
-0.3687 -0.8112 -12.9518 0.203 -0.204 0.958 109 39 26 0 0
-0.3810 -0.8280 -12.9728 -0.333 -0.201 0.921 111 38 26 0 0
-0.5302 -1.0309 -13.0217 -0.353 -0.572 0.740 101 37 22 0 0
-0.5278 -1.0281 -13.0652 -0.673 -0.635 0.379 115 40 18 0 0
-0.5665 -1.0825 -13.2046 -0.355 -0.934 -0.035 93 47 37 0 0
-0.5673 -1.0841 -13.2436 -0.551 -0.834 -0.019 91 45 37 0 0
-0.5729 -1.0922 -13.2750 -0.462 -0.880 0.111 92 46 36 0 0
-0.5848 -1.1096 -13.3776 -0.523 -0.786 0.330 94 44 36 0 0
-0.6069 -1.1448 -13.7534 -0.725 -0.522 0.449 104 47 33 0 0
-0.6316 -1.1800 -13.8801 -0.356 -0.792 0.496 96 44 29 0 0
-0.6282 -1.1806 -14.2694 -0.545 -0.639 0.543 99 48 35 0 0
-0.6261 -1.1864 -14.8899 -0.262 -0.820 0.508 102 52 37 0 0
-0.6300 -1.1921 -14.9282 -0.278 -0.527 0.803 108 54 38 0 0
-0.6087 -1.1695 -15.3784 -0.688 -0.723 -0.058 110 57 44 0 0
-0.6066 -1.1673 -15.4288 -0.671 -0.741 0.024 104 55 41 0 0
-0.4735 -1.0072 -16.9010 0.462 0.282 0.841 112 113 116 0 0
0.5490 0.4862 -12.8003 -0.069 -0.601 0.796 118 49 34 0 0
-0.4169 -0.8266 -12.9547 0.182 -0.784 0.593 116 41 27 0 0
-0.5483 -1.0064 -13.0703 -0.398 -0.737 0.547 116 39 14 0 0
-0.5820 -1.0534 -13.1777 -0.420 -0.871 0.255 95 47 36 0 0
-0.5940 -1.0700 -13.1989 -0.474 -0.848 0.236 95 47 37 0 0
-0.6290 -1.1227 -13.6323 -0.855 -0.481 0.194 113 62 42 0 0
-0.6273 -1.1219 -13.7598 -0.725 -0.522 0.449 103 53 29 0 0
-0.6503 -1.1666 -14.8919 -0.805 -0.567 0.172 102 50 36 0 0
-0.6490 -1.1655 -14.9393 -0.706 -0.443 0.553 106 53 37 0 0
-0.6551 -1.1786 -15.3404 -0.933 -0.181 0.311 108 56 42 0 0
-0.6560 -1.1803 -15.3853 -0.926 -0.293 0.238 102 53 39 0 0
1.2986 1.5581 -12.8227 0.182 -0.162 0.970 210 209 211 0 0
0.3045 0.2068 -12.7357 -0.875 -0.074 0.478 121 50 32 0 0
-0.2182 -0.5042 -12.7362 -0.271 -0.795 0.542 121 52 33 0 0
-0.2391 -0.5331 -12.7838 0.122 -0.559 0.820 123 51 36 0 0
-0.4664 -0.8432 -12.8763 -0.595 -0.571 0.566 118 46 29 0 0
-0.4753 -0.8557 -12.9021 -0.917 -0.336 0.212 123 45 27 0 0
-0.6483 -1.0994 -13.7236 -0.828 -0.424 0.367 77 38 20 0 0
-0.6624 -1.1240 -14.2521 -0.681 -0.723 0.116 100 55 43 0 0
-0.7236 -1.2097 -14.4952 0.180 -0.959 -0.221 45 37 36 0 0
1.2708 1.5750 -12.8207 0.150 -0.100 0.984 206 204 204 0 0
-0.3691 -0.6604 -12.8228 0.003 -0.214 0.977 126 54 38 0 0
-0.5031 -0.8431 -12.8173 -0.453 -0.501 0.737 119 47 32 0 0
-0.4646 -0.7928 -13.0742 -0.569 0.288 0.770 160 84 61 0 0
-0.6194 -1.0035 -13.0337 0.021 -0.467 0.884 102 34 10 0 0
-0.5950 -0.9924 -15.6399 -0.194 -0.710 0.678 104 53 37 0 0
1.2421 1.5908 -12.8176 0.192 0.017 0.981 193 185 183 0 0
0.4747 0.5428 -12.7622 0.367 -0.510 0.778 122 50 35 0 0
0.2784 0.2754 -12.6504 -0.329 -0.566 0.756 123 51 36 0 0
0.2599 0.2498 -12.7032 -0.041 -0.901 0.431 124 52 37 0 0
-0.2216 -0.4081 -12.7233 0.093 -0.725 0.682 127 51 36 0 0
-0.4199 -0.6791 -12.7434 -0.346 -0.560 0.753 124 52 35 0 0
-0.7251 -1.1080 -14.4913 -0.658 -0.454 0.601 42 38 37 0 0
-0.6851 -1.0594 -15.3800 -0.943 -0.332 0.035 118 63 43 0 0
-0.6375 -0.9960 -15.6092 -0.701 -0.457 0.547 104 52 36 0 0
-0.6739 -1.0461 -15.6839 -0.611 -0.408 0.678 105 55 39 0 0
-0.6812 -1.0563 -15.7179 -0.670 -0.586 0.456 94 42 30 0 0
-0.7414 -1.1455 -16.7352 -0.393 0.243 0.887 134 135 137 0 0
-1.2157 -1.7937 -16.7766 -0.812 0.066 0.581 188 188 190 0 0
-0.5337 -0.7855 -12.8431 -0.808 -0.474 0.349 122 48 27 0 0
-0.6858 -0.9945 -13.0041 0.396 -0.758 0.518 97 34 17 0 0
-0.7537 -1.0932 -14.1360 0.251 -0.388 0.887 107 47 28 0 0
-0.7749 -1.1223 -14.1427 0.251 -0.388 0.887 108 58 43 0 0
-0.7609 -1.1037 -14.2534 -0.083 -0.838 0.539 100 53 40 0 0
-0.6981 -1.0250 -15.6871 -0.321 -0.542 0.777 108 58 42 0 0
-0.7111 -1.0428 -15.7105 -0.308 -0.711 0.632 92 42 30 0 0
-1.2376 -1.7691 -16.7857 -0.903 0.025 0.429 188 188 190 0 0
0.2051 0.2788 -12.6173 -0.586 -0.365 0.724 125 52 37 0 0
0.1915 0.2601 -12.6376 -0.586 -0.365 0.724 125 52 37 0 0
0.1780 0.2415 -12.6580 -0.586 -0.365 0.724 126 53 38 0 0
0.1644 0.2228 -12.6783 -0.586 -0.365 0.724 126 52 37 0 0
0.1587 0.2149 -12.7097 -0.837 -0.409 0.364 125 52 37 0 0
-0.7900 -1.0918 -14.2457 -0.725 -0.669 0.163 101 54 39 0 0
-0.7644 -1.0589 -14.9135 -0.721 -0.692 0.024 106 52 35 0 0
-0.7569 -1.0490 -15.0183 -0.653 -0.747 0.121 117 59 39 0 0
-0.7150 -0.9925 -15.3261 -0.744 -0.293 0.600 80 50 42 0 0
-0.7402 -1.0272 -15.3731 -0.664 -0.418 0.620 116 64 44 0 0
-0.7172 -0.9967 -15.6523 -0.731 -0.673 0.118 98 56 42 0 0
-0.7217 -1.0029 -15.6917 -0.222 -0.554 0.802 110 60 44 0 0
-0.7360 -1.0226 -15.7125 -0.199 -0.680 0.705 91 42 31 0 0
-0.0599 -0.0338 -12.6704 -0.379 -0.816 0.437 127 51 35 0 0
-0.0680 -0.0449 -12.6981 -0.379 -0.816 0.437 127 51 35 0 0
-0.7820 -1.0269 -12.8874 -0.541 -0.734 0.411 86 16 3 0 0
-0.8257 -1.0886 -13.9252 -0.119 -0.952 0.283 84 21 6 0 0
-0.8113 -1.0693 -14.2516 -0.688 -0.722 -0.068 102 52 37 0 0
-0.8039 -1.0594 -14.3518 -0.574 -0.768 0.283 88 54 42 0 0
-0.7864 -1.0362 -14.9193 -0.721 -0.692 0.024 108 51 34 0 0
-0.7091 -0.9305 -15.3375 -0.511 0.096 0.854 115 65 48 0 0
-0.7692 -1.0132 -15.3668 -0.456 0.141 0.879 117 63 46 0 0
-0.7371 -0.9701 -16.1001 -0.518 -0.826 -0.222 36 34 35 0 0
-0.5789 -0.6973 -13.7847 -0.132 0.198 0.971 4 3 1 0 0
-0.7214 -0.8937 -13.7603 -0.076 -0.504 0.861 28 5 2 0 0
-0.8450 -1.0640 -13.8912 -0.433 -0.901 0.002 115 57 22 0 0
-0.8300 -1.0432 -14.2620 -0.858 -0.496 0.134 103 53 39 0 0
-0.7602 -0.9468 -15.3375 -0.645 -0.094 0.759 64 41 37 0 0
-0.7750 -0.9673 -15.3568 -0.718 -0.152 0.679 72 46 41 0 0
-0.8707 -1.0990 -15.3190 0.167 -0.943 0.287 99 53 36 0 0
-0.7507 -0.9335 -16.1742 -0.787 -0.606 0.116 37 35 35 0 0
-0.1070 0.0041 -12.6728 -0.200 -0.187 0.962 129 53 37 0 0
-0.5908 -0.6639 -12.7828 -0.212 -0.377 0.902 121 46 29 0 0
-0.8287 -0.9921 -12.8880 -0.635 -0.657 0.407 85 15 2 0 0
-0.7976 -0.9443 -15.3626 -0.721 -0.445 0.531 67 45 40 0 0
-0.8088 -0.9598 -15.3888 -0.749 -0.399 0.530 116 65 50 0 0
-0.7687 -0.9029 -16.1410 -0.821 -0.565 0.086 37 35 36 0 0
-0.7712 -0.9062 -16.1858 -0.821 -0.565 0.086 37 35 35 0 0
-0.6149 -0.6469 -12.7824 -0.258 -0.425 0.868 121 45 29 0 0
-0.6322 -0.6707 -12.8350 -0.731 -0.312 0.607 116 44 29 0 0
-0.9044 -1.0425 -14.1310 -0.643 -0.269 0.717 107 54 39 0 0
-0.8597 -0.9802 -14.2526 -0.492 -0.219 0.843 108 65 50 0 0
-0.8742 -1.0002 -14.2710 -0.569 -0.814 0.116 105 55 41 0 0
-0.5455 -0.5007 -12.7270 0.010 -0.628 0.778 127 55 37 0 0
-0.9249 -1.0191 -14.1380 -0.395 -0.553 0.734 109 56 40 0 0
-0.9244 -1.0162 -14.5356 -0.633 -0.501 0.590 119 56 36 0 0
-0.8515 -0.9102 -15.4053 -0.621 -0.256 0.741 111 68 55 0 0
0.1267 0.4840 -12.7152 -0.329 -0.223 0.918 126 53 36 0 0
0.1078 0.4579 -12.7283 -0.329 -0.223 0.918 125 52 35 0 0
-0.3726 -0.2103 -12.6669 -0.119 -0.719 0.685 130 53 35 0 0
-0.9301 -0.9832 -12.9187 0.579 -0.271 0.769 90 56 48 0 0
-0.9507 -1.0030 -14.1359 -0.210 -0.590 0.780 109 56 39 0 0
-0.9465 -0.9942 -14.5407 -0.633 -0.501 0.590 114 52 36 0 0
-0.9577 -1.0096 -14.5652 -0.426 -0.857 0.290 123 62 44 0 0
-0.8909 -0.9109 -15.3793 0.116 -0.665 0.738 106 64 51 0 0
-0.9227 -0.9524 -15.7496 -0.624 -0.557 0.548 92 35 18 0 0
-0.9336 -0.9673 -15.7771 -0.624 -0.557 0.548 99 42 28 0 0
-0.9403 -0.9764 -15.8126 -0.610 -0.614 0.501 74 43 37 0 0
-0.5736 -0.4389 -12.6779 -0.446 -0.514 0.732 126 49 31 0 0
-0.5863 -0.4565 -12.6980 -0.446 -0.514 0.732 125 45 28 0 0
-0.6004 -0.4760 -12.7161 -0.337 -0.479 0.810 129 48 31 0 0
-0.6147 -0.4958 -12.7338 -0.337 -0.479 0.810 128 52 32 0 0
-0.9352 -0.9401 -12.9484 0.132 -0.827 0.546 90 54 47 0 0
-0.9835 -0.9968 -14.1213 -0.177 -0.774 0.608 106 52 33 0 0
-0.9636 -0.9652 -14.5547 -0.549 -0.302 0.779 118 54 41 0 0
-1.0291 -1.0558 -14.6156 -0.072 -0.549 0.833 62 38 33 0 0
-0.9438 -0.9301 -15.3753 0.275 -0.679 0.681 113 62 45 0 0
-0.6244 -0.4588 -12.7159 -0.337 -0.479 0.810 125 46 28 0 0
-0.6874 -0.5460 -12.7778 -0.301 -0.246 0.921 124 50 33 0 0
-0.7205 -0.5919 -12.8061 -0.104 -0.880 0.463 118 45 29 0 0
-0.9521 -0.9144 -12.8790 -0.161 -0.895 0.416 100 24 5 0 0
-0.9731 -0.9432 -12.9253 -0.381 -0.084 0.921 91 53 46 0 0
-0.8447 -0.7536 -13.8851 -0.156 -0.312 0.937 65 15 4 0 0
-1.0665 -1.0525 -14.8656 -0.274 -0.789 0.549 115 54 39 0 0
-0.9610 -0.8996 -15.3913 -0.236 -0.880 0.412 115 63 45 0 0
-0.9665 -0.9069 -15.4283 -0.618 -0.787 0.002 102 54 40 0 0
-0.9598 -0.8969 -15.4889 -0.716 -0.697 -0.049 108 62 45 0 0
-0.9969 -0.9431 -16.0000 -0.674 -0.739 -0.013 37 36 35 0 0
-0.8324 -0.6845 -13.8619 -0.172 -0.397 0.902 38 8 4 0 0
-0.8674 -0.7331 -13.8883 0.062 -0.123 0.991 62 13 2 0 0
-1.0367 -0.9699 -13.8972 -0.350 -0.723 0.596 111 54 18 0 0
-1.0228 -0.9463 -14.2263 -0.389 -0.921 -0.010 110 62 49 0 0
-1.0010 -0.9130 -14.4426 -0.296 -0.939 -0.172 136 66 41 0 0
-1.0668 -0.9991 -14.9120 0.122 -0.912 0.393 115 55 39 0 0
-1.0701 -1.0033 -14.9519 -0.121 -0.990 0.067 117 61 42 0 0
-0.9804 -0.8739 -15.2610 -0.485 -0.874 -0.013 49 44 44 0 0
-0.9719 -0.8593 -15.4673 -0.479 -0.839 -0.257 101 53 40 0 0
-0.9369 -0.8077 -15.6791 0.161 -0.173 0.972 116 62 46 0 0
-0.9187 -0.7812 -15.7628 -0.447 0.191 0.874 104 58 45 0 0
-0.2899 0.1098 -12.5759 -0.500 -0.622 0.602 129 53 37 0 0
-0.3055 0.0881 -12.5925 -0.396 -0.593 0.701 129 53 37 0 0
-0.3175 0.0716 -12.6144 -0.581 -0.681 0.446 129 53 37 0 0
-0.3257 0.0605 -12.6419 -0.581 -0.681 0.446 129 53 37 0 0
-0.3367 0.0454 -12.6653 -0.502 -0.246 0.829 128 52 35 0 0
-0.7544 -0.5259 -13.6504 -0.663 0.402 0.631 43 43 47 0 0
-1.1030 -0.9966 -14.8912 -0.374 -0.880 0.293 112 54 37 0 0
-1.0157 -0.8588 -15.9675 -0.664 -0.634 0.397 41 40 42 0 0
-0.3248 0.1142 -12.6790 -0.747 -0.565 0.352 131 55 39 0 0
-0.6459 -0.3371 -12.6736 0.086 -0.666 0.741 127 49 29 0 0
-0.6606 -0.3573 -12.6909 0.105 -0.594 0.798 125 47 27 0 0
-0.8114 -0.5678 -12.7755 -0.119 -0.771 0.626 121 45 29 0 0
-0.8741 -0.6401 -13.7461 -0.050 -0.870 0.491 4 2 3 0 0
-1.0458 -0.8455 -15.9598 -0.767 -0.369 0.525 38 37 38 0 0
-0.6764 -0.3291 -12.6635 -0.086 -0.702 0.707 126 48 28 0 0
-1.0794 -0.8928 -12.8654 -0.402 -0.832 0.382 100 35 20 0 0
-1.0840 -0.8981 -12.9383 -0.694 -0.711 0.111 52 42 39 0 0
-0.8276 -0.5249 -13.6102 0.068 0.026 0.997 43 42 45 0 0
-1.0799 -0.8493 -15.3125 -0.733 -0.657 0.176 59 45 43 0 0
-1.0634 -0.8178 -15.7793 -0.359 -0.768 0.530 89 36 19 0 0
-0.6138 -0.1902 -12.6368 -0.530 -0.358 0.769 126 49 29 0 0
-1.0883 -0.8571 -12.7689 -0.520 -0.737 0.432 87 19 7 0 0
-0.9063 -0.5828 -13.6466 -0.137 -0.799 0.586 6 3 3 0 0
-1.1069 -0.8320 -15.3574 -0.480 -0.865 0.145 101 61 47 0 0
-1.0855 -0.7990 -15.4949 -0.483 -0.827 -0.287 106 58 43 0 0
-1.0830 -0.7836 -16.0900 -0.891 -0.455 0.015 37 35 36 0 0
-1.0706 -0.7752 -13.0788 -0.567 -0.648 -0.508 47 43 46 0 0
-1.1596 -0.8700 -14.5149 0.002 -0.856 0.516 103 54 40 0 0
-1.1019 -0.7549 -16.0547 -0.633 -0.774 -0.014 35 37 36 0 0
-1.1207 -0.7813 -16.0668 -0.806 -0.532 0.260 37 35 37 0 0
-0.7489 -0.2791 -12.6225 -0.372 -0.764 0.527 129 51 31 0 0
-0.7525 -0.2834 -12.6567 -0.479 -0.321 0.817 125 47 27 0 0
-0.7666 -0.3030 -12.6747 -0.268 -0.532 0.804 123 45 25 0 0
-1.1884 -0.8587 -14.4624 -0.085 -0.708 0.701 102 53 37 0 0
-1.1579 -0.8023 -15.0258 -0.967 -0.217 0.131 122 67 50 0 0
-1.1344 -0.7567 -15.5485 -0.574 -0.782 -0.241 122 67 49 0 0
-1.1332 -0.7537 -15.5996 -0.643 -0.752 -0.142 119 61 43 0 0
-1.1416 -0.7580 -15.9276 -0.079 -0.996 0.050 50 38 38 0 0
-1.1197 -0.7223 -16.1221 0.064 -0.490 0.869 37 36 36 0 0
-1.2175 -0.8470 -14.4545 -0.069 -0.732 0.677 107 57 42 0 0
-1.2237 -0.8549 -14.4883 -0.059 -0.906 0.419 107 58 43 0 0
-1.1808 -0.7850 -14.8437 -0.458 -0.853 0.251 125 64 46 0 0
-1.1603 -0.7478 -15.1642 -1.000 0.007 0.001 48 42 44 0 0
-1.1597 -0.7433 -15.3083 -0.762 -0.353 0.542 48 45 46 0 0
-1.1573 -0.7324 -15.6030 -0.643 -0.752 -0.142 121 62 43 0 0
-1.1640 -0.7296 -16.0857 -0.650 -0.686 0.328 37 36 35 0 0
-0.2771 0.4968 -12.6858 -0.601 -0.305 0.739 133 60 44 0 0
-0.6933 -0.0963 -12.6620 0.001 -0.705 0.709 126 49 30 0 0
-0.9740 -0.4734 -13.4849 0.250 -0.262 0.932 47 45 49 0 0
-1.1869 -0.7691 -13.7592 -0.685 -0.461 0.564 119 57 27 0 0
-1.2331 -0.8167 -14.4263 -0.033 -0.771 0.635 117 59 45 0 0
-1.2458 -0.8341 -14.4481 -0.033 -0.771 0.635 107 57 41 0 0
-1.1735 -0.7124 -15.1405 -0.942 -0.287 -0.173 58 40 39 0 0
-1.1935 -0.7394 -15.1969 -0.937 0.253 0.239 47 44 47 0 0
-1.2009 -0.7331 -15.8140 -0.360 -0.613 0.704 98 43 23 0 0
-1.2732 -0.8359 -15.8168 0.431 -0.009 0.902 38 37 37 0 0
-0.7420 -0.1139 -12.6640 0.069 -0.529 0.846 126 49 29 0 0
-1.0046 -0.4650 -13.4743 0.250 -0.262 0.932 52 47 53 0 0
-1.2982 -0.8504 -14.6243 0.242 -0.523 0.817 88 56 46 0 0
0.6955 1.9902 -12.5785 -0.861 -0.309 -0.405 205 199 198 0 0
-0.2858 0.5900 -12.6650 -0.637 -0.172 0.751 130 54 40 0 0
0.7299 2.0983 -12.6581 -0.803 -0.391 -0.450 197 187 185 0 0
-0.7480 -0.0206 -12.6088 -0.098 -0.369 0.924 129 52 32 0 0
-1.2994 -0.7294 -15.0919 -0.115 -0.986 0.122 47 42 44 0 0
-1.3131 -0.7467 -15.1606 -0.622 -0.770 0.142 49 45 44 0 0
-1.3477 -0.7802 -14.0389 -0.572 -0.577 0.583 79 17 3 0 0
-1.3302 -0.7191 -15.0814 -0.086 -0.981 0.173 47 43 44 0 0
-1.3377 -0.7271 -15.1621 -0.622 -0.770 0.142 50 43 44 0 0
-0.8305 -0.0357 -12.5955 -0.308 -0.840 0.447 129 52 32 0 0
-1.1520 -0.4538 -13.8184 -0.302 -0.547 0.781 57 43 37 0 0
-1.3728 -0.7538 -14.3061 -0.764 -0.623 0.171 124 65 43 0 0
-1.3841 -0.7691 -14.3303 -0.806 -0.586 0.085 118 58 36 0 0
-1.3755 -0.7343 -14.9476 -0.694 -0.718 -0.043 56 39 37 0 0
-1.3741 -0.7304 -14.9977 -0.588 -0.803 -0.097 52 42 42 0 0
-1.0939 -0.3262 -13.5725 -0.921 -0.162 0.354 48 45 50 0 0
-1.3911 -0.7263 -14.3180 -0.808 -0.587 -0.042 122 64 42 0 0
-1.3979 -0.7349 -14.3506 -0.869 -0.450 0.208 120 59 36 0 0
-1.4113 -0.7515 -14.4164 -0.720 -0.630 0.292 100 46 37 0 0
-1.4105 -0.7003 -14.3280 -0.884 -0.450 0.126 118 59 38 0 0
-1.4318 -0.7271 -14.4245 -0.500 -0.787 0.363 104 50 38 0 0
-1.4084 -0.6786 -14.7932 -0.854 -0.519 0.032 126 66 46 0 0
-1.4114 -0.6812 -14.8344 -0.690 -0.724 -0.010 109 54 42 0 0
-1.4172 -0.6844 -14.9647 -0.581 -0.814 -0.011 56 39 41 0 0
0.6173 2.2195 -12.6416 -0.934 -0.351 -0.069 194 180 179 0 0
-1.3870 -0.6811 -12.6989 -0.642 -0.590 0.489 89 32 12 0 0
-1.3835 -0.6619 -13.0322 0.401 -0.906 -0.138 52 49 52 0 0
-1.2858 -0.5117 -13.2412 -0.508 -0.189 0.840 51 49 49 0 0
-1.4437 -0.7105 -13.9532 0.256 -0.567 0.783 74 16 1 0 0
-1.4392 -0.6999 -14.0503 -0.336 -0.687 0.644 73 15 3 0 0
-1.4438 -0.7050 -14.0865 -0.205 -0.754 0.624 94 29 10 0 0
-1.4400 -0.6482 -15.3060 -0.444 -0.896 -0.031 79 46 40 0 0
-0.4271 0.7584 -12.5906 -0.052 -0.301 0.952 127 52 33 0 0
-1.4638 -0.6644 -14.4578 -0.572 -0.817 0.072 109 55 38 0 0
-1.4544 -0.6397 -14.7077 -0.581 -0.782 0.227 77 46 37 0 0
-1.5151 -0.6777 -15.8496 0.336 -0.224 0.915 40 36 38 0 0
-1.2170 -0.2879 -13.6584 -0.682 -0.401 0.612 21 19 20 0 0
-1.4896 -0.6416 -14.5946 -0.782 -0.620 -0.072 101 52 38 0 0
-1.4782 -0.6196 -14.7101 -0.643 -0.670 0.371 73 44 34 0 0
0.3512 1.9992 -12.5516 -0.282 -0.106 0.953 117 50 41 0 0
-1.5370 -0.6780 -14.1393 -0.361 -0.910 0.205 107 56 41 0 0
-1.5060 -0.6057 -14.7048 -0.538 -0.831 0.140 70 42 31 0 0
-1.5256 -0.6340 -14.7133 -0.214 -0.085 0.973 113 66 49 0 0
-1.4757 -0.5520 -14.9057 -0.716 -0.669 0.202 111 55 39 0 0
-1.5123 -0.5974 -15.0723 -0.349 -0.936 0.050 128 60 45 0 0
-1.0742 -0.0227 -12.6363 -0.409 -0.744 0.529 128 50 28 0 0
-1.0887 -0.0431 -12.6537 -0.365 -0.831 0.420 129 51 29 0 0
-1.2584 -0.2405 -13.6718 -0.654 -0.518 0.551 22 19 20 0 0
-1.5641 -0.6598 -14.2250 -0.755 -0.645 0.121 107 61 45 0 0
-1.5615 -0.6442 -14.4593 -0.721 -0.556 0.412 102 53 39 0 0
-1.6180 -0.6630 -15.7459 0.796 -0.406 0.449 39 38 37 0 0
-1.2130 -0.1769 -12.5725 -0.245 -0.545 0.802 130 52 30 0 0
-1.2987 -0.2427 -13.7314 -0.493 -0.419 0.762 5 3 4 0 0
-1.2382 -0.1620 -12.5701 -0.245 -0.545 0.802 129 51 29 0 0
-1.6423 -0.6082 -14.3081 -0.664 -0.567 0.489 129 66 42 0 0
-1.6140 -0.5403 -14.7839 -0.679 -0.538 0.499 122 58 41 0 0
-1.6009 -0.5009 -15.1468 -0.721 -0.580 0.378 106 53 39 0 0
-0.7146 0.7144 -12.5790 -0.282 -0.862 0.422 130 54 38 0 0
-0.8725 0.4794 -12.5388 -0.392 -0.427 0.815 129 53 39 0 0
-1.5800 -0.4890 -13.8395 -0.240 -0.817 0.524 120 68 34 0 0
-1.6052 -0.4709 -14.8037 -0.794 -0.606 0.047 116 64 46 0 0
-1.6372 -0.5190 -14.7877 -0.468 -0.763 0.446 121 59 40 0 0
-1.6384 -0.5127 -14.9288 -0.287 -0.957 0.043 77 47 37 0 0
-1.6377 -0.5060 -15.0267 -0.320 -0.946 -0.051 127 65 49 0 0
-1.6196 -0.4717 -15.1606 -0.717 -0.693 0.075 104 54 40 0 0
-0.8915 0.5052 -12.5469 -0.247 -0.599 0.761 132 56 40 0 0
-0.9223 0.4594 -12.5396 -0.099 -0.670 0.736 129 54 36 0 0
-0.9711 0.3875 -12.5443 -0.550 -0.497 0.671 130 55 35 0 0
-1.6780 -0.5507 -14.3346 -0.896 -0.439 0.070 131 66 41 0 0
-0.9932 0.4083 -12.5475 -0.510 -0.600 0.617 129 54 33 0 0
-1.6008 -0.4571 -13.1082 0.364 -0.927 -0.090 54 48 48 0 0
-0.7029 0.8873 -12.4653 -0.594 -0.541 0.595 129 54 37 0 0
-0.7123 0.8749 -12.4915 -0.258 -0.323 0.911 130 56 38 0 0
-0.9029 0.5916 -12.4830 -0.524 -0.473 0.708 129 54 36 0 0
-1.0353 0.4026 -12.6005 -0.300 -0.102 0.949 131 56 37 0 0
-1.6458 -0.3133 -15.6137 -0.974 -0.220 -0.053 120 62 50 0 0
-0.9660 0.5554 -12.5441 -0.409 -0.402 0.819 129 54 35 0 0
-1.0644 0.4122 -12.5926 0.106 -0.438 0.893 130 55 34 0 0
-1.7636 -0.5366 -13.9910 -0.621 -0.596 0.509 68 11 4 0 0
-1.7448 -0.4884 -14.3023 -0.812 -0.496 0.307 118 61 44 0 0
-1.6593 -0.2742 -15.6401 -0.968 -0.249 0.012 121 64 52 0 0
-1.6789 -0.3027 -15.6494 -0.910 -0.164 0.382 105 55 44 0 0
-1.7432 -0.5366 -12.7310 -0.201 -0.380 0.903 92 21 6 0 0
-1.7331 -0.5148 -12.8317 -0.508 -0.281 0.814 97 47 36 0 0
-1.7465 -0.5336 -12.8497 -0.335 -0.513 0.790 75 48 41 0 0
-1.7588 -0.5505 -12.8697 -0.294 -0.812 0.504 58 50 49 0 0
-1.8109 -0.4769 -15.1265 -0.087 -0.925 0.370 103 51 38 0 0
-1.5611 -0.2139 -12.7147 -0.024 -0.951 0.309 126 50 34 0 0
-1.7660 -0.5189 -12.7318 -0.212 -0.308 0.928 87 20 5 0 0
-1.8014 -0.4449 -14.5696 -0.815 -0.579 0.000 51 39 40 0 0
-1.8065 -0.4235 -14.9918 -0.729 -0.647 -0.224 126 69 50 0 0
-1.8001 -0.4096 -15.0540 -0.763 -0.624 -0.169 107 52 40 0 0
-1.8303 -0.4557 -15.0404 -0.736 -0.300 0.607 102 51 39 0 0
-1.8312 -0.4503 -15.1369 -0.875 -0.434 0.216 103 51 38 0 0
-1.7870 -0.4982 -12.7359 -0.171 -0.316 0.933 88 20 8 0 0
-1.8549 -0.4937 -14.2310 -0.030 -0.701 0.712 121 63 47 0 0
-1.8480 -0.4249 -15.0562 -0.705 -0.422 0.570 103 51 39 0 0
-1.3637 0.1754 -12.5496 -0.511 -0.393 0.765 131 50 29 0 0
-1.8279 -0.3979 -14.2401 -0.380 -0.097 0.920 109 62 47 0 0
-1.8656 -0.3937 -15.0724 -0.720 -0.455 0.524 103 52 39 0 0
0.0216 2.3119 -12.5554 -0.096 0.147 0.985 115 50 35 0 0
-0.0326 2.2278 -12.5204 0.621 -0.043 0.783 117 51 35 0 0
-1.2692 0.3698 -12.5385 -0.433 -0.361 0.826 131 54 33 0 0
-1.8399 -0.4744 -12.7249 -0.520 -0.138 0.843 83 17 5 0 0
-1.8747 -0.4269 -14.0579 -0.598 -0.717 0.357 79 16 2 0 0
-1.8719 -0.3586 -14.9156 -0.829 -0.548 -0.112 118 65 43 0 0
-1.8717 -0.3471 -15.0633 -0.926 -0.367 0.087 116 60 41 0 0
-1.8781 -0.3542 -15.0992 -0.886 -0.426 0.182 103 53 39 0 0
-1.8990 -0.3814 -15.1544 -0.983 -0.183 -0.009 104 53 39 0 0
-1.8937 -0.3345 -14.9228 -0.842 -0.526 -0.117 121 66 44 0 0
-1.8910 -0.3149 -15.1255 -0.863 -0.504 0.032 103 54 39 0 0
-1.6729 -0.0257 -12.5579 -0.506 -0.687 0.522 127 45 24 0 0
-1.6862 -0.0443 -12.5765 -0.499 -0.633 0.592 127 44 26 0 0
-1.6965 -0.0581 -12.6000 -0.499 -0.633 0.592 129 46 28 0 0
-1.9195 -0.2197 -14.7333 0.136 -0.962 0.239 41 43 45 0 0
-1.9455 -0.2227 -15.1717 -0.766 -0.620 -0.171 102 51 35 0 0
-1.9637 -0.2286 -15.4357 -0.732 -0.659 0.174 113 56 45 0 0
-1.9779 -0.2441 -15.5072 -0.586 -0.467 0.662 110 62 44 0 0
-1.7739 -0.1237 -12.5895 -0.550 -0.274 0.789 122 43 23 0 0
-1.9702 -0.4056 -12.7840 -0.082 -0.937 0.340 106 56 43 0 0
-1.9657 -0.2695 -14.3074 -0.681 -0.724 0.107 108 60 48 0 0
-1.9763 -0.1962 -15.3622 -0.733 -0.626 0.266 112 61 45 0 0
-2.0014 -0.2216 -15.5121 -0.577 -0.454 0.679 114 65 48 0 0
-2.0466 -0.2858 -15.5673 0.209 -0.937 0.280 85 43 35 0 0
-1.3602 0.5518 -12.5017 -0.364 -0.449 0.816 129 51 31 0 0
-1.7961 -0.1045 -12.5918 -0.507 -0.487 0.711 120 42 22 0 0
-2.0343 -0.2461 -15.1409 -0.315 -0.932 0.181 100 51 39 0 0
-2.0004 -0.1838 -15.2641 -0.638 -0.756 -0.146 112 60 44 0 0
-2.0191 -0.2070 -15.3250 -0.331 -0.942 0.044 118 64 49 0 0
-2.0516 -0.2405 -15.5098 0.211 -0.383 0.899 105 58 43 0 0
-2.0714 -0.2699 -15.5177 0.211 -0.383 0.899 97 53 42 0 0
-1.4001 0.5465 -12.5169 -0.480 -0.637 0.603 129 51 29 0 0
-1.7964 -0.0522 -12.5906 0.155 -0.646 0.747 124 46 26 0 0
-1.6045 0.3652 -13.9890 0.864 -0.376 0.334 10 4 4 0 0
-2.0909 -0.3714 -14.0603 0.021 -0.327 0.945 107 49 31 0 0
-2.0589 -0.1945 -15.4990 -0.380 -0.707 0.596 114 66 50 0 0
-1.6559 0.3344 -13.8934 0.866 -0.363 0.345 28 24 25 0 0
-2.0455 -0.1499 -15.1257 0.500 -0.282 0.819 122 62 47 0 0
-2.0984 -0.2230 -15.2131 -0.867 -0.489 0.097 115 60 42 0 0
-2.0866 -0.1794 -15.4945 -0.318 -0.531 0.786 109 61 46 0 0
-2.1044 -0.2007 -15.5588 -0.168 -0.964 0.207 97 54 40 0 0
-2.1204 -0.2448 -14.7220 -0.588 -0.806 -0.072 62 43 43 0 0
-2.1297 -0.2473 -14.8499 -0.759 -0.553 0.343 103 54 40 0 0
-2.1162 -0.1578 -15.5898 -0.833 -0.467 0.296 97 54 39 0 0
-2.0857 -0.3307 -12.6595 -0.197 -0.551 0.811 68 12 3 0 0
-2.1426 -0.2172 -14.7771 -0.615 -0.772 -0.159 101 59 46 0 0
