ply
format ascii 1.0
element vertex 697
property float x
property float y
property float z
property uchar diffuse_red
property uchar diffuse_green
property uchar diffuse_blue
end_header
2.6117435885516302 -2.4930140123390387 -14.032930838241633 111 52 40
2.4765191760506875 -2.4260824473182723 -13.97118887146064 112 50 40
2.41516687950757 -2.3956851622498325 -13.966574627854001 111 49 39
2.3727524078692923 -2.3746537935361505 -13.97660284998775 112 49 39
2.277101448349165 -2.327294654609842 -13.94473541354272 112 49 39
2.3072262173384788 -2.3421374584578416 -14.011578614853807 111 49 39
2.246541420991912 -2.3120709894038396 -14.006936530625776 110 49 38
2.0979689903702896 -2.2385410777661674 -13.932477600516261 111 48 38
2.06576485696983 -2.2225599945078 -13.949895028106752 110 47 37
2.0479368808659437 -2.2136884244271755 -13.978723746501503 110 47 36
2.0161032913576156 -2.1978906638617985 -13.996376105826839 111 47 36
1.8352574385024774 -2.1084027289727896 -13.894491661690022 111 47 36
1.4382171807680173 -1.9115696465707988 -13.956519244131261 111 47 35
-0.9235097943408315 -0.7428330259124112 -12.691215759216373 108 51 38
-0.9817333943283169 -0.7139956736290933 -12.67917605552023 108 51 37
-1.0582243917414003 -0.6761265916703394 -12.65096593528849 106 49 36
-1.1087077948639967 -0.6511167926561199 -12.645261631319777 105 47 35
-1.2073069851333758 -0.6023175322260004 -12.597083123826234 107 48 36
-1.2471324574862335 -0.5825778281591549 -12.600327029891904 109 49 35
-1.283968054473311 -0.5643165140381092 -12.606106792913526 109 49 35
-1.3290041658199874 -0.5420008589433396 -12.604517446643515 108 49 35
-1.4054667935925744 -0.504147729910857 -12.574827314171777 106 48 36
-2.5730231541290793 0.07431595620888753 -12.48105795502784 143 65 35
-2.6073112602414223 0.09131339556538265 -12.4856945752643 145 68 35
-2.574769082209836 0.07532400398396533 -12.592666068092177 145 81 54
-2.6059423561203205 0.09078176973821828 -12.600337653155398 156 100 70
-2.6254724763279587 0.10048418708123696 -12.619281570984793 156 105 78
-2.6437008657427876 0.10954314741501658 -12.639488806822058 145 102 81
-2.661928470215776 0.1186017176223304 -12.659695145924402 145 107 92
-2.6942435489237226 0.13462361936129774 -12.666049082250286 147 110 96
-2.7185971650999106 0.14671015285638944 -12.680170866903252 139 104 93
-2.7477786467739307 0.1611829812091954 -12.68948097287625 128 100 91
-2.7728036725142218 0.1736012668997584 -12.702848442760938 122 95 90
-2.7982630356083016 0.18623418294132543 -12.715742488947033 120 93 86
-5.123417335974339 1.341277007585267 -14.911412264122362 79 23 13
-5.125465148868255 1.3423456458777294 -14.953478849840458 81 23 13
-5.126120985285844 1.3427271834536498 -14.997650693276615 81 24 12
-5.142081816648882 1.3506654196483148 -15.020175611278088 81 24 12
-5.186059068543133 1.372436037983824 -15.002712117787773 81 25 13
-5.189142417930816 1.3740163136389576 -15.04358820206327 81 26 14
-5.258564538278278 1.4084651457843225 -15.08002123135839 81 35 24
-5.267462914616898 1.412975067127578 -15.158401769765966 92 45 35
-5.265994999242752 1.4123090566912164 -15.206385737988018 97 51 44
-5.257030634777212 1.4079424106217067 -15.26549298600255 104 60 57
-5.261232013752714 1.410075648918327 -15.305526823975518 108 70 65
-5.262121720133405 1.4105741675882628 -15.35054761780907 112 78 72
-5.269543773371465 1.4142976532576932 -15.386080507567234 115 81 77
-5.282208349596253 1.4206092659999676 -15.413948678945808 114 84 80
-5.291319315847104 1.4251666891363945 -15.447133765673867 111 84 80
-5.300262995141145 1.4296416291744798 -15.480643960466523 110 85 81
-5.323616324976725 1.441229860477022 -15.492727121350937 110 87 84
-5.318165735005363 1.4385994021587938 -15.547875846021523 108 86 84
-5.313980280045246 1.4365937158414832 -15.601331596734713 107 86 84
-5.3165565623195965 1.4379260347052432 -15.644802195723116 111 93 91
-5.3135191003614 1.4364874830816938 -15.696887278095382 109 91 89
-5.317145488986063 1.4383385303945966 -15.739066573601868 111 92 88
-5.306906982410379 1.4333459393257852 -15.802437607585139 114 95 91
-5.307011672464626 1.43345908392488 -15.850303496357881 124 105 102
-5.306871281152952 1.4334514651280292 -15.898706064867797 128 111 107
-5.317851022774852 1.4389328349829786 -15.930229540463856 130 114 111
-5.319845688716112 1.4399794039720124 -15.975630446633561 129 112 111
-5.326709077551368 1.4434292533561397 -16.013671591972088 126 110 109
-5.326372395475343 1.443325484313212 -16.062950637459025 129 115 114
-5.310907428157788 1.4357551300441833 -16.135864771863194 124 109 109
-5.315620626014637 1.4381443047745783 -16.17769876257512 122 105 105
-5.3298169119833325 1.4452140546636376 -16.204861332062787 121 106 106
-5.238805392602177 1.4003587599974479 -16.396709352672126 118 108 108
-5.117730427997461 1.3406672001132063 -16.63676652010192 121 114 114
-5.128745800947564 1.3461686424541748 -16.670177077269006 127 122 120
-5.00936928299331 1.2873178769111662 -16.90955251592599 134 130 128
-5.034467339656387 1.2997704322991042 -16.921419249577756 140 137 134
-5.076318612650157 1.3204909239355804 -16.90661544884122 146 143 142
-5.1048113080357576 1.3346185217756754 -16.912877133203246 150 149 148
-5.125900117602806 1.345092142890282 -16.930878601422435 157 156 156
-5.251034462190693 1.4069121589973927 -16.782096581600356 164 163 163
-5.280011869639826 1.4212780571783599 -16.786874443456053 170 170 170
-5.2451114310873255 1.4041209278857822 -16.894549575336036 175 175 175
-5.232375672529325 1.3979023104322148 -16.966897061058198 179 179 180
-5.258081774366685 1.41065417418507 -16.977194170720182 183 183 183
-5.280548413994676 1.4218073791273147 -16.992694565898592 186 186 187
-5.494987764606463 1.5278893656389312 -16.849214886952264 193 193 196
-5.497071578430818 1.5289839060329111 -16.897580066008413 194 194 196
-5.481299664580249 1.5214020698240933 -17.080363418215118 198 198 200
3.1930955158373955 -2.7402404840549153 -13.941761883340357 213 213 215
3.2115206783658836 -2.749208957912017 -13.999083989378073 212 208 211
3.182599408937678 -2.7348615696265313 -14.020988878132528 201 202 201
3.101433992060697 -2.694787282600343 -14.00345846595827 187 177 168
3.0051730285144984 -2.647280111714466 -13.974240604793339 148 113 93
2.931518246595849 -2.6109056279083536 -13.961842142874481 159 106 74
2.8453165872270514 -2.568353366384872 -13.939659444800487 146 91 66
2.7806770125400666 -2.5364193053658126 -13.933647162412147 118 64 49
2.5864259306097166 -2.44066377565173 -13.828182866867511 109 55 43
2.572960486262782 -2.4338259185194575 -13.903814800004177 110 52 41
2.5913248404589355 -2.4427643412391147 -13.961135326816628 110 51 39
2.506591688317104 -2.4009384267711598 -13.938734190408105 110 50 39
2.460318923154346 -2.3780503933776496 -13.945943409721608 111 50 39
2.41509503401166 -2.3556790701930783 -13.953859003037172 112 50 39
2.3688675388477254 -2.3328138596239496 -13.960882606731811 111 49 38
2.3465935362202455 -2.3217427662817984 -13.986585785863035 110 48 37
2.271214802707952 -2.2845250958153756 -13.970503022422314 110 48 37
2.2459920629789645 -2.2720024833787473 -13.993754432525613 110 48 37
2.2036872645743397 -2.2510695993935865 -14.003469776981337 111 47 37
2.1542373907573866 -2.2266191275202463 -14.007416938612284 111 47 37
1.525785566544588 -1.9159824073739853 -14.015694768260342 111 47 35
1.4083320550712406 -1.8579572450758586 -14.004476507016737 111 47 35
-0.789487485145357 -0.7747734180421089 -12.717877321748558 107 50 41
-0.8512351058762633 -0.7442895584911906 -12.703229873901481 107 50 40
-0.9155232852863415 -0.7125558566572141 -12.686158948416558 107 49 37
-0.9961541363446296 -0.6727795661753511 -12.654625286718353 106 48 36
-1.0446925817297785 -0.6487983172254523 -12.650803512414495 105 47 35
-1.1154443588649476 -0.6138852826231236 -12.62737168679202 105 47 36
-1.165407164068089 -0.589203926830014 -12.621936250388071 105 47 36
-1.2106276123493993 -0.5668568208908156 -12.620518762673747 106 48 37
-1.2574893426376121 -0.5437023289136063 -12.617514087691372 106 48 37
-1.3106851508985207 -0.517431070827665 -12.608749283052568 105 47 35
-1.361769424018549 -0.4921993583582349 -12.60168206802943 105 47 35
-1.4171918151880796 -0.46483324009705207 -12.590577776636877 105 47 35
-1.4686648898160959 -0.4394110438417913 -12.582812503679328 106 48 37
-1.5196393027490203 -0.4142346519290434 -12.575321926833645 106 48 37
-1.5711551341547914 -0.38879224661897727 -12.567173746878812 105 47 36
-1.6546106424204199 -0.3475416157954794 -12.568067767776181 105 47 36
-1.721664450489401 -0.3142707735934318 -12.6215481268572 106 47 37
-2.407086480375825 0.024154440558496137 -12.476696950130306 116 50 35
-2.4510078189378195 0.04585298424742135 -12.472598445048042 117 49 35
-2.4844986272744976 0.062419821056810765 -12.47830543400121 117 49 33
-2.7770114717040624 0.20704096804824523 -12.496795877218618 138 68 42
-2.8171536161670243 0.22687747283548365 -12.495124032840351 136 69 43
-2.8404332532405787 0.23841921418138234 -12.509886979000672 146 82 52
-2.910100138774464 0.2731418505041183 -12.62979571505479 128 89 71
-2.9256589109248354 0.28088597984995656 -12.652218579846764 123 93 85
-2.9359888035059605 0.28605837589414107 -12.679896175016268 117 95 88
-2.9364382702650147 0.286371373254374 -12.71755136883106 115 93 86
-5.304039462386165 1.4625125709390097 -15.178675793911056 81 24 17
-5.298341726967682 1.4598273139081277 -15.232929018395314 81 26 18
-5.309535123027205 1.4654312493302937 -15.262574108085566 82 30 21
-5.309347542781099 1.465450640631891 -15.309041086836846 83 33 23
-5.3224937277832085 1.4720131856029508 -15.335962853481778 84 39 29
-5.33631000518342 1.4789046286134184 -15.361931333206943 84 44 34
-5.345268980895097 1.4834128147691255 -15.395153028761449 86 49 39
-5.3391726963626445 1.480534160891405 -15.45089383170933 91 53 44
-5.346347317543818 1.4841673857008826 -15.487003947349573 91 54 47
-5.350078963916158 1.4861115774040776 -15.528370519128723 92 59 51
-5.367810178189502 1.4949246603124777 -15.548807403127423 93 62 55
-5.368038695424813 1.4951506070424307 -15.59564590144674 94 64 58
-5.3747162237594654 1.4985408641349904 -15.632885081594978 97 67 61
-5.36207855302805 1.4924553966169354 -15.699532433691164 100 70 63
-5.363532748895555 1.4932838567180582 -15.745008499882701 102 72 65
-5.362227902830296 1.4927591595415532 -15.794844536197521 102 74 68
-5.37848689604043 1.500851064081238 -15.817966242233343 101 75 70
-5.376597061023042 1.5000400498837871 -15.868970292003448 102 76 72
-5.374210436567873 1.498985777064246 -15.92092066764826 101 77 73
-5.358678870093511 1.491483958435929 -15.993361579633413 105 84 81
-5.32743858681057 1.476277452035613 -16.090447054915508 106 86 83
-5.290022606760134 1.4580428123291842 -16.197583452108887 111 91 88
-5.320789070181668 1.473252712977458 -16.198975738251953 110 93 90
-5.339395441537386 1.4824979784486105 -16.21925925721857 108 98 96
-5.278361458267763 1.4526816507665785 -16.364395527297148 110 105 102
-5.021942321675914 1.3270378266291627 -16.81750171869019 116 111 108
-4.989864431917801 1.3114288763601296 -16.919374252080644 124 120 117
-5.031822787685561 1.3321314799007213 -16.904614002962962 133 128 125
-5.05906694458145 1.3456172828237056 -16.912981106552504 140 134 134
-5.086738993261749 1.3593127408055596 -16.9205882377904 144 142 141
-5.120955442435565 1.3762174137563825 -16.917666631832237 150 148 149
-5.146292823944032 1.3887674830680101 -16.92881235798597 158 156 157
-5.2130700177568245 1.42176334933635 -16.92498527308732 171 171 171
-5.250402388842796 1.440194644226389 -16.916490963457814 176 176 176
-5.26900988330693 1.4494437905610802 -16.938153003817952 181 181 181
-5.494362215512628 1.5605621589437844 -16.828886193611083 192 192 194
-5.514890751433214 1.5707515911686851 -16.84673385222247 193 193 195
-5.505281002889281 1.5665430870405452 -17.07105280589385 198 198 200
-5.619203079386015 1.6226424435625337 -16.985071862198588 200 200 202
-5.639149840566498 1.6325465827172736 -17.003853468683367 201 201 203
3.219657943242346 -2.712521446059273 -13.905738601129357 213 213 215
3.2411570514402976 -2.7227545702872584 -14.00877443713607 211 205 208
3.1500464939312653 -2.677928160771452 -13.98398752604933 197 192 186
3.0638232422143874 -2.635499064835714 -13.962573527024011 161 137 119
2.9771834804875645 -2.5928667851746328 -13.940555465106403 148 97 71
2.893539717590575 -2.5517044105652325 -13.9205169074671 166 106 76
2.8104321445863283 -2.5108059036313053 -13.900606683346194 132 77 56
2.7007664601860686 -2.456887981317479 -13.860159029713024 114 58 44
2.6361444407225694 -2.4250542565989015 -13.853774565859457 109 52 41
2.6175740441467577 -2.415797772090677 -13.88253811399555 109 51 40
2.6097069421259453 -2.411788364867305 -13.919559144477397 109 51 40
2.6458760451340977 -2.429366494147658 -13.990648802319942 109 51 39
1.2353748777810258 -1.7343933733123527 -13.890857000850371 110 47 33
1.1628681770786695 -1.6987133237232772 -13.873033283150892 111 47 35
1.1379978882471997 -1.6863763164646657 -13.894714772932277 111 47 35
1.017916608886905 -1.6273862140641067 -13.836678207864637 113 49 37
-0.8026719336064705 -0.7339488573646855 -12.694529507933854 104 48 36
-0.8320210647159687 -0.7194335064835207 -12.707868703593569 105 48 36
-0.8926018474004618 -0.6896182613262778 -12.69406518711023 105 47 35
-0.9995806156624729 -0.637074276915033 -12.639683395892702 105 47 35
-1.0435730172221938 -0.6153871437785365 -12.63980964159514 105 47 35
-1.0852076391768701 -0.594855454362976 -12.641870811742873 104 45 35
-1.1348867123335484 -0.5703835759341553 -12.636754241555849 103 44 35
-1.1830220795036963 -0.5466684366333183 -12.632837662351236 103 45 36
-1.23486619861895 -0.5211371575731556 -12.625494902964597 103 45 35
-1.2707168305196985 -0.5034405101696149 -12.632143662814102 104 46 34
-1.3044558648349023 -0.48677847198235025 -12.640579367543687 104 46 34
-1.3639613604997853 -0.4574961084030347 -12.625984844455553 105 47 35
-1.4183704330514155 -0.4307107195167845 -12.615729986023357 106 48 36
-1.4761074499813285 -0.4022960058839331 -12.60230558281307 106 47 36
-1.4548426433576758 -0.4125754778988908 -12.659673990027386 105 46 35
-1.5102583704169863 -0.38529838216275203 -12.648138712928219 104 45 35
-1.572006235676409 -0.3549207450450469 -12.630684585508025 104 46 35
-1.5597459696878166 -0.360789478358172 -12.680102087619533 104 46 35
-1.6147227417319066 -0.3337288534464222 -12.668543772271866 104 46 35
-1.6588873165289115 -0.31196399622773696 -12.666652248075174 104 46 35
-1.7028950183311302 -0.29027644809146347 -12.664767414354028 104 46 35
-1.7794790806446885 -0.25263631570599765 -12.632860834427081 104 46 35
-2.187801872433335 -0.05174655924329219 -12.520329194298329 104 46 36
-2.2584012431272704 -0.01704449516634554 -12.491856857706479 104 45 35
-2.6148402037541194 0.1585326778692746 -12.45389858470713 108 45 36
-2.639541140505969 0.1707580168171572 -12.467627775759818 111 44 35
-2.766774015029508 0.2334412678083857 -12.456899959262177 120 47 33
-2.8022279378708346 0.2509291766036241 -12.45983122532801 122 47 35
-2.837082413243931 0.268123299084603 -12.463247781408171 126 49 34
-2.8583261733758336 0.2786548118550982 -12.479922330080615 126 49 29
-2.8865319928705357 0.29259401532839346 -12.489724513410529 129 53 29
-2.9625949544882095 0.33009023299514095 -12.489693226200789 144 73 41
-2.982339286598757 0.33988714902093253 -12.507656624675956 147 74 40
-3.005328073926896 0.3512719720912121 -12.522376969762732 146 77 43
-3.0347773492586 0.36581860888661466 -12.53061427844509 151 95 60
-3.060122756535084 0.3783565068020216 -12.542892601532696 154 108 78
-3.0868184562841163 0.3915550825979024 -12.553769111108434 150 106 81
-3.1109038859608926 0.4034760179189185 -12.567221622707525 140 96 74
-3.13498160914399 0.41539304549674805 -12.580643458984323 130 87 72
-3.162499861891197 0.42899363914914423 -12.5905404688065 115 80 71
-3.1835848994392517 0.4394458480603589 -12.606916131301189 112 79 74
-3.213924375937281 0.45442666166913104 -12.613838403084324 114 83 79
-3.2462178472801853 0.4703633759687522 -12.618687058769975 112 83 79
-3.261118069927444 0.47778872051963517 -12.641278370595407 114 86 82
-3.2609815120265218 0.4778563148318109 -12.679345113168502 119 94 89
-3.2727746523686614 0.483761602164011 -12.705216124341845 122 97 93
-5.023542449788236 1.3547025859840953 -14.927180304776243 74 23 14
-5.0131172436193205 1.3497744364891684 -14.986745574995496 72 22 13
-5.049346434304684 1.3676132668126826 -14.980857155467753 72 21 12
-5.371449026525714 1.5278280744552881 -15.384262977712325 80 37 31
-5.377237780957737 1.530816278211893 -15.42222862065393 82 39 33
-5.408562867960638 1.5470920039161378 -15.6574289802741 88 51 41
-5.415393902287244 1.550760083772329 -15.74225252405829 89 55 49
-5.324050293320991 1.5067408327947795 -16.027202408751855 95 69 64
-5.300485945244039 1.49542647404131 -16.112421360654878 99 74 70
-5.249478649987285 1.4709112305261351 -16.290050104370753 101 82 78
-4.991569365160759 1.3459178489718466 -16.89576085321735 117 111 107
-4.992258864270985 1.3464364280820216 -16.9461771602733 125 119 116
-5.054437577757406 1.3769222795893126 -16.89932817553499 132 127 124
-5.078849231242813 1.3890016027145546 -16.912095350541954 138 136 133
-5.115602832167887 1.407095151725588 -16.90513561188732 144 143 143
-5.138163416165008 1.4182718707463624 -16.92069818057263 153 152 152
-5.288528238750822 1.4917250212252475 -16.731271794718495 160 159 160
-5.1968462729782425 1.4472330499621466 -16.929902978242797 167 167 167
-5.197609324344591 1.4477883793005328 -16.980457991156612 172 172 172
-5.25911682615533 1.4779408235204694 -16.932896877487984 178 178 178
-5.425745374698453 1.5596717820797368 -16.81693644245867 186 186 186
-5.431829265558714 1.562818425600479 -16.858555484590504 188 188 188
-5.509376544518129 1.600961047426177 -16.83445284385146 192 192 192
-5.56193770242582 1.6267473062481166 -16.799318911999656 193 193 194
-5.579606923091059 1.6355368356672382 -16.821675342397448 194 194 196
-5.611588920411686 1.6512977563480846 -16.820246521394886 196 196 198
-5.491623737333316 1.5930515576532445 -17.072033722642004 197 197 199
-5.572365584820074 1.6325620828749932 -16.98955101890744 199 199 201
-5.614629141561734 1.6533307172218423 -16.970987088589784 199 199 201
3.218867042466224 -2.6708914189636994 -13.979582528535964 204 202 202
3.151422220145843 -2.637763643392078 -13.972520187664037 186 174 166
3.055484277732571 -2.590727814600863 -13.943800135496186 144 106 85
2.9550996667426306 -2.5415229371861106 -13.911388277050735 155 98 75
2.866329245849344 -2.497988971156002 -13.887420109772002 151 96 72
2.778178146969423 -2.4547587248586966 -13.863619678569837 117 65 47
2.6920750681880836 -2.4125295453537765 -13.841079063994837 110 54 41
2.6550433773104833 -2.3942534433497675 -13.855759390614903 108 50 39
2.593479915625041 -2.36400397989723 -13.851562185778139 108 50 39
2.5321971085117783 -2.333892343307195 -13.847399930642991 108 50 39
2.518485291268795 -2.3269993693146627 -13.879754789893955 109 50 39
2.5513877373970715 -2.3428565716726677 -13.948218125543479 110 50 39
2.1790171352162346 -2.159924731196895 -13.915556254632643 111 49 38
2.1547099395732605 -2.1478625929816832 -13.939290916046414 111 47 37
2.1782107561888857 -2.1591292746479436 -14.000907560412163 111 47 37
1.6224489542376102 -1.8863575193369273 -13.89795881042431 112 49 34
1.2542007914297004 -1.7055184413807405 -13.851205645712717 111 48 33
1.2009346326546968 -1.6793371133286077 -13.849452144996828 111 47 34
1.1583711186235588 -1.6583771243433745 -13.856439731263759 112 48 36
1.1166811959905063 -1.6378437397812722 -13.864051279592166 112 48 36
-0.7834034875392897 -0.7090689374913433 -12.699182004277837 104 48 35
-0.8506312833698573 -0.6761053872509579 -12.679814976376413 104 48 35
-0.8865110659169968 -0.6584289561847962 -12.687369777669112 105 47 35
-0.9648457965555046 -0.6200514785735183 -12.65793744864153 105 47 35
-1.0474904239658454 -0.5795739270341347 -12.624443716786026 104 46 34
-1.1152236710580485 -0.5463684817670793 -12.60366016851069 103 45 33
-1.174382962576682 -0.5173446472020069 -12.590143706587826 103 45 32
-1.2320621678651493 -0.48904341899355885 -12.57772079261011 103 45 32
-1.2745456678874536 -0.46815178732618845 -12.578501067195656 103 45 32
-1.3029913398909656 -0.4541046924254184 -12.591578128850387 103 45 33
-1.369217676985829 -0.42163881648059687 -12.571080688327452 104 46 34
-1.4239229319304467 -0.3947907739357812 -12.56058843268944 104 46 34
-1.4769911682447718 -0.3687416602697784 -12.55136875284164 105 45 35
-1.4949062794945034 -0.35983012070065223 -12.573438197988239 104 44 34
-1.3884562588156042 -0.41154354607433485 -12.70717445018092 104 44 34
-1.4485298957235866 -0.3820796922766041 -12.691617253723793 104 44 34
-1.5069763216284295 -0.35341004626833095 -12.677311015135455 103 45 34
-1.5716749020001641 -0.321693845025703 -12.657130570556966 104 46 35
-1.6359632652310259 -0.2901787397940696 -12.637077757927717 104 46 35
-1.7308841309525507 -0.24373407716567064 -12.588869950708947 104 46 35
-1.7859202454105523 -0.21673119529020823 -12.576701542874316 104 46 35
-1.8408661377968247 -0.1894171951999759 -12.640577965459322 104 46 35
-1.8778633028053289 -0.17120790070355785 -12.644598076552963 104 46 35
-1.9265758440054803 -0.1472897296148945 -12.637653363194353 104 46 35
-2.2027931895213344 -0.01179873319836977 -12.569716313449614 107 48 37
-3.1576972362532567 0.45741102681618595 -12.507539815307855 151 85 47
-3.1754812808405273 0.4662466204268956 -12.527148285000255 138 75 43
-3.2071249645708946 0.48183102846791215 -12.532724690036119 129 72 44
-3.23331438249181 0.4947592157418734 -12.543754785464497 128 76 54
-3.251446266213332 0.503763841439355 -12.56293733978967 119 73 59
-3.2800841235903713 0.5178837983751357 -12.571387188059692 117 78 68
-3.3063366976189483 0.5308420836920988 -12.582213179461371 120 86 77
-3.333626455627174 0.5443050974150061 -12.591921036374368 121 89 81
-3.3475878630251694 0.5512788279163177 -12.61529965375258 121 92 84
-3.362226298146652 0.5585822608235658 -12.637999332633164 120 93 85
-3.3804831504640855 0.5676473226101679 -12.656966342956375 118 92 85
-3.3878360989748177 0.5714041736191136 -12.68725903582225 119 94 88
-3.4312365088156938 0.592709251359069 -12.680044245088958 121 96 91
-3.433466390975589 0.5939723185034691 -12.715704014336598 124 101 94
-3.456917595099447 0.6055657756696873 -12.729210333710652 133 109 102
-3.4772074484048376 0.6156202457732514 -12.746003224418823 134 110 104
-3.4960374238723 0.6249640456730752 -12.764317558836119 130 105 100
-4.834847294402569 1.2934268298491345 -14.947677177390633 83 42 35
-4.922097811637658 1.3359718490029504 -14.872014253784485 81 35 29
-4.998897125227119 1.374279890894986 -14.989223242754871 70 21 14
-5.020358898562755 1.384901797293534 -15.004141103606742 70 21 14
-5.047998099104574 1.3985201024324803 -15.01031495720237 69 22 12
-5.063227687810637 1.4061186122881266 -15.033960767578655 68 21 11
-5.080644897476514 1.4147783026230547 -15.05452322615519 67 20 11
-5.097941402675762 1.423379458836969 -15.075259601809531 68 19 12
-5.113311378326639 1.4310462596935536 -15.098748510411156 68 19 12
-5.258775859342877 1.5072858871182913 -16.108183575610425 89 67 63
-5.013951507942317 1.3903317985148345 -16.83967150504274 112 104 101
-4.996662075943495 1.38219841422218 -16.918258236032592 119 111 108
-5.046935917539743 1.4067857843060496 -16.890252816145953 125 120 116
-5.074320695110027 1.420287687592598 -16.89828587665138 131 129 126
-5.1059889121369 1.4358633840408355 -16.89941826093742 141 139 138
-5.130819918603559 1.4481278790484309 -16.911347214154855 150 147 148
-5.165701219421856 1.4652583143054194 -16.907121409042993 159 155 156
-5.4349978031757376 1.597072946237648 -16.780652154995785 184 184 184
-5.447572812431384 1.6034000421964834 -16.811522306219327 185 185 185
-5.43282174233284 1.5965014708260599 -16.887278678945215 188 188 188
-5.532138632440602 1.6448111888736783 -16.775674753617114 190 190 192
-5.568314782815999 1.662559699149293 -16.76747696439535 191 191 193
-5.568798638482077 1.663034637068586 -16.818185050811117 193 193 195
-5.606298093416647 1.6814226912021675 -16.807615053347035 195 195 197
-5.597980785427059 1.6781258705644957 -16.97716468420796 199 199 201
3.2904135161290595 -2.6647986705178197 -14.020610621354649 200 197 197
3.1578355589587606 -2.6001083817941124 -13.964850013988453 170 146 136
3.063427497086238 -2.5539721655033065 -13.93730788984536 144 96 70
2.9656903335065232 -2.506219888679241 -13.906927547333353 160 105 78
2.8689316291908877 -2.458945120093089 -13.876945405991846 142 89 67
2.7513270898116664 -2.401541740422629 -13.830797909489268 111 59 44
2.6471876547267517 -2.3506844328948278 -13.794467903385835 105 52 41
2.546331771408944 -2.3014249464511014 -13.76027014557278 105 49 39
2.5831557143383757 -2.319071157096043 -13.831188535819368 107 49 38
2.5237665449476063 -2.2899636461198356 -13.828448313482145 106 49 37
2.4663893491889377 -2.2618347664462064 -13.827087408623115 108 49 37
2.407117026370341 -2.232785996828503 -13.824098765656966 111 50 39
2.320197495144223 -2.190304940648762 -13.799500303500626 113 50 39
2.254086838846595 -2.157936015904072 -13.790783778439756 113 50 40
2.2056819952683977 -2.1341707419065337 -13.795673686158267 113 50 41
2.130436193062974 -2.0973657344987755 -13.779439252236909 113 50 41
2.300272715076 -2.1796299621043387 -13.955291732436706 113 50 41
2.2308410307077677 -2.1456490848259024 -13.943711346574421 113 50 40
2.0893805989486554 -2.0766779154236605 -13.875040621836746 112 48 38
2.040887578270893 -2.052872342173835 -13.879423764558606 111 48 34
2.088522045720552 -2.075763608108317 -13.96003165153796 112 48 35
2.0281549853083165 -2.046190243241128 -13.954933253031744 113 47 35
1.9857502221259962 -2.025343034066439 -13.964004794653803 114 48 35
1.9138196243001335 -1.990154771906745 -13.949316414173053 114 48 35
1.8198838381242286 -1.9442796003027014 -13.916700390246113 112 48 36
1.786131189183421 -1.9276375807977215 -13.932259976386707 112 49 36
1.177573262989215 -1.6296333130303757 -13.85956016604996 112 50 36
1.1263426182852738 -1.6045124968599684 -13.859249946638613 112 50 37
-0.7491588819221446 -0.6914304660956796 -12.716715271182892 106 48 36
-0.9059907473341022 -0.6150836817794869 -12.62008646113873 106 48 36
-0.9348144391684912 -0.6008706764472285 -12.633588951753206 105 47 35
-0.9967754062381022 -0.570575033999023 -12.618265444722752 105 47 35
-1.0544599476829255 -0.5423561356245856 -12.60644652846975 104 46 34
-1.1330517220945904 -0.5039918490229416 -12.57616533675387 103 45 33
-1.1891374554282796 -0.4765514744768673 -12.565294706176044 104 46 34
-1.2683642824002526 -0.4378822473332107 -12.5338973557345 104 46 34
-1.282868959693972 -0.430622390931771 -12.559227319840376 101 43 31
-1.3080628476730372 -0.4181754390814423 -12.575131459427054 106 48 37
-1.3710397333504636 -0.3873949631164657 -12.557506902226253 108 50 39
-1.4179330502165044 -0.36441992958718306 -12.553951928925486 107 49 38
-1.4193718202598697 -0.3635006078468488 -12.590784118336709 104 46 34
-1.452257212819009 -0.34732312257181586 -12.59958167718317 104 45 34
-1.4321139179572517 -0.3568743293067005 -12.65587297074996 105 44 34
-1.5599649175525068 -0.29462329632850026 -12.57922365711951 106 43 34
-1.6335232944918205 -0.2587154412127317 -12.550985720288775 104 42 33
-1.5748795765348609 -0.2869444965002885 -12.642095940699512 103 43 33
-1.6181600225291204 -0.2657262587599467 -12.641106994880776 104 44 34
-1.7016105905100103 -0.22502229153630493 -12.603419322962484 103 45 33
-1.7639966566897654 -0.19453838306246007 -12.584616286600639 103 45 33
-1.8135053618041699 -0.1703022363761395 -12.577369422049701 103 45 33
-2.1572552616737637 -0.0018202907848956507 -12.562375686087577 105 45 34
-2.1808427561560944 0.009837966522947994 -12.578116640738124 105 45 34
-2.202644482854315 0.02063011511923607 -12.595511754362267 105 45 34
-2.335971705289568 0.08571913188793845 -12.545144222277752 105 45 34
-2.3847181850725656 0.10957396483083715 -12.53659968243053 105 45 34
-2.4717370390364373 0.15198399581425281 -12.491372105305953 106 46 35
-3.0363204615918633 0.4287023003463193 -12.466633742203573 117 46 33
-3.393699795021468 0.604250525642148 -12.51756743550071 149 94 65
-3.418202349449535 0.6163376118266328 -12.529879616038798 145 92 65
-3.424162302461119 0.6194425556853533 -12.561286694054301 143 93 72
-3.451069732705167 0.6326943229743109 -12.571078517392333 136 93 76
-3.444531313194119 0.6297460139153312 -12.615533753194011 126 92 81
-3.485334940561005 0.6497281735276477 -12.610842295135686 116 88 81
-3.4876656904266294 0.6510762408236888 -12.646181405505063 112 87 81
-3.5123257430563983 0.6632390168361022 -12.65822746783322 110 84 79
-3.541091221137706 0.6773897357588357 -12.665916827743903 113 86 82
-3.5611308052921284 0.6873143669290807 -12.682727277791827 117 91 87
-3.591016843722474 0.7020070577680673 -12.689119018384146 122 93 90
-3.6193116852636082 0.7159287877091289 -12.697119024162708 130 102 97
-3.6193242748431533 0.7161554156080994 -12.735102185868701 132 107 100
-3.633668200961104 0.7233218604806739 -12.757919752491624 130 104 96
-4.90874115228594 1.3608729177558876 -14.87326683228445 78 34 25
-4.994411781403845 1.4034925195254582 -14.978059433456558 69 22 14
-5.017190182735883 1.4147383549382602 -14.991102817594982 69 22 14
-5.0527633073538905 1.432153635434667 -14.986078556967978 69 22 12
-5.067074205349908 1.4393157991805885 -15.010949068811463 68 21 11
-5.077867783214485 1.444782220836179 -15.040831728666163 67 20 10
-5.081099793683081 1.446603289262803 -15.081518638066509 66 21 10
-5.096057313307215 1.4540780335565988 -15.105611850084674 65 20 9
-5.111317366842444 1.4616987576115792 -15.129295412685275 65 21 10
-5.124567200456749 1.4683505526926481 -15.155881783894763 65 21 10
-5.314214882392509 1.5640447101662653 -15.620084984041396 74 44 36
-5.312152149698023 1.563325895491059 -15.670518073846692 74 45 37
-5.310508995382831 1.5628101849745124 -15.720494620177167 75 47 41
-5.317066374645985 1.5662447121465202 -15.758210431683239 76 49 41
-5.317278545562879 1.5666242653546512 -15.805679140400267 77 51 44
-5.318071721144573 1.5672845172112044 -15.852421465496608 79 54 49
-5.3253802937311265 1.5710828519645035 -15.88935082723153 81 56 53
-5.293549687426663 1.5560371654920488 -15.986437177304964 84 63 60
-5.010172961891982 1.4219401521013628 -16.82482510044739 106 98 95
-5.020062469013262 1.4269966433165786 -16.860464158063856 110 105 102
-5.0451625561869955 1.4393730716535749 -16.87214272221815 122 114 111
-5.071364589644502 1.4522793933722817 -16.88201530696641 129 123 121
-5.097531147069585 1.465168241859824 -16.891874727996406 137 133 132
-5.123693270272423 1.4780545529462663 -16.901671617012596 144 143 141
-5.15378469598127 1.4928308366607843 -16.90511272386373 154 153 151
-5.427343194028313 1.6268039550335054 -16.87492511832371 186 186 186
-5.434907226583085 1.6307413751705226 -16.914234263965504 188 188 189
-5.509759331206268 1.6670325976067244 -16.842740931385624 190 190 192
-5.544329114843189 1.683953365611519 -16.837287391838988 191 191 193
-5.568997645571508 1.6961130970147131 -16.848092564451925 193 193 195
-5.617131664054492 1.7195530176497682 -16.819807847707416 196 196 198
3.288719905089323 -2.6230260850009586 -14.006844996266086 196 190 187
3.2164298373851663 -2.587742601750155 -13.996296984346124 151 123 108
3.1055915468211994 -2.5338078558989516 -13.956548974529898 149 97 69
2.9961438063985906 -2.480548725807118 -13.917449135354932 165 109 79
2.8876858249267388 -2.4277712322467173 -13.878702450170348 133 81 57
2.7701563653360353 -2.370607358427863 -13.83268244647688 110 60 46
2.676591840768827 -2.3250411976182814 -13.804460471038622 100 52 41
2.584172828063342 -2.2800315034189267 -13.77678605203686 99 48 37
2.5254917815464832 -2.251346042965517 -13.774613510872264 103 46 35
2.5293586494755482 -2.2529206263824797 -13.820294543100601 104 46 34
2.478922906384633 -2.2282251988334565 -13.824280350478263 106 47 35
2.4292457910175154 -2.2038976523167833 -13.828721832279633 108 48 37
2.3318324279980045 -2.1564798708696826 -13.796053827124867 111 48 38
2.2854683723554032 -2.133757413267711 -13.802703395617588 112 50 39
2.218301545344885 -2.1009736353373167 -13.793026466748081 114 52 41
2.2295049249052656 -2.106096970749161 -13.844403768181126 115 52 42
2.2435884732542775 -2.1126122353800536 -13.898196233634264 115 52 42
2.0931494772027452 -2.0395563659119906 -13.822771133763814 115 52 42
2.0545819389755478 -2.0206085562482015 -13.83498569093198 115 51 40
2.0536383374913543 -2.019856555472933 -13.876889450536009 115 52 38
2.001670991549789 -1.994429167050293 -13.878403338845754 116 52 39
1.9685749728224655 -1.9781284829693981 -13.894795313361325 116 50 38
1.919355181449137 -1.9540313640947653 -13.89826260449425 115 49 37
1.8732710171612554 -1.9314513565401825 -13.90411056971494 115 49 35
1.7658242012728849 -1.8792017059789985 -13.860561984264944 114 49 35
1.7160003355287037 -1.8545209941647567 -13.905594431749641 116 51 36
1.1492563454201932 -1.5776082063452428 -13.865486611415392 116 53 38
-0.7828666788247158 -0.640866759213935 -12.675779959369443 107 49 37
-0.9009536671642326 -0.5835494549420361 -12.612557517411972 107 48 37
-0.9671559215072936 -0.5513009952029679 -12.593713140888369 106 48 36
-1.1024964125164853 -0.48565497443144223 -12.514643201412865 105 47 35
-1.104663935003316 -0.48434378700774694 -12.550859822008915 104 45 34
-1.2475180970203645 -0.4148113487770255 -12.502303280538662 110 52 40
-1.303663981772071 -0.38742888519079055 -12.491033443858944 107 49 37
-1.3206854754395714 -0.3789444377603499 -12.514019123638056 104 46 34
-1.347424356861051 -0.36576670499927455 -12.528432478388861 107 49 38
-1.369380305714908 -0.354899194181983 -12.547040591379657 101 43 32
-1.4084255128546905 -0.3357787908478991 -12.550451330972853 105 47 36
-1.3844633442997445 -0.34708647368393986 -12.609891408622413 103 44 33
-1.4085470075126887 -0.33519131505251987 -12.626623742351644 104 43 32
-1.4282080599824978 -0.32543194356959226 -12.647291717957042 105 43 32
-1.5499593202914612 -0.2663770702227013 -12.576192764719885 105 42 32
-1.5455939114315296 -0.2682206728353176 -12.618240677464616 104 41 32
-1.6228574097873771 -0.23065088882204288 -12.586607152226716 104 41 32
-1.6681369710417728 -0.2085253449110689 -12.583664804988178 103 42 32
-1.728703354915397 -0.1790204801834543 -12.566677357372967 104 44 33
-2.790002133039118 0.3396592190453991 -12.509743385597421 105 45 34
-3.055085788315796 0.4690548104729928 -12.472942838674541 111 47 31
-3.092296742515936 0.4872564486443529 -12.47323141981503 113 47 30
-3.4668701679439664 0.6704160110356059 -12.467189689724385 140 66 36
-3.4777961508756077 0.6759407336926297 -12.493284014122327 138 68 37
-3.5089847463806416 0.6912307717478525 -12.498462233701506 144 80 49
-3.5151063428520484 0.694440341322272 -12.529553616357017 150 92 65
-3.522921834461827 0.6984666326968643 -12.558949846622795 154 101 77
-3.542575834203512 0.7081978448530275 -12.576053389422047 147 100 80
-3.571184631233181 0.7222437423443973 -12.583773638127594 135 94 77
-3.6051394900410774 0.7388649975720747 -12.585815205161243 124 88 77
-3.6457589867474978 0.7586965576129718 -12.580741348048631 115 82 75
-3.681010192769956 0.7759408008543409 -12.581189364396757 112 80 74
-3.6867245289814425 0.779478616139246 -12.68836379967019 115 87 82
-3.690427637775495 0.7815254334191266 -12.722356714365665 119 94 89
-4.891496081545898 1.383916932549221 -14.879876159681732 77 33 24
-4.959608802047997 1.417505511893499 -14.919557844745393 72 25 16
-4.975188859806664 1.4255968768959837 -14.98753760838748 68 21 13
-4.975374827346469 1.4259982682051109 -15.032318374838088 68 21 13
-4.999808662821634 1.4380235870842433 -15.043121006824084 68 21 12
-5.033324635501818 1.4544016764945065 -15.041050049434055 70 23 14
-5.03794340231269 1.4569289821263323 -15.079752181115571 70 23 13
-5.059479530956335 1.467564720041994 -15.094546066741383 67 21 12
-5.083104889445434 1.4792014437032357 -15.106333309071408 65 21 11
-5.108484358031344 1.4916783828336506 -15.11556608265031 64 20 10
-5.120764665346847 1.497878215425558 -15.143495084029958 64 20 10
-5.17577321186301 1.5261395938920788 -15.339251785009658 63 19 12
-5.188736068719841 1.532669135048851 -15.366586180756139 63 20 13
-5.1851331297779195 1.5312651287202472 -15.418252361607697 63 20 14
-5.2030062277310725 1.5401472507236669 -15.438520406147632 61 22 15
-5.219411595841944 1.5483265194688434 -15.460952788337867 65 29 22
-5.24535473173787 1.561072923390825 -15.46928813804162 70 36 29
-5.285777611316334 1.58075185519096 -15.456069264983935 70 36 29
-5.2726222450722675 1.574777337434476 -15.522379713549238 70 39 31
-5.276399628202941 1.576911213182902 -15.5636906944162 70 40 32
-5.281320389304009 1.5795933018388846 -15.603414062598954 71 41 33
-5.30404151991805 1.590796972399089 -15.616528260962596 72 42 34
-5.307996555684304 1.5930178532668822 -15.657856027121468 72 43 35
-5.311962164770427 1.5952446534876308 -15.699291694758475 74 45 39
-5.315938529519098 1.5974774636880564 -15.740835472185925 75 48 42
-5.326846485943469 1.6030283385195419 -15.771974094839564 76 50 44
-5.332356114977201 1.6059963836698974 -15.81140102481829 78 53 48
-5.327216368174532 1.6038694827598428 -15.867214175052457 81 56 54
-5.289255861604232 1.5860403370687854 -15.973540824279219 84 63 60
-5.069877932246833 1.4849132051986866 -16.86345567690578 124 118 116
-5.095710725965949 1.497619609363341 -16.873805912861144 133 129 128
-5.116365838988968 1.5078503618897923 -16.892337878686803 141 140 138
-5.247101062231394 1.5728441401927027 -17.044093721937504 179 180 179
-5.420486759430548 1.656403423514214 -16.86485533984047 184 184 184
-5.444847892223396 1.6683993268491042 -16.876544088628897 186 186 188
-5.473536702283755 1.6824620839360667 -16.88105124609391 188 188 190
-5.5199278307411 1.7049796030149378 -16.856228114081166 189 189 191
-5.55141798036616 1.7203783135310422 -16.855807116390316 193 193 195
-5.596428981757136 1.7422333875149425 -16.832796667753684 196 196 198
-5.639769305652867 1.7632888021318087 -16.812304589699945 197 197 199
-5.537277924342031 1.7150697529394168 -17.087654962651534 199 199 200
3.319466509480753 -2.5969567460656924 -14.017318490788863 189 179 173
3.250639131029372 -2.5634459408789967 -14.009429390888961 141 106 88
3.1439887462978184 -2.511715475977815 -13.972926223715763 154 98 69
3.0415284080138463 -2.462006567973744 -13.939198828410259 158 102 74
2.9117431859459826 -2.399137752807164 -13.884462127803362 127 74 52
2.790579760141327 -2.340425977875192 -13.83577052246401 119 65 47
2.707736720747268 -2.300175967622481 -13.815757491617621 110 59 42
2.614671692664265 -2.255004661143338 -13.787673588553801 99 50 35
2.5735068304381237 -2.2348332711301904 -13.798956367830595 99 46 34
2.532722952969669 -2.214846069815798 -13.810444844186723 102 45 33
2.489274340840325 -2.193576205686459 -13.819797990073866 104 46 34
2.426155188160049 -2.162834073004434 -13.813873327156562 105 46 34
2.334849036117544 -2.11851953327573 -13.785941171812862 107 46 35
2.286655366929822 -2.0949683358957207 -13.791158558917981 110 49 37
2.21975762172657 -2.0624115506270715 -13.781689511386428 113 51 39
2.2178487066632337 -2.0611492727069054 -13.82277057717635 114 52 39
2.1651063051539 -2.0354103223270634 -13.824123691535352 114 52 40
2.0889796308607087 -1.998413640755166 -13.806958506372402 115 52 41
2.0517625856800707 -1.980152202632986 -13.820203635691124 116 52 41
2.0058761395026723 -1.9577175919759142 -13.826524031408091 116 53 39
1.9459570249505358 -1.9285283473504609 -13.821605472117781 117 53 40
1.8819212357132082 -1.8973588030333048 -13.813232941140775 118 52 40
1.866479393833341 -1.8895828959528105 -13.843418985655514 118 52 39
1.836813172068248 -1.8749597208577156 -13.862256402174808 117 51 37
1.8113348842659152 -1.86235265962308 -13.884417078937314 117 51 35
1.73860313319872 -1.8270017308390323 -13.868531128112586 117 51 35
1.6898973932802743 -1.8032164918970537 -13.871794397808523 117 51 35
1.5964102140073981 -1.757537765511988 -13.881118178783423 117 49 36
1.1123807054491301 -1.5219019605567892 -13.821989592287874 117 52 36
-0.630628770120663 -0.6805574610462184 -12.717040719669638 110 51 40
-0.6908975740133565 -0.6512616373082347 -12.704181183595345 109 51 39
-0.7790626608873179 -0.6085526872584142 -12.667146857047392 108 50 38
-0.8656590207585388 -0.5666008978420727 -12.631114233967548 107 49 37
-0.8970578574396679 -0.5511930611506028 -12.642442887935072 107 47 36
-1.095223705160353 -0.4556008907511997 -12.509153633937437 106 46 35
-1.186966134658177 -0.41118437626145643 -12.467468507884709 105 45 34
-1.3146674073747384 -0.34856869878645247 -12.50745384514223 110 52 40
-1.330701064033696 -0.34055518831616194 -12.531301232443045 107 48 36
-1.3633317177939643 -0.3245638209267867 -12.540476349858789 100 40 29
-1.3772787281397836 -0.3175533822880725 -12.566160813873992 104 44 33
-1.3238183830893968 -0.3429408548950965 -12.65187058138396 104 44 32
-1.3693099411329666 -0.32076794182148793 -12.649621243250966 105 43 31
-1.405603351206807 -0.30301669033315193 -12.655467504156151 106 43 31
-1.5399584372729995 -0.23814086295190595 -12.573162104503094 107 42 30
-1.4842096849543163 -0.2646237600038077 -12.661461778853205 105 41 31
-1.569045801837417 -0.2235488655954163 -12.62316622076669 105 41 31
-1.60890780626739 -0.20408704639765674 -12.625263798423417 105 43 32
-1.6751968303176978 -0.17192841430170214 -12.60323642012099 105 44 33
-1.7264935854256764 -0.1469750358656956 -12.594616699929057 105 44 33
-2.9751045064859705 0.46136256644370666 -12.502560581912274 106 47 34
-3.542506856833212 0.7377306271271151 -12.451187584525005 127 57 33
-3.5622151228028773 0.7474803752405286 -12.468054780134992 132 62 33
-3.5770182362140863 0.754878315794334 -12.490003334925788 133 64 31
-3.595840013777588 0.7642029426604184 -12.507777874982091 140 72 38
-3.6120001082313813 0.7722515229053444 -12.528323956948533 146 83 50
-3.650684390490013 0.7910972910466336 -12.525266031706204 153 96 65
-3.6720739615737514 0.8016520728236776 -12.540257635775637 148 99 76
-3.6980625568906387 0.8144109937447837 -12.550374184202628 125 85 67
-4.986763459328091 1.463143833715208 -15.043934548397548 67 20 12
-5.022002747908952 1.4802977263782247 -15.039463670097165 69 22 14
-5.04478384926862 1.4915152418152724 -15.05246228493946 70 23 15
-5.0633795880543895 1.5007386065228943 -15.071353606679121 68 22 15
-5.086581920571447 1.5121562296099742 -15.083685774779891 64 19 13
-5.111842334396733 1.5245537645289806 -15.093036170256742 63 18 12
-5.201113331570479 1.5700126051761265 -15.330260197932443 61 20 12
-5.193030053754906 1.5665376907183126 -15.38834655690517 63 20 14
-5.215168606075969 1.5774491625591316 -15.402262769015326 61 22 15
-5.22737278382996 1.5836322439507304 -15.430776946580318 67 31 24
-5.226547241084855 1.583614911364728 -15.478592021958445 70 35 29
-5.236515977223249 1.58873547155846 -15.510572858500662 69 36 29
-5.249749272919749 1.5954099490989253 -15.537770169025343 69 39 31
-5.250037596084321 1.5959256478515806 -15.584304935764653 70 40 32
-5.261234741090762 1.6016325262246416 -15.614684373447425 71 41 33
-5.250236379474612 1.5967810310128638 -15.678405453902412 72 42 34
-5.263143437348843 1.6033030332881824 -15.706429775994877 72 43 35
-5.275975370570649 1.6097896623734904 -15.734612051295818 74 45 39
-5.285558556902432 1.6147315136191627 -15.767754783444076 75 47 43
-5.30021392301366 1.6220861774897117 -15.79327611873142 77 50 46
-5.314879392632661 1.6294458850130331 -15.818811735559994 78 52 50
-5.2209874518331345 1.5851863577422858 -16.01007331952257 81 56 55
-5.196528376198776 1.5739480547106401 -16.09605415007053 85 64 61
-4.854967232487919 1.4144174475348348 -16.975110494228367 92 83 77
-4.915989572169955 1.4438292355955764 -16.931031820608524 98 90 86
-4.932012567943551 1.451857161242228 -16.957313018619494 104 99 94
-4.965480998141646 1.4681735645242182 -16.956110956708557 114 106 103
-5.017521340126393 1.4933116077389896 -16.92539827224485 122 116 114
-5.038811391730522 1.5038401287888021 -16.94315494613734 130 126 125
-5.075175673389463 1.5215284549472141 -16.936904264941102 139 138 136
-5.1380361403859105 1.551799642317956 -16.88820382965499 150 149 147
-5.297239411336381 1.6290565171040918 -16.83815311352159 174 172 173
-5.340302765255114 1.6499155346095993 -16.81984798851754 175 174 174
-5.289583031004704 1.6262527342643653 -16.953672444965118 177 177 177
-5.299716822005292 1.6314808486442116 -16.989008209310988 180 180 180
-5.400576329964917 1.6797710526672933 -16.876144464721797 183 183 183
-5.459415572585794 1.7081122282024057 -16.831360385759556 185 185 186
-5.469053902577523 1.7131017301745715 -16.86707784287757 187 187 189
-5.488283302927416 1.7226430353750741 -16.887065587188946 188 188 190
-5.506938190892472 1.7319116926532487 -16.907996613007086 192 192 194
-5.533487665904707 1.74492580113504 -16.915828595527504 195 195 197
-5.5612080927848915 1.7584947568892777 -16.921631981736986 196 196 198
3.3697802230197373 -2.580209202789292 -14.04236661745608 176 164 155
3.0840726678411947 -2.441974914789548 -13.958771552619993 147 92 68
2.9609066059713935 -2.38250796366583 -13.909163824693596 128 71 53
2.840600018398595 -2.324416520855757 -13.861263126086115 137 75 52
2.732249516104697 -2.272062631638282 -13.821996371472007 130 70 45
2.6501000699734147 -2.232276321596091 -13.802296099354129 112 57 33
2.5531344946361862 -2.18538819556679 -13.771000419145594 104 52 35
2.507260501732202 -2.1630005666218666 -13.778518022633993 100 46 32
2.4527812920997825 -2.136488098690914 -13.779311892624056 101 45 33
2.3918622421255167 -2.1068895053363716 -13.77499139377371 102 45 35
2.3378613786851927 -2.0806092438205033 -13.77584167000925 102 44 33
2.2830947075685355 -2.0539632175807614 -13.775950008626692 106 45 34
2.2155575976473196 -2.0211967934129293 -13.765970624283407 108 47 35
2.1910081864329483 -2.0090385070624412 -13.78932491585893 108 47 35
2.13796548097155 -1.9832226567924318 -13.790365800739142 110 49 36
2.096662137754227 -1.9630349089962045 -13.800477303740012 114 49 39
2.0410027823798167 -1.9359673587376471 -13.799193946536613 116 51 39
1.9927651274610794 -1.9124582236758845 -13.803613244997265 118 53 39
1.9378462432615686 -1.8857483011084273 -13.802615726417947 118 53 39
1.7990930354347983 -1.8188646719862116 -13.734853335699773 117 53 39
1.7756854459425204 -1.8072596384505213 -13.758454229456547 118 52 38
1.7465448567103676 -1.7929075547462643 -13.777465059691945 118 52 37
1.7453474487141456 -1.791944907763454 -13.818842281992858 118 51 36
1.6342809285764224 -1.7383394458096038 -13.771974514478352 117 51 36
1.6206763813141496 -1.7314330134780278 -13.803279209135365 118 51 35
1.578041892357592 -1.7106183061028677 -13.81114070513884 118 51 36
1.342058103512196 -1.5952440824231227 -13.872496480010849 117 49 35
1.1494690421548794 -1.501844123413945 -13.840023061625255 117 51 35
-0.5573592624740034 -0.6812901398459814 -12.767659871859163 112 52 41
-0.6738817768057634 -0.6251583977630524 -12.706839650470583 110 52 39
-0.6891466959087982 -0.617496517024331 -12.732444908749834 109 51 38
-0.7688444080176584 -0.5789962136516049 -12.702599552817428 107 49 38
-0.9539493225706046 -0.49005217121080014 -12.58143146912004 108 48 37
-1.2465778999850805 -0.3486190961450788 -12.479501432081086 109 50 38
-1.2640326040494179 -0.3399191581205696 -12.502133106990058 112 53 41
-1.2720344316319858 -0.3357418460089696 -12.533079627725272 113 53 42
-1.2822032209449281 -0.33052729792857916 -12.562171962405396 110 48 37
-1.3429148502145738 -0.30113273737345114 -12.54662565220801 108 47 36
-1.3460524545750214 -0.29928211036345376 -12.581910621883265 109 47 36
-1.3591681488722847 -0.29265771222946 -12.608403799156683 107 45 33
-1.3580034605390976 -0.29286372175271635 -12.64766346699044 107 45 32
-1.4853172039127864 -0.2316172759654287 -12.5720993537402 108 44 32
-1.5298789662943628 -0.20995451611289573 -12.570206412599097 108 44 31
