ply
format ascii 1.0
element vertex 718
property float x
property float y
property float z
property uchar diffuse_red
property uchar diffuse_green
property uchar diffuse_blue
end_header
-1.8521225084523554 5.45620797224216 -16.45908821490068 124 115 114
-2.95428266229837 3.0738935789388515 -12.393689465848649 120 51 33
-2.9239665089451887 3.1282899575535374 -12.37665489826685 119 51 32
-2.887399056044596 3.195799603672655 -12.381808106419655 122 54 35
-2.876123400629742 3.2175374314812712 -12.395878817940446 122 51 33
-2.8585186154530606 3.250115426063604 -12.399397912190052 122 51 33
-2.8595236772720023 3.250814608996923 -12.433875442530177 123 52 34
-2.787138622007747 3.377189539572104 -12.345694377614441 122 51 33
-2.771978876093705 3.40555118071794 -12.352901726816583 123 52 34
-2.759753817353684 3.428885143403396 -12.364983806401895 124 53 35
-2.7433282565012354 3.459405047178284 -12.369948701170031 123 52 34
-2.7700295869737204 3.4161301110559306 -12.44776666846392 122 51 33
-2.7536662132224157 3.4465476377746285 -12.452891251141649 123 50 33
-2.7416453551799167 3.4695328327431225 -12.465326982127081 123 50 33
-2.72252204644814 3.504660549030822 -12.465621765252841 122 49 31
-2.7037479868820427 3.5391839211114418 -12.466415182378897 122 49 30
-2.6776308016511967 3.586251602272842 -12.454525119991276 122 49 30
-2.6534137110771594 3.6300600129967124 -12.44573642393442 120 47 28
-2.6299275992427376 3.67260860730224 -12.43806016065001 123 48 29
-2.602721198351773 3.7215018753128115 -12.423812723872828 124 49 30
-2.5817838415878684 3.7596753411906674 -12.420253247515532 124 49 30
-2.5664751145055984 3.788229058185773 -12.426357271613373 124 49 30
-2.5507634708676914 3.817465824153391 -12.431694129610609 126 51 32
-2.5329348458712824 3.8503108044557717 -12.433262769549577 123 48 29
-2.5205482167652264 3.87386255800907 -12.444276813622071 122 47 28
-2.506450451885431 3.9003309204181242 -12.452246719889462 122 47 28
-2.4930430970329365 3.925617591031865 -12.461378519002878 121 46 27
-2.4724997917404696 3.9630704449136127 -12.45785664969032 122 47 28
-2.4360396502137434 4.027653740650173 -12.426023892772996 122 47 28
-2.4253740106277215 4.048245190925481 -12.439735093314098 123 46 28
-2.414640093817182 4.068951363692314 -12.453302398235675 123 46 28
-2.3979371903776836 4.099826880757442 -12.456186867709839 123 46 28
-2.3746523396532235 4.141909554953171 -12.44720357367772 123 46 26
-2.362706879882848 4.164667512219346 -12.458435634353183 123 46 26
-2.3488983321444987 4.19059551309752 -12.46627780864344 125 48 28
-2.3499058509457846 4.191294611450805 -12.500815314796245 124 47 27
-2.334279061352327 4.2203150030820895 -12.50533094383112 121 44 24
-2.310741369770505 4.262792956300722 -12.495414268204925 126 49 29
-2.2926670357961507 4.295964192685928 -12.49529160215948 123 46 26
-2.28437974369589 4.312479722348725 -12.5129350086033 119 43 24
-2.279729104284216 4.32281034297099 -12.537233980964903 117 41 23
-2.265402106798463 4.349596813537083 -12.54381204732592 114 38 22
-2.137388923319021 4.591329247918109 -12.635010164245688 139 56 19
-2.118463944244109 4.625870946675807 -12.632297528206564 118 46 11
-2.087962934103976 4.680035922995341 -12.60752852993719 94 26 3
-2.078297665235451 4.698857288318894 -12.622139039684166 77 15 2
-2.097316657509298 4.669054722377125 -12.691411322733106 65 11 3
-2.098039078037897 4.670280535058374 -12.725994089472794 60 11 4
-2.118862663999442 4.647377239902327 -12.93365231068649 85 37 27
-2.1154951568301072 4.655573037178923 -12.960942167607271 89 42 32
-2.0811114456147948 4.716252783803477 -12.927866708524974 88 44 33
-2.0605223941440958 4.753576719744024 -12.921459826878634 88 45 35
-2.059698174500695 4.757463931696242 -12.95363219377679 88 45 36
-2.0638386353142377 4.752962446385862 -12.995633314037505 89 46 37
-2.102234512542404 4.690563400147793 -13.105220253734991 91 48 39
-2.1025276975431195 4.692597093167703 -13.140072735053527 90 50 40
-2.1059725595493752 4.689312325459141 -13.181257523386513 91 50 38
-2.0960970056716945 4.708538724612037 -13.196125496095096 92 50 37
-2.099718577661461 4.704968967595119 -13.2378443269644 95 52 38
-2.10407669276956 4.700165125032243 -13.281162698774331 99 56 42
-2.0987616247574703 4.711700556401675 -13.305259403598953 102 58 44
-2.1061347468787943 4.701824873644624 -13.354852166011524 101 57 44
-2.1113627242933664 4.695581311395845 -13.40030005220042 99 56 42
-2.1116430502104615 4.697694812770672 -13.435914138347915 97 54 40
-2.111362180711858 4.700761798709657 -13.470488303890967 96 52 39
-2.108119911332796 4.708828525394458 -13.499144621837631 98 53 42
-2.1035961235353824 4.71905970403316 -13.525251705013124 96 49 40
-2.149026659014348 4.645108244101999 -13.653289791768284 93 46 38
-2.1468718244517992 4.651374898884141 -13.6846049402509 92 45 37
-2.1469682142353554 4.6538547340387435 -13.720607534524408 91 44 36
-2.1412556488364074 4.666124129570033 -13.744761846546506 90 43 35
-2.1270098189030655 4.692762658901473 -13.751354325695978 91 44 36
-2.1235153566037015 4.701299731866971 -13.78011063144535 91 44 35
-2.120016127063538 4.709849024477753 -13.808913934026654 90 44 35
-2.110358553070191 4.728763212697432 -13.824973728819574 84 39 30
-2.1112626118139795 4.729912202905543 -13.863034045552098 83 39 29
-2.0617437525741855 4.815857765933517 -13.795825740480288 81 37 25
-2.0594765578493464 4.822332848134686 -13.827170162254705 85 38 30
-2.1844880420549417 4.636937274077575 -14.42473080081102 68 13 8
-2.1756735257513293 4.654507416779508 -14.443549794592936 62 13 8
-2.1718597275889344 4.663694033343695 -14.473164120582924 59 13 7
-2.1582801632908444 4.68925274989146 -14.481698438210586 53 12 6
-2.1429445120216775 4.717749871633456 -14.486365740343047 44 10 6
-2.1498263811730736 4.709023225186298 -14.539308488749045 38 8 4
-2.1561621210149635 4.701224851600309 -14.591244465154764 58 26 20
-2.1587961386354397 4.699637501260806 -14.635260029454557 60 20 13
-2.1662293352782775 4.690027033877841 -14.68994124077683 63 20 14
-2.1498289234599666 4.720314607061464 -14.692383407937399 66 30 22
-2.1364433349068452 4.745551835543393 -14.701386684158269 32 8 4
-2.1429711918663195 4.737478982369078 -14.754382403237283 17 2 0
-2.178721983735564 4.680556008316223 -14.872375261597622 20 4 1
-2.167626901290495 4.7048657412185575 -14.925790436954813 53 13 6
-2.1625371585352813 4.7162603038883155 -14.953583584943317 65 18 10
-2.19076347233902 4.672009773731369 -15.056117867318045 72 19 10
-2.1903082946446624 4.6756870823033 -15.094626393327339 77 23 11
-2.2222451865145105 4.625295954928973 -15.206255749886456 80 28 14
-2.163611047681388 4.729031941024584 -15.153369457733987 88 36 22
-2.1525326014540482 4.750449159293096 -15.168001470772358 89 37 23
-2.145371610349268 4.765331721816016 -15.19153504432137 90 40 26
-2.101946957032493 4.843607520281233 -15.171996918873317 91 42 28
-1.95943173788947 5.089793848329473 -14.962785683907796 92 44 30
-1.9206904704326695 5.157194280709143 -14.912381264521581 92 44 30
-1.9220404747338222 5.157839114464434 -14.954703379975516 94 44 30
-1.9077294883096614 5.184552256773755 -14.960686065829325 93 45 31
-1.8936278006189422 5.210912120570459 -14.967088099486233 92 46 31
-1.884482941720726 5.2290238268252915 -14.985028042485627 105 57 43
-1.8871104159218741 5.227563321505589 -15.030599728267113 87 35 23
-1.889492218046843 5.226521884078469 -15.075738736646695 91 40 31
-1.8849732250407052 5.236957311444214 -15.104732912669107 88 43 35
-1.8831479783627416 5.242922186841495 -15.140157698245279 86 45 38
-1.884117641222875 5.244252361966153 -15.182305309970154 84 49 43
-1.8751754132632006 5.262047298447395 -15.200993463966139 55 27 22
-1.8704396592571453 5.272860707387603 -15.229717410442074 46 19 18
-1.8672343002405378 5.281138812171333 -15.26215636685548 47 23 20
-1.8654806731360853 5.287014312322253 -15.298151680520808 46 23 21
-1.8577310441851866 5.302839565961425 -15.319816388256708 52 34 30
-1.8555903328734253 5.309367610812986 -15.355025025500595 50 36 35
-1.8484807979255733 5.324136963627209 -15.378304539560332 52 40 41
-1.846168815679403 5.3309594515157395 -15.413242549942487 53 43 44
-1.834978028946459 5.352494473898901 -15.42667627154101 34 25 26
-1.8535780457156548 5.324698776373379 -15.512721222921755 21 13 11
-1.8608661185354733 5.315655117876298 -15.571473146766323 29 21 19
-1.8643708888002415 5.312888193550942 -15.62116565837303 23 15 13
-1.8734456298050033 5.300918827272284 -15.684717426946367 22 13 13
-1.8785307446475803 5.2955655952794904 -15.738676378407586 20 11 11
-1.8798154274052452 5.29650984384615 -15.78343092721152 16 12 13
-1.9146966120264926 5.24193359614597 -15.91159163703712 37 35 36
-1.9190577683553272 5.237831630086182 -15.964496927546058 51 50 50
-1.9125768596958101 5.251652870328797 -15.99056662658378 53 49 48
-1.9180379307718014 5.245756087673413 -16.04651242462003 50 40 39
-1.9083879961047647 5.264820321421596 -16.06479555741258 54 41 40
-1.9037800523444397 5.275562921422965 -16.09573947429513 38 23 22
-1.8908860367638334 5.299981013847566 -16.105871266589084 31 15 13
-1.8761035953051866 5.327510021144944 -16.111181580342937 26 17 15
-1.865275130774939 5.348513809107912 -16.12642987658171 39 36 34
-1.848253336064178 5.379724600357042 -16.12592470139972 40 40 39
-1.847182750303212 5.384642503259925 -16.16593534635924 45 42 41
-1.835918155373275 5.406361428050076 -16.180025049448545 58 46 46
-1.8236844907491756 5.429674047283398 -16.191603812574197 66 49 46
-1.8309160723282858 5.42093814776039 -16.253120913201183 67 46 44
-1.8118025889973448 5.455577045892184 -16.24703605300611 70 45 44
-1.8123191131850738 5.457909384962161 -16.29149151875787 72 47 44
-1.8769823415098514 5.357983190967325 -16.545989766709653 88 68 64
-1.8303237770248812 5.437920054502145 -16.468511539598214 120 110 107
-2.9521272302356882 3.0222960414737168 -12.39608216809173 122 50 35
-2.941138590926379 3.043579921865314 -12.410905678422209 123 53 35
-2.8575126226335543 3.1969618631623034 -12.403970202426803 122 51 33
-2.8446577158546003 3.2214358792319846 -12.415393935389009 123 52 34
-2.777978965542502 3.3384845457313093 -12.336709274898496 125 54 36
-2.7810786918861314 3.3354984273407027 -12.37458033285886 125 54 36
-2.7651731378498674 3.3651967015101283 -12.380580244259043 125 53 37
-2.7501463723441884 3.393379475735869 -12.387995316511613 127 56 40
-2.73260848528533 3.4258737855200048 -12.39110214973579 124 53 37
-2.745143427868626 3.406686531712711 -12.445145600876952 123 51 33
-2.7270043437293543 3.440211791242538 -12.447202988745861 123 50 33
-2.708220560492748 3.4748380411157678 -12.448071479680717 127 54 37
-2.6965583288162924 3.497227293830824 -12.461026277113135 124 51 33
-2.678927392952479 3.529862766657941 -12.463714283220565 122 49 30
-2.6503528810625556 3.5812786125304816 -12.447494625115539 123 49 30
-2.6285029099443533 3.621139379645422 -12.442683765194683 122 48 29
-2.60688364388004 3.660595223981323 -12.438145980689825 123 48 29
-2.583498580915685 3.7030716475656957 -12.430421889000122 124 50 31
-2.5616553282964487 3.7428932405098747 -12.42523740749192 123 50 31
-2.5470132433906527 3.770355929102874 -12.432481953043487 124 49 30
-2.5301519583727314 3.8016194830823906 -12.4357874387184 123 48 29
-2.5150764562812746 3.829815929969194 -12.442143340742014 121 46 27
-2.4945058651313436 3.8674260538698446 -12.438775269624166 120 45 26
-2.479638632627437 3.895254571357367 -12.445344465575152 122 47 28
-2.461246337535634 3.9291179323460046 -12.445620519838712 125 50 31
-2.4446169717904276 3.959954652310925 -12.44892488007548 122 47 28
-2.433222680842011 3.9818203148460025 -12.461453902822301 123 48 29
-2.4127734426755416 4.019187797635435 -12.457816323349466 123 47 28
-2.4032266883320084 4.037883392692537 -12.47354448066428 122 46 28
-2.3760160457614354 4.086809976366399 -12.457608896910955 123 47 29
-2.3568096176682585 4.122026898432123 -12.455871045186477 124 48 29
-2.3392489925173616 4.154420536314946 -12.456991954300296 124 47 28
-2.3368957629965905 4.160796212922408 -12.485496433513372 126 49 28
-2.3288475863773153 4.176915008654951 -12.503743008909954 125 48 26
-2.312285076909809 4.207591292240184 -12.506525992805535 124 47 27
-2.298962986266439 4.232722605582808 -12.515129745418648 124 47 27
-2.2811017880108326 4.265607810778194 -12.515393429261746 123 46 26
-2.2606510973270986 4.30291077974861 -12.51081959638859 121 45 24
-2.2384159170932403 4.343253507865556 -12.502847414829706 117 42 24
-2.2555193453831612 4.316397771716499 -12.567174438075602 114 39 22
-2.1158096251958485 4.578461018990346 -12.636630377771507 133 49 12
-2.0925388353743846 4.620490644970112 -12.625610290925236 112 40 6
-2.071288466612109 4.65906720425715 -12.618278801846829 91 25 4
-2.0710339789877175 4.66187393988268 -12.65086545423679 75 16 3
-2.0756433806717878 4.656404232276196 -12.692838389040412 64 13 5
-2.076076853609847 4.658053410707734 -12.726934980061031 59 9 5
-2.096387636198231 4.630697066998179 -12.866528751206166 69 19 13
-2.0901810620324537 4.643673863647505 -12.888213434587328 83 35 26
-2.0284697066359056 4.751042107175446 -12.802004509487984 89 44 32
-2.035673832597452 4.741200248177387 -12.849584729961064 87 45 32
-2.0412674687527366 4.734107647624391 -12.894180128987855 88 45 33
-2.040156255681773 4.738420026725662 -12.925780009631413 88 46 36
-2.0369326328657174 4.746326959432514 -12.953304162062816 90 47 37
-2.0418240770250193 4.740452965083675 -12.996875426444726 92 48 38
-2.0510047320692015 4.7273047930111805 -13.049063799213295 91 48 38
-2.0539358891079393 4.724781087185441 -13.089056189978681 94 51 41
-2.058907463297899 4.718802434952212 -13.133223722982038 94 51 40
-2.0586798244166644 4.72165779484496 -13.167176414322178 88 44 32
-2.0942227646015716 4.663826206877282 -13.272675910881581 87 43 29
-2.0938541824704626 4.666947206897162 -13.306716272334286 90 47 32
-2.0979210349980923 4.662552179469891 -13.349752997139273 92 49 34
-2.0809344254282927 4.6938644700007135 -13.350524068446315 97 53 37
-2.084265933237279 4.690727313719087 -13.392233720402306 99 57 41
-2.0832568440359482 4.694955772040373 -13.425282808409609 105 63 46
-2.0778698030810174 4.706608041515105 -13.449524460629663 105 63 45
-2.083948842549417 4.698839297662451 -13.497144400244858 107 63 47
-2.0817389962013113 4.705120099123782 -13.528003404814978 105 60 44
-2.1268506493569266 4.63128122634212 -13.65579974140902 99 55 40
-2.129541822008255 4.629294432706585 -13.697120405438652 96 49 37
-2.123938894680937 4.641353565459109 -13.721496003026953 93 45 37
-2.119861079731715 4.650834592795767 -13.749052218069338 90 43 37
-2.115777992186379 4.660328157592368 -13.77664794458989 87 42 35
-2.1047127231041336 4.681633581692149 -13.78980673336451 86 41 33
-2.0693896568438053 4.743951881574068 -13.752468115339235 87 42 33
-2.084819802906191 4.720455996906894 -13.820708887303912 81 37 28
-2.0906135531143986 4.713264906495527 -13.869063129870728 80 37 27
-2.0395597343636562 4.8021336635653356 -13.798341454600362 81 37 28
-2.0398856089352186 4.804178979438458 -13.835199239336525 83 39 32
-2.145033954276635 4.65063903677309 -14.391808378346848 69 14 9
-2.141428720702603 4.6594252099096956 -14.421799615945606 62 13 7
-2.121147726742663 4.696307781738689 -14.415718849592093 58 13 6
-2.114439242691197 4.710322129760311 -14.438991998071058 50 10 5
-2.1263726432132666 4.692949830754098 -14.502902365261704 39 7 4
-2.121871173695588 4.703260486843305 -14.531156235885334 39 9 4
-2.119366801541852 4.710213893116483 -14.56383585958136 58 24 18
-2.1222119626803426 4.708172204551871 -14.608340119039573 56 14 8
-2.124828265525969 4.706525464436827 -14.652479664096862 71 27 20
-2.131662309381818 4.6977959018121105 -14.706070250099025 49 17 9
-2.123074843158582 4.715006434492614 -14.725701884916989 23 4 2
-2.1191087470350833 4.724449798462977 -14.755597943359593 18 1 2
-2.1153343473589947 4.733575314668401 -14.785980222084467 24 3 2
-2.1312755629273576 4.709585023491577 -14.860436190170988 39 9 5
-2.141017325186521 4.696028104088414 -14.921316494082163 56 15 9
-2.144847274934714 4.692413583683936 -14.9691550346583 67 17 9
-2.1725913712136293 4.648668154405491 -15.070969431772106 74 20 10
-2.1664255346309185 4.661861016781786 -15.09670960830238 78 24 11
-2.201001073235406 4.606704011558474 -15.21467369592392 81 29 14
-2.1115049906548897 4.762530134518843 -15.091277094153803 87 35 19
-2.110397582304655 4.767237148403736 -15.12847381970803 88 37 21
-2.0943088292598793 4.7970590853790736 -15.131499410203947 89 38 24
-2.09825539212001 4.793305578621032 -15.180391344802912 90 40 25
-1.9468749458182797 5.058195315020547 -14.989974738737738 93 44 30
-1.8907409003672773 5.154954604894499 -14.898941761804075 93 44 30
-1.8778660609393383 5.179307130660042 -14.908161400631956 95 47 33
-1.8727281289572373 5.190717185068973 -14.935415392495132 113 72 59
-1.866054273890183 5.2046984629691915 -14.959115658972525 106 60 48
-1.8666645426675639 5.20650677815809 -14.999963228117338 95 43 30
-1.8688865432228503 5.205630565253378 -15.044729490717497 90 38 26
-1.867927481519827 5.210078504627879 -15.082119876286733 90 41 33
-1.8390895218123782 5.2610928834016955 -15.053550412242092 87 44 37
-1.8362682548865632 5.268651597254472 -15.0865392761886 86 47 42
-1.8574499973119178 5.236151851535031 -15.176792201474164 62 30 25
-1.8495615631893192 5.252188245962837 -15.19798661150185 46 19 16
-1.8457713530434363 5.261388921849196 -15.229010838606364 48 21 21
-1.842754201596628 5.269305097078904 -15.261958112533428 46 22 18
-1.8373424797122022 5.281219130013487 -15.289214604097094 52 31 28
-1.835006902456817 5.288009154061711 -15.323945704400046 52 39 37
-1.8288567006444174 5.301161723213328 -15.349525295654491 50 41 40
-1.8167931021609875 5.324167669338247 -15.36078196971141 50 41 43
-1.8205422533914069 5.320836593489798 -15.410498514736275 22 13 15
-1.8409722379302325 5.289745797333705 -15.50110879818946 15 6 8
-1.8405216150608583 5.2934369694783605 -15.540990895272891 26 18 18
-1.8580414180208635 5.267234679959999 -15.625100431076227 25 17 17
-1.857685186568373 5.270793789699364 -15.665562600958035 23 14 14
-1.8646199123612273 5.262236570187247 -15.72413648940622 19 10 11
-1.8648995635811905 5.264758754240562 -15.766454234933757 17 9 11
-1.8660886217302886 5.2657785314134244 -15.811154709808559 22 18 19
-1.9017834899328072 5.209476190195161 -15.941860177519242 48 47 48
-1.9035545421889228 5.2095660232917105 -15.98852522281062 51 49 50
-1.9037693307317531 5.21225076204765 -16.03144498355106 40 33 32
-1.896406077984234 5.227524638220889 -16.05548027504124 25 12 10
-1.8929878180085793 5.236253329160519 -16.089464856306993 51 33 31
-1.8869229055212258 5.249378671202781 -16.11685201790701 61 41 38
-1.8787740463538247 5.265963474053823 -16.139010764583027 42 23 20
-1.8619587744718777 5.2969188966188785 -16.139202266823883 31 15 14
-1.8448081573927877 5.32842259107979 -16.13843510537725 25 17 16
-1.8150952588976217 5.380735060687066 -16.105519572512076 35 33 32
-1.8100157840672355 5.392219681278035 -16.135311607929847 42 39 41
-1.8121805308876233 5.391711358599168 -16.183736369662356 50 40 43
-1.8145174623459113 5.390929349732359 -16.23276242812684 60 49 49
-1.8062383302386356 5.407729291844301 -16.254578716514935 63 46 45
-1.7948780173391832 5.4296281533343755 -16.268441633787774 67 45 44
-1.7893855163903076 5.441819094867957 -16.29748554925168 70 45 43
-1.8551571537408695 5.339330663309722 -16.55580875065798 80 56 51
-1.8020515914062347 5.4334013328896384 -16.5049656901135 121 111 109
-2.838159394968071 3.1775834768607485 -12.41088562339505 123 52 34
-2.8232968694043747 3.2055586050131275 -12.418948449636485 122 51 33
-2.812292005397679 3.2268660921456176 -12.433430840742318 126 55 37
-2.7630523519796673 3.314205819661897 -12.383521181933682 126 55 37
-2.7683665851148094 3.307319140622452 -12.425332571316842 124 53 37
-2.764489969124398 3.3163086764501104 -12.451714731858047 125 53 38
-2.7386950607949103 3.3631341835298274 -12.4409348931292 124 52 37
-2.721613655860267 3.39491108110646 -12.444826556851556 123 51 34
-2.7024018544329893 3.430358308897402 -12.445002621546745 124 51 34
-2.6853446003838375 3.4620817636623 -12.448766659942274 125 52 35
-2.662430383085464 3.5039016347886554 -12.44239899392638 123 50 32
-2.642829573890462 3.539998264821076 -12.441598322636825 123 49 30
-2.6204337725000277 3.5809065214333202 -12.43586994049592 124 49 30
-2.6012931855006034 3.6161943133121097 -12.43564317349676 124 49 30
-2.5781858760110183 3.6583115616620496 -12.428432576405115 123 48 29
-2.5587432058036805 3.6941044752179826 -12.427459226897918 124 51 32
-2.546568682706142 3.717368571572985 -12.439062198304338 125 52 33
-2.527602957465281 3.7523277878349086 -12.438748595849644 126 52 33
-2.5174241981364736 3.7721477155817835 -12.453749324138997 123 48 29
-2.492459206119637 3.8174253055337255 -12.442722942164414 122 47 28
-2.466870443332652 3.8637655932480213 -12.430437121922534 120 45 26
-2.452850152340581 3.8901836128873475 -12.438447450738089 121 46 27
-2.429498552218603 3.932654984500651 -12.429853385058903 128 53 34
-2.4096996605753915 3.9690040085824654 -12.427432567707411 125 50 31
-2.3989543966885405 3.989772121777656 -12.441046370427118 125 50 31
-2.3858519257309156 4.014592460347562 -12.450421874281094 128 53 34
-2.3753633975957538 4.0349151068370555 -12.464438232521559 125 50 31
-2.352724414297259 4.076123893370166 -12.45658701848502 126 51 32
-2.3331816051179297 4.11200138722519 -12.45417764234138 126 50 31
-2.319330205118844 4.138091114109656 -12.461947236596226 125 48 29
-2.3132270874421934 4.150865124827733 -12.48370852956743 125 49 27
-2.295123677929623 4.184253596397021 -12.483678090351647 124 48 26
-2.281984227728208 4.209110417173892 -12.492598578523047 125 48 28
-2.2637524125195383 4.242707522592465 -12.492163630459443 125 48 28
-2.228408977869258 4.305672552509618 -12.460268887405562 128 51 31
-2.230282773354622 4.304742371434764 -12.496498349564417 124 48 27
-2.2132154349416266 4.336321532922726 -12.497925994210512 120 45 25
-2.23242910325468 4.305650469392302 -12.566304307770782 116 40 22
-2.0880726853889375 4.576109204831134 -12.62658050616059 123 38 5
-2.0642015613712825 4.619281382119082 -12.614294193112276 105 32 5
-2.044643278801341 4.655061546474503 -12.610079462899353 82 19 4
-2.0574376352438994 4.6354791711872885 -12.66768142753631 66 11 1
-2.0482801972771107 4.653462875996647 -12.683364022599456 58 11 3
-2.0562005721516927 4.642238752470827 -12.731908336089 58 10 5
-2.0715457938574686 4.620673046961469 -12.82854617971893 67 16 10
-2.069397021279409 4.626693847321162 -12.85805746511144 77 28 20
-2.0194492677903915 4.714396701549268 -12.794623425937658 89 42 31
-2.0250105547987793 4.707237016944514 -12.839054864325309 91 48 34
-2.0271743272409273 4.705890610488631 -12.87698568713785 88 49 35
-2.040888779078334 4.6848272937491595 -12.93768742904454 89 48 35
-2.042214302791072 4.684931813197923 -12.974253206973913 89 47 36
-2.0421338496219112 4.687443394795491 -13.008148683377874 85 40 30
-2.0490530633186452 4.6780159101538805 -13.05597670854198 83 36 25
-2.055884312566537 4.6687499375762815 -13.103794223112146 82 36 23
-2.0600785730712 4.6639935233058685 -13.146531403380031 80 37 20
-2.067046790238098 4.654515832308956 -13.194935697570045 78 34 19
-2.067442543301797 4.656256022561297 -13.230365038177233 78 34 19
-2.083635833714281 4.631073510481429 -13.297562275887703 75 30 17
-2.0876890816901037 4.626599677172405 -13.340622064994136 69 26 15
-2.086100557490617 4.6317483492751705 -13.372445664842985 67 26 17
-2.073722582360401 4.655282233732079 -13.382535922764777 63 24 15
-2.067828510002303 4.667770191495231 -13.405724610868198 63 25 14
-2.0683865105802237 4.669273880347295 -13.442054036460739 72 33 21
-2.065295815678598 4.676995910413832 -13.471047730501363 86 46 34
-2.059071851374667 4.690054840639154 -13.493698661942165 95 54 41
-2.055390138538253 4.698789655608423 -13.52158348687129 100 61 45
-2.0859347446633736 4.649302425817269 -13.619838929346297 108 67 47
-2.0878763403962304 4.648493856891424 -13.659606337645029 106 60 38
-2.0858828383407144 4.654384786691723 -13.69136254870591 98 51 37
-2.0833068872566134 4.661271031762471 -13.7219860118824 92 45 34
-2.0734185688691023 4.680590335273609 -13.737489834499737 85 39 31
-2.0682723215443692 4.691850676274025 -13.762854359181167 83 38 31
-2.022493123866618 4.772142908272637 -13.703407920571403 80 37 28
-2.0574820126491913 4.715224987254836 -13.812657448156578 78 35 27
-2.061920763548166 4.710217410073418 -13.85826015207868 77 36 27
-2.0228464630719243 4.77909045738463 -13.812404861370338 81 38 30
-2.0270791575511913 4.77443601691988 -13.8576214302274 83 40 32
-2.0935458752966833 4.664189439053562 -14.034716787920047 89 42 32
-2.1244539989458953 4.635253494815693 -14.437358156812833 63 14 7
-2.0889676772172026 4.697972889846734 -14.398160180079186 58 13 5
-2.093220798117014 4.693415752276972 -14.445312753503785 45 8 4
-2.1014914226179546 4.682071877316323 -14.501405292008362 36 5 2
-2.107115031898786 4.675219741501063 -14.551896664428192 47 15 10
-2.1048513766429036 4.681718127829718 -14.585218798048142 58 21 15
-2.105479843973076 4.68333220889566 -14.624995783369812 61 18 12
-2.107389109020162 4.682789272106412 -14.667717873086604 76 35 28
-2.1176828206626945 4.668086559230346 -14.729154913010113 41 13 8
-2.1064822669474683 4.6897139246911115 -14.743048391424825 20 2 1
-2.101444019258699 4.700930917228841 -14.770648288358494 19 2 2
-2.0943307646630807 4.71565509908481 -14.793657968437346 27 4 2
-2.1192106398086867 4.676369849651447 -14.88838131363294 46 11 7
-2.127432815040596 4.665227850255952 -14.946087650739557 62 16 10
-2.136954903952829 4.651907079703399 -15.006932794103363 70 18 10
-2.163472403938578 4.609932104042091 -15.106400394323986 75 21 10
-2.161950551755665 4.615275904702259 -15.142786546052887 80 25 13
-2.177344100599254 4.592105648549876 -15.217688654631932 85 31 16
-2.1737787418311005 4.600914340347712 -15.249711241574845 86 35 18
-2.080558871267967 4.760814205770581 -15.07704487956918 87 35 19
-2.0700386824596233 4.781310981285791 -15.092721206322281 87 35 19
-2.0567799972477356 4.806418994636518 -15.10209021948742 89 37 22
-2.045413651851021 4.8283367800415515 -15.11576321113395 91 39 25
-1.8734215613469463 5.131560422335713 -14.914889707753561 93 44 30
-1.8643733968171048 5.1495171401137 -14.933076046998174 96 48 35
-1.8520277941988548 5.173016044479959 -14.943520994806839 96 54 42
-1.8497514925039769 5.179591606818268 -14.977615510724853 103 51 42
-1.848763591021158 5.184008585504625 -15.014833796186421 88 32 21
-1.850780917168615 5.1833853624787665 -15.059263082097708 91 40 30
-1.8471824563630634 5.192200957165184 -15.090508965556829 89 43 35
-1.8211286458757814 5.2387143488037005 -15.06840318453558 86 46 40
-1.8166038091878505 5.249083840602941 -15.097429550984252 70 36 31
-1.8114742968009299 5.260471678077631 -15.125065491746145 43 14 10
-1.8051175249591316 5.273921262444406 -15.149806198702892 57 29 27
-1.8211814555890822 5.249778909176808 -15.228500330930485 59 32 32
-1.8142155995431994 5.264264286790459 -15.251984237698316 64 44 40
-1.812256646609311 5.270360612404521 -15.287600455761858 55 38 36
-1.8119964809459084 5.2736171760757795 -15.327427000149733 50 41 39
-1.7964301780481986 5.302518339619583 -15.3301536578617 48 42 41
-1.7987651782298906 5.301438265838668 -15.376434335141342 19 12 13
-1.8253025375270733 5.2598538830281125 -15.482029623540644 12 3 5
-1.8382118440751658 5.241109491031749 -15.55469186197539 20 11 12
-1.8325366800810607 5.253478573699634 -15.581966719798526 27 18 19
-1.8291724349289462 5.261985518913264 -15.61498177393379 20 11 12
-1.8292098076336591 5.264809804660294 -15.656479472436732 19 10 11
-1.8462910395845948 5.239151086641316 -15.740336878675489 18 9 11
-1.8472065759746974 5.2405329073552664 -15.784376924782629 17 11 13
-1.8513302003919703 5.2365643770047585 -15.83654612778626 43 41 42
-1.8589448718793475 5.226777499668362 -15.897617639965462 49 47 48
-1.8697814237881096 5.211626764152725 -15.966989452085507 43 39 40
-1.872215238848813 5.210521645045805 -16.015525043132953 18 9 9
-1.8795577775008177 5.201235920206464 -16.076585377662308 23 10 9
-1.8740438591896464 5.2134147943676075 -16.105397800575975 29 11 10
-1.87118558139323 5.22116801849377 -16.140987493751773 53 33 29
-1.868240730290145 5.229071713778625 -16.176445118129042 60 38 33
-1.8360078154873452 5.285800974347723 -16.13739873118511 41 23 20
-1.81688090233569 5.32066816468709 -16.13150097604626 29 14 15
-1.8017413519594134 5.3488830995340955 -16.135674699353913 23 15 15
-1.7831845318410446 5.3827833378890935 -16.130989632411005 36 31 33
-1.7740961891942508 5.400910092592789 -16.150551918347045 43 37 41
-1.7977555474329723 5.364530733363457 -16.25466603328537 51 44 45
-1.7824326789368845 5.393047586458367 -16.258320530307618 61 50 49
-1.7633562096410378 5.427802244372786 -16.25214320060813 65 45 45
-1.8395033788693085 5.3041957252611835 -16.49371134430115 69 45 43
-1.8265346452659372 5.331895983187376 -16.547931825600394 77 52 48
-1.962898046872886 5.117922380185308 -17.086372656630978 130 124 123
-1.9624934593712768 5.121781544066877 -17.13102168410137 141 137 135
-1.9474803157578622 5.1498843588912795 -17.136931341836696 154 151 150
-1.7309824607204733 5.52771181108531 -16.828710399386782 181 181 181
-1.7078303012715663 5.578643265047057 -16.946736310412348 192 191 194
-2.8186156200152706 3.1584601025831915 -12.417538035869704 124 53 35
-2.8040865923872613 3.185904076330777 -12.426149664730236 124 53 35
-2.79093134712524 3.210961127723043 -12.437021089793884 124 53 35
-2.741767398021946 3.298472180090868 -12.387027577096596 124 53 35
-2.7576667825931875 3.273126343318201 -12.44685987395734 123 52 36
-2.7410415991862447 3.3041890834245295 -12.451679616653 124 52 37
-2.717885447110733 3.346568487637332 -12.44530146406031 124 52 36
-2.700413089503586 3.37908736062358 -12.448493914424729 124 51 34
-2.676135901381431 3.4233927399816304 -12.439949497377938 124 51 34
-2.6592181592312674 3.45493721670395 -12.443895227663587 124 51 34
-2.633450298401508 3.5018071486813946 -12.4325224342596 124 51 32
-2.618494249580044 3.529940548095613 -12.439655583970218 124 50 31
-2.5954449664295787 3.5720842923943996 -12.432714691605199 124 49 30
-2.572351944318675 3.61429441121554 -12.425559675186685 122 47 28
-2.548776205679461 3.657330689609883 -12.417425133422345 121 46 27
-2.5359127225341975 3.68181795856185 -12.42784771441921 123 50 31
-2.5228740358760784 3.7066055468100556 -12.43792160114506 125 52 33
-2.504651524914472 3.7403582243465126 -12.43885197179188 126 52 33
-2.498133126165169 3.7538601589878597 -12.460290206137417 129 54 35
-2.471011312321648 3.8029939672947375 -12.445381058383086 125 50 31
-2.445917839784955 3.8486084854805505 -12.433881076703226 125 50 31
-2.426086432493416 3.8851155382860156 -12.43155823725213 124 49 30
-2.4030550334902676 3.9271458341866987 -12.42342947119636 124 49 30
-2.3787007833381573 3.9714524040417176 -12.412797274199633 124 49 30
-2.3662764802043674 3.995136956368915 -12.423356368411604 128 53 34
-2.353480755265754 4.0194604015006945 -12.43320923949246 129 54 35
-2.346062184607483 4.03449433079701 -12.452693301254932 126 51 32
-2.338454888550662 4.049854762603015 -12.471846165171948 125 50 31
-2.330256531807861 4.066236090586047 -12.489937197506038 125 48 30
-2.297250291505304 4.12543686503523 -12.463026662849746 125 48 29
-2.279855073070995 4.15768110752452 -12.464268256418105 125 49 27
-2.2706421299451636 4.175801835657198 -12.480344179738104 125 49 27
-2.243587554049757 4.224699243153105 -12.463778605921792 124 47 27
-2.226932955204115 4.255647246899444 -12.466099194254411 124 47 27
-2.20996345714478 4.2871325678837255 -12.46775675710375 126 49 29
-2.2177708480318072 4.275896442380429 -12.515017288114421 120 44 23
-2.2236353560690505 4.268020178106851 -12.55884746847168 118 43 25
-2.2130506393041847 4.288500940554787 -12.572321138483803 114 38 22
-2.0785546245262476 4.540246622715569 -12.617981810343142 138 51 24
-2.0589274104419926 4.576249503100398 -12.613787249672491 118 34 3
-2.0378605360190796 4.614719857048075 -12.60672341524662 102 31 8
-2.033740190634056 4.624047563564815 -12.631993220629472 74 16 5
-2.0297624375416428 4.633133072017228 -12.657579649010806 61 10 4
-2.0227309859217897 4.647469174651148 -12.677327898232425 57 11 4
-2.0219296300516287 4.651102297121259 -12.70912272722612 56 11 5
-2.052013229485138 4.601688810521189 -12.800816379509637 58 10 4
-2.0492837190502806 4.608654923310014 -12.829186158435363 66 16 10
-2.0482535031552622 4.6127073050097716 -12.86092399915782 81 33 25
-2.0351909146410554 4.637420279642194 -12.86924227691319 92 48 37
-2.010620937629122 4.681879834436351 -12.854977042699208 94 52 40
-2.025682750197239 4.658322281874604 -12.918352731704303 90 50 38
-2.0347491872357804 4.645067094968968 -12.970174453954296 89 46 35
-2.04304533771925 4.633145716200548 -13.020661844993448 82 34 20
-2.049047326926034 4.6251705541870765 -13.066786622500825 80 33 19
-2.05605329840097 4.615484561277424 -13.115058979950625 85 41 26
-2.0626726184192963 4.606472578142706 -13.1627279717814 92 50 36
-2.0669286987677298 4.601521584224447 -13.205843138138942 89 53 39
-2.0730237319376217 4.593429089884623 -13.252776050451303 86 50 38
-2.0727069109114913 4.596330835233779 -13.287000724462313 90 53 41
-2.077869251968253 4.5898547839840775 -13.332338928298602 91 55 41
-2.0764192621941935 4.594710877801584 -13.364485151703441 94 61 46
-2.0730156523823693 4.6029165719024725 -13.392756048651997 95 63 49
-2.066733778214431 4.616052247482693 -13.41524387774162 91 57 45
-2.0661322391339922 4.61946968912365 -13.449310588021628 88 52 42
-2.061352748233536 4.630040551407839 -13.474942879573138 85 48 36
-2.052813748667335 4.647044444038138 -13.492927297211061 79 41 31
-2.046392013036745 4.660427746182102 -13.515253330262897 76 37 30
-2.0392110235029937 4.675110665502949 -13.536041194558202 72 35 27
-2.057986001968458 4.645429078859618 -13.610364825356712 90 53 41
-2.056234756583552 4.650845076409221 -13.642554543855159 112 71 51
-2.0537407933587284 4.657535176171994 -13.673280821003624 107 64 43
-2.0554238976639283 4.6570949769103285 -13.71275903607458 97 49 30
-2.0451868775179998 4.677019025248251 -13.727505136572692 88 40 28
-2.0420816565107014 4.684765310979875 -13.757139280484234 78 34 27
-2.045456202907727 4.681455063027579 -13.800416538824166 73 32 24
-2.0326338668815476 4.70579530327268 -13.809790570790726 74 34 26
-2.0142210998006203 4.739670614225004 -13.807335259402716 74 35 27
-2.0229451189818395 4.7272482579703246 -13.86210906628477 77 35 28
-1.9955614960223513 4.776417865423145 -13.840576184961144 81 38 29
-2.033375117646091 4.714409916978865 -13.957343878103956 88 41 30
-2.054240631805117 4.698984493519865 -14.299451624529688 70 15 8
-2.06565448166808 4.68211426778346 -14.361984781989246 62 14 8
-2.070550443107059 4.6763475544767585 -14.410527565859365 55 12 5
-2.082481659152526 4.663799542334947 -14.551066691144928 63 27 21
-2.085850165132448 4.660671825580831 -14.596876266913245 61 18 11
-2.089297798331348 4.657419609631763 -14.643007857211284 70 27 21
-2.09198900173134 4.655462336606517 -14.687609361152521 64 27 22
-2.0872068031304294 4.666206037393689 -14.71572178832393 32 10 9
-2.0825043098041567 4.676817793648814 -14.74406199973601 16 1 1
-2.0779134239149784 4.687243567059959 -14.772703029976716 20 2 1
-2.063960189288048 4.713560712590378 -14.78039396497427 31 6 3
-2.1063876036991465 4.644219652943092 -14.914848098614787 51 13 7
-2.0961006074376964 4.664333307078692 -14.93103071621185 65 16 8
-2.1128825743755213 4.638543814484002 -15.008419497047779 72 19 9
-2.1121072727684957 4.642541144175441 -15.046308193159359 76 22 10
-2.135570106511296 4.6054639128900705 -15.139417603602084 82 26 12
-2.143505557018236 4.594724941380968 -15.197523451615425 87 31 16
-2.125451301880884 4.628028660556871 -15.196416196802307 87 33 17
-2.092863676499373 4.685939244770262 -15.161876712944835 88 33 18
-2.053031678752366 4.756096305788997 -15.110389050144384 88 34 18
-2.0257405530192782 4.80499805663026 -15.0874250022934 88 34 18
-1.9420367711384443 4.954705911898783 -15.012896099498317 94 42 28
-1.8578066829746622 5.105156869341636 -14.934969401809841 94 44 30
-1.8479783049527387 5.1244380342063 -14.951379630929708 93 44 29
-1.8409536438084084 5.138981827625579 -14.974382538253376 103 56 41
-1.8336357417018183 5.154022448230409 -14.996715794657117 94 38 26
-1.8323040402513158 5.158956727586985 -15.033249095511147 92 38 27
-1.8328164819017507 5.160784552260248 -15.074259829740374 89 42 33
-1.801646841221315 5.216087776714479 -15.039930270135876 85 44 38
-1.796115860078198 5.228114423234202 -15.066544249930203 80 45 40
-1.7921201929653834 5.237554305324134 -15.096877995124014 47 19 15
-1.787685578842934 5.24773865483394 -15.126220818455382 46 18 16
-1.7819526662570886 5.260115641293603 -15.152495061094623 62 36 34
-1.7753086215447387 5.274031016190494 -15.176610176392721 61 38 36
-1.7718228788814623 5.282626754239825 -15.208401016221625 56 39 37
-1.7753779195838202 5.279367037560612 -15.257356190569848 51 39 38
-1.7764616720366992 5.28028026201999 -15.300459962536102 47 40 40
-1.7843603931181642 5.269728718728186 -15.360332054644644 16 10 10
-1.8036656097383954 5.239993427387006 -15.448348433706595 12 6 5
-1.8302468404163588 5.198040335648233 -15.554601222275522 16 7 7
-1.8170301962901267 5.2230694622030525 -15.563382542531023 27 18 18
-1.8136710492744608 5.231516478941001 -15.596434316667295 20 11 12
-1.8178211528310657 5.227343079023249 -15.648144997008654 18 9 10
-1.8195246849310174 5.2272941281207315 -15.693962960225564 17 8 9
-1.8199590436932442 5.229387784186832 -15.736768740214394 17 10 11
-1.8115974664903598 5.246266965332338 -15.757757506831506 30 26 27
-1.8395470419297566 5.202162442578228 -15.869601493703996 50 46 47
-1.854346959753486 5.180170919645577 -15.948964005225909 48 44 45
-1.864250198795225 5.166421037738049 -16.016337240841242 19 13 12
-1.8664376748192146 5.165636738135874 -16.06451021506898 17 7 6
-1.8590687637327776 5.180895149961901 -16.088668278733568 21 8 8
-1.855948957236886 5.189028843834234 -16.12362884210485 25 9 9
-1.8495065115902243 5.202739289419733 -16.150223411295908 32 12 11
-1.8521980004899543 5.201141887830628 -16.200150695277642 59 35 31
-1.8166573733374043 5.263622957529065 -16.152473848754916 55 33 30
-1.7999165361473044 5.294584335391034 -16.15263599846926 40 19 19
-1.7864040064869449 5.320131769444405 -16.160992840930078 27 11 11
-1.7676040967241264 5.3545277853361 -16.155655289762425 27 19 20
-1.7551379166040495 5.3783129528227835 -16.16655711907064 38 33 35
-1.7704617656823562 5.3555924053588715 -16.24946057013022 44 39 40
-1.770105864584151 5.359125657208377 -16.29194960944309 57 49 48
-1.7316566196937657 5.426374256743943 -16.23525980571718 62 46 44
-1.7984620695734517 5.317618977986368 -16.453292402742647 65 43 41
-1.8264485179278425 5.273820296461071 -16.570663327413136 70 43 39
-1.8266209616558196 5.276533151452488 -16.615463637748206 74 47 43
-1.8097961184185838 5.307648203244518 -16.615601608973527 89 70 70
-1.9392971728403592 5.1036802698911465 -17.139509184935577 141 136 135
-1.7524777547600192 5.430572948219542 -16.866149355939896 174 174 174
-1.6995593401247455 5.524821841987638 -16.813150078545043 179 179 179
-1.6288863902053747 5.657696413159819 -16.84587698019017 193 194 196
-1.6118739083336875 5.689039112227069 -16.84425261679214 195 196 198
-2.7383773611198357 3.249357615150746 -12.387927123594842 126 55 37
-2.720757426472942 3.28221426686415 -12.391033914146131 125 54 36
-2.709416017721865 3.304130274102933 -12.40472630563325 122 51 35
-2.7199900833844395 3.2878818331675523 -12.455739457931173 124 52 37
-2.665732717094987 3.3888494526470456 -12.462129603635933 124 51 34
-2.6105768514336365 3.487000038040893 -12.400208783698165 124 51 34
-2.5992735926760506 3.5088263646552624 -12.413611873469957 124 51 33
-2.5449075051378562 3.6055586730274216 -12.352381755666888 125 51 32
-2.541295568875916 3.6139914188229056 -12.378888556554644 124 49 30
-2.536132874455145 3.625123791635417 -12.402740444232723 122 48 29
-2.5279456837773866 3.641516514045197 -12.421340834151438 122 48 29
-2.51764571092198 3.6615819518621047 -12.436243231443887 123 50 31
-2.506684022756229 3.682796256592094 -12.44996588825897 125 52 33
-2.4861275444084203 3.7206809639538196 -12.446764954199057 124 50 31
-2.4676857673159054 3.754884148902266 -12.447181989063804 125 50 31
-2.4585969793094096 3.772835117854682 -12.464066718557683 126 51 32
-2.424822836755894 3.8336555106674 -12.437106186985721 125 50 31
-2.4025865051742903 3.8744262368916838 -12.430444957738777 125 50 30
-2.3745299203629573 3.9252921022247866 -12.413255335840814 124 49 30
-2.3559900498304396 3.95962728160137 -12.412913534250643 122 47 27
-2.347552139157189 3.9764253294902154 -12.430610109332157 122 47 27
-2.336346926093663 3.9980247160563014 -12.443323639246428 124 49 30
-2.325150980822589 4.019606187650327 -12.45602588883039 123 48 28
-2.3086611207430074 4.050367536009538 -12.459116241517169 123 48 29
-2.300360818934294 4.066922364243343 -12.476992559281125 125 48 30
-2.2715772503012426 4.118989837394143 -12.457583575741744 125 48 29
-2.2547470963554606 4.150323754377496 -12.45978912156498 125 49 27
-2.23268120036436 4.190726052092058 -12.45232650476574 127 51 29
-2.2198887048254083 4.215050791330625 -12.461745613307158 127 50 31
-2.2018813909345942 4.248406828756172 -12.461522357347025 126 49 29
-2.1886312620639696 4.273516560309781 -12.469980047208466 125 48 28
-2.19011555686986 4.27310652826792 -12.505653051373343 120 44 24
-2.1939539487660147 4.268627047551297 -12.54579317933318 116 40 23
-2.1833500387878186 4.289156616941861 -12.559184956680511 113 37 22
-2.046806487476437 4.544890176180045 -12.600252824691214 146 58 30
-2.0298362912855015 4.576389116663531 -12.601018127325734 120 37 4
-2.0130521192460398 4.607560721336989 -12.602048609495055 101 32 9
-2.0095662172507676 4.615760025771978 -12.628557270769463 70 15 5
-2.012881309446764 4.612219463691115 -12.668227269165044 60 11 6
-2.002573680279947 4.632204195306659 -12.681683395064663 59 11 6
-1.9851321591346445 4.66450046424327 -12.6812885873561 58 10 5
-2.0316769361478677 4.586373227752277 -12.805170954155258 57 9 4
-2.033429030480578 4.5855644345398625 -12.842330210497476 67 18 12
-2.015184205061503 4.619256107849176 -12.840514072267176 85 39 30
-2.0181032571083977 4.616441834022299 -12.880067584343232 92 49 39
-2.020955904579523 4.613749924008799 -12.919610497654677 92 50 41
-2.0328100325000533 4.595548351259212 -12.977010253130155 85 45 35
-2.0417934880941617 4.582308711902134 -13.028954989764987 75 31 23
-2.0524694688074234 4.566164814206881 -13.084439940303222 70 30 22
-2.0564847352799314 4.561509656871629 -13.126898236750591 58 27 19
-2.066336060857595 4.546810908234385 -13.181116974996463 40 19 13
-2.075836533158834 4.532729392512901 -13.234833387621904 26 9 5
-2.077875091752971 4.531508265331553 -13.273799200009158 21 5 2
-2.0824836252917827 4.525870723767526 -13.318041324232599 21 5 2
-2.080586185939105 4.531439579033752 -13.349324145256912 24 7 3
-2.068865540717411 4.553915700624465 -13.36084202704833 32 11 5
-2.067996764976398 4.5577208922774135 -13.394298629779232 40 17 10
-2.0632575521002234 4.568188555823393 -13.419980568267604 55 29 19
-2.058392839654518 4.578874754311397 -13.445448562450483 75 45 34
-2.059418031545676 4.579437557399135 -13.482981517134547 96 60 45
-2.054480279326007 4.590256758512556 -13.508413652977898 101 65 44
-2.0414362206004935 4.615009172578688 -13.517245753792738 90 51 36
-2.0342076702420986 4.629766514653316 -13.537997337524303 86 45 35
-2.026756927752876 4.6449064735034415 -13.558304744646907 80 43 35
-2.0354988510382546 4.632238211283719 -13.61213592335365 71 37 31
-2.0118990865881 4.675113813509294 -13.599046086334893 71 37 25
-2.021465888977777 4.661043139484554 -13.654801153259998 93 54 30
-2.018447789305018 4.668585007801044 -13.684502504077559 100 52 25
-2.0158286975904156 4.6754463463434695 -13.715101559732593 86 35 19
-2.0149927604491276 4.67925308801772 -13.749509275034331 76 31 23
-2.003298322913219 4.701689532709056 -13.761162655252093 76 35 29
-1.9955222581634835 4.717404520576341 -13.781045609902616 75 36 29
-1.9811652306689962 4.744402447691491 -13.787017826159806 71 33 26
-1.9776962970005354 4.752733659671453 -13.816016115886146 74 32 26
-1.9993519847293875 4.720419709443083 -13.935165801010001 89 42 30
-2.037870403740972 4.656854559133145 -14.05429072249426 93 40 27
-2.0277945705918015 4.6912596507148665 -14.2940715734558 69 15 8
-1.9983039877896833 4.744158600826841 -14.267366155861009 60 13 8
-2.044528535914801 4.667614748258084 -14.406336068257234 51 11 5
-2.0265435552974678 4.700847848835863 -14.404869933617526 39 9 5
-2.053221735561125 4.657762116221987 -14.501703576604246 38 9 4
-2.052192260427593 4.662034812355768 -14.537746552415163 60 21 13
-2.065141954853552 4.642439877497564 -14.604853379350802 63 17 8
-2.068142104989537 4.639850246638212 -14.650121154854453 71 28 21
-2.07083601195799 4.637792826317912 -14.694850757103229 47 13 9
-2.067219353502905 4.646514383773311 -14.725625907497829 21 5 5
-2.0619894719097496 4.657992687786537 -14.752852440048464 14 1 2
-2.0550186587668633 4.672443662304032 -14.776214230532101 23 4 1
-2.041085899907295 4.698769221669327 -14.783922006613835 39 10 5
-2.088214686700394 4.620980014856004 -14.929450911896687 57 16 8
-2.0767321874158453 4.6431454417453475 -14.942959717841198 66 18 7
-2.1030117570138156 4.6009546268700205 -15.042174322452976 73 20 9
-2.06513571738524 4.668100580822786 -14.995767011762588 77 22 10
-2.1168525750871003 4.582611532969126 -15.153528991149237 83 27 12
-2.1127672971163602 4.594841163490667 -15.224534376161227 87 31 16
-2.0358274800179164 4.731073848611509 -15.127752455972029 88 32 17
-1.9048787894595476 4.964261901369327 -14.983229127386732 93 40 26
-1.8469236320420785 5.065371405838804 -14.887341799111509 94 42 28
-1.8368415207774256 5.090282163405001 -14.98224402846617 96 47 33
-1.8215996814145694 5.118768901138896 -14.985916411135593 100 49 36
-1.8133206218826987 5.135430510838904 -15.006020128528192 90 33 23
-1.7751427064674832 5.20283478070987 -14.955023621505866 91 41 32
-1.7732139858918101 5.208709941082248 -14.990091276589183 88 43 36
-1.780901000085808 5.198280067675863 -15.048242594491658 84 47 41
-1.7741647608189748 5.212323935954086 -15.07202503076442 56 25 21
-1.7677731175757152 5.225785370568389 -15.096663432297284 44 16 14
-1.7615429691656714 5.238975178910117 -15.1217232688529 54 26 26
-1.7576951121046949 5.248130334589313 -15.152576863333351 71 48 46
-1.7585708847214259 5.249287460491349 -15.194947598861237 57 40 37
-1.758379296744099 5.252260819803885 -15.234852806397022 51 39 38
-1.758848156447407 5.2541234555212055 -15.27648328655698 48 40 40
-1.7715920851991458 5.235215013643227 -15.34824120181726 16 11 12
-1.7832953573612988 5.218086752855299 -15.417738346974584 11 6 5
-1.8081461415406692 5.1787321104323905 -15.519824082555889 14 7 5
-1.8056331000596655 5.185692704456494 -15.554931140300479 22 14 12
-1.8146084369851876 5.173231784441816 -15.618514884820232 25 16 15
-1.8035221879495484 5.194702799802183 -15.632631938098505 18 9 10
-1.8155537570394344 5.177099511092757 -15.704161649133393 16 7 8
-1.811688482887234 5.186375926771772 -15.736371417769888 16 7 8
-1.794457812994023 5.21823448521089 -15.735260803683861 16 10 11
-1.809520339219835 5.195548976098223 -15.81493932517339 44 41 42
-1.8206237357181798 5.179569626017886 -15.88500398798177 49 45 46
-1.850733147818398 5.131528403140025 -16.003223215740203 37 32 33
-1.8622461151755303 5.11490320646521 -16.075012520145176 19 11 10
-1.859773928751277 5.121889606379548 -16.111666785189396 17 8 6
-1.8500810921120157 5.141059993545071 -16.130075762777025 19 8 7
-1.8354009191934049 5.168638946266357 -16.135776401686126 22 8 9
-1.8242115563708476 5.190328731261494 -16.15031534860074 27 9 9
-1.826760589053205 5.188865434793527 -16.20000806739218 43 21 19
-1.8091818676607287 5.221321986499007 -16.198181032938123 61 37 35
