ply
format ascii 1.0
element vertex 832
property float x
property float y
property float z
property float nx
property float ny
property float nz
property uchar diffuse_red
property uchar diffuse_green
property uchar diffuse_blue
property uchar class
property uchar detection
end_header
-2.3439 0.1563 -16.2524 -0.857 -0.354 0.375 44 38 39 0 0
-1.8908 1.7113 -12.4033 0.568 -0.408 0.714 126 53 34 0 0
-1.9015 1.3920 -12.3402 -0.270 -0.718 0.641 130 57 38 0 0
-1.9399 0.8314 -12.4185 0.303 -0.173 0.937 133 55 33 0 0
-1.9462 0.6715 -12.3965 -0.441 -0.557 0.704 131 49 28 0 0
-1.9557 0.5098 -12.4042 0.030 -0.449 0.893 131 48 24 0 0
-1.9588 0.5002 -12.4292 -0.052 -0.428 0.902 131 49 25 0 0
-1.9619 0.4860 -12.4508 -0.182 -0.609 0.772 134 52 28 0 0
-2.0107 -0.0838 -12.6254 -0.127 -0.269 0.955 129 58 43 0 0
-2.1088 0.4029 -13.8227 0.273 -0.669 0.691 5 1 2 0 0
-2.1066 0.2335 -13.7132 -0.212 -0.117 0.970 4 1 2 0 0
-2.1668 -0.2684 -14.0321 -0.204 -0.784 0.586 77 16 5 0 0
-2.1744 -0.2696 -14.1049 -0.563 -0.816 0.129 101 53 39 0 0
-2.2244 -0.2026 -14.6212 -0.256 -0.967 0.021 58 53 51 0 0
-2.3101 0.0307 -15.5681 -0.663 -0.679 0.316 101 55 41 0 0
-2.3431 0.0794 -15.9108 -0.126 -0.988 0.084 48 23 17 0 0
-2.3473 0.0765 -15.9504 -0.126 -0.988 0.084 42 32 32 0 0
-2.3714 0.1930 -16.2424 -0.828 -0.364 0.427 44 38 38 0 0
-2.3763 0.1171 -16.2506 -0.680 -0.703 -0.209 45 39 39 0 0
-1.9257 1.4210 -12.3254 -0.013 -0.526 0.851 128 54 35 0 0
-1.9287 1.3999 -12.3427 -0.270 -0.718 0.641 126 53 34 0 0
-1.9612 0.8951 -12.3977 0.223 -0.265 0.938 127 51 29 0 0
-1.9729 0.6844 -12.4031 -0.441 -0.557 0.704 131 50 29 0 0
-1.9851 0.5008 -12.4265 -0.437 -0.310 0.844 130 47 23 0 0
-1.9884 0.4949 -12.4544 -0.343 -0.556 0.757 131 49 25 0 0
-1.9940 0.4500 -12.4851 -0.388 -0.722 0.573 133 50 26 0 0
-1.9966 0.4211 -12.4955 -0.438 -0.304 0.846 134 49 27 0 0
-2.0632 -0.2296 -12.8012 -0.446 -0.876 0.184 71 20 16 0 0
-2.1317 0.2762 -13.7104 -0.510 -0.194 0.838 5 1 2 0 0
-2.1351 0.2657 -13.7373 -0.246 0.005 0.969 4 1 2 0 0
-2.2530 -0.1862 -14.6327 -0.279 -0.960 -0.009 61 52 51 0 0
-1.9514 1.6662 -12.4305 -0.132 -0.486 0.864 126 51 32 0 0
-1.9528 1.4222 -12.3232 -0.211 -0.507 0.836 127 52 33 0 0
-1.9720 1.2212 -12.4058 -0.294 -0.217 0.931 126 52 33 0 0
-1.9746 1.1881 -12.4143 -0.294 -0.217 0.931 127 52 33 0 0
-1.9772 1.1547 -12.4225 -0.137 -0.210 0.968 125 48 28 0 0
-2.0017 0.6482 -12.4052 -0.169 -0.254 0.952 128 47 26 0 0
-2.0149 0.5051 -12.4590 -0.343 -0.556 0.757 131 49 25 0 0
-2.0331 0.3035 -12.5320 -0.322 -0.529 0.785 131 50 28 0 0
-2.1667 0.5705 -13.9225 0.921 -0.081 0.382 6 1 3 0 0
-2.1778 -0.0209 -13.7366 0.208 -0.575 0.791 25 5 4 0 0
-2.2738 -0.1651 -14.5717 -0.662 -0.705 0.254 107 70 57 0 0
-2.2774 -0.1747 -14.6011 -0.785 -0.508 0.354 72 52 48 0 0
-2.3197 -0.0767 -15.0476 0.052 -0.987 -0.155 123 72 57 0 0
-2.3662 0.0725 -15.5598 -0.553 -0.813 0.185 105 57 41 0 0
-2.5012 0.1789 -16.8851 0.434 0.390 0.812 125 124 129 0 0
-1.9784 1.3687 -12.2823 -0.147 -0.569 0.809 126 51 32 0 0
-1.9814 1.3484 -12.3001 -0.127 -0.676 0.725 126 51 32 0 0
-1.9839 1.3127 -12.3069 -0.286 -0.615 0.734 125 52 33 0 0
-1.9869 1.2927 -12.3248 -0.286 -0.615 0.734 124 53 34 0 0
-1.9901 1.2835 -12.3505 -0.305 -0.726 0.616 125 53 36 0 0
-2.0018 1.2003 -12.4201 -0.294 -0.217 0.931 128 54 35 0 0
-2.0102 0.9965 -12.4013 -0.283 -0.296 0.912 127 50 28 0 0
-2.0110 0.8993 -12.3623 0.056 -0.132 0.990 127 49 27 0 0
-2.0210 0.7622 -12.3901 -0.335 -0.520 0.786 131 49 28 0 0
-2.0238 0.7396 -12.4057 -0.437 -0.723 0.536 130 49 28 0 0
-2.0264 0.7101 -12.4160 -0.380 -0.383 0.842 129 48 27 0 0
-2.0412 0.5063 -12.4568 -0.438 -0.555 0.707 132 50 26 0 0
-2.0441 0.4858 -12.4736 -0.419 -0.845 0.333 131 49 25 0 0
-2.0469 0.4629 -12.4887 -0.031 -0.853 0.521 132 50 26 0 0
-2.0551 0.3920 -12.5320 -0.223 -0.142 0.964 135 53 31 0 0
-2.0759 0.0638 -12.5696 0.043 -0.380 0.924 125 41 21 0 0
-2.3027 -0.1443 -14.5874 -0.603 -0.762 0.234 117 72 56 0 0
-2.3069 -0.1437 -14.6265 -0.678 -0.649 0.346 84 59 53 0 0
-2.3292 -0.1143 -14.8491 0.108 -0.910 0.400 109 58 45 0 0
-2.3361 -0.0639 -14.9368 0.420 -0.864 0.277 109 63 48 0 0
-2.3966 0.0954 -15.5783 -0.611 -0.784 0.106 103 58 41 0 0
-2.4374 0.0992 -15.9602 -0.826 -0.480 0.296 43 37 37 0 0
-2.5426 0.2693 -17.0238 0.382 0.566 0.731 130 129 134 0 0
-1.9919 1.7997 -12.3552 -0.476 -0.409 0.778 122 50 33 0 0
-2.0204 1.4085 -12.4368 0.340 -0.415 0.844 125 52 35 0 0
-2.0260 1.2281 -12.4047 -0.190 -0.493 0.849 126 52 33 0 0
-2.0288 1.2042 -12.4198 -0.113 -0.512 0.852 127 52 33 0 0
-2.0530 0.7135 -12.4154 -0.442 -0.518 0.732 129 48 27 0 0
-2.0554 0.6806 -12.4232 -0.384 -0.124 0.915 131 51 29 0 0
-2.0768 0.4666 -12.5209 -0.485 -0.423 0.765 130 48 26 0 0
-2.0892 0.2076 -12.5162 -0.298 -0.321 0.899 132 50 29 0 0
-2.1038 -0.0800 -12.5176 0.114 -0.456 0.883 125 46 28 0 0
-2.1283 -0.2793 -12.6514 -0.309 -0.943 0.124 64 13 3 0 0
-2.2297 0.0142 -13.7242 -0.036 -0.378 0.925 23 4 1 0 0
-2.3196 -0.1163 -14.4949 -0.562 -0.827 0.021 116 61 50 0 0
-2.3318 -0.1217 -14.6048 -0.451 -0.890 0.074 120 72 55 0 0
-2.3360 -0.1222 -14.6428 -0.520 -0.846 0.123 84 57 50 0 0
-2.3588 -0.0884 -14.8699 -0.224 -0.928 0.298 106 57 43 0 0
-2.4270 0.1149 -15.5934 -0.588 -0.805 0.084 102 57 43 0 0
-2.4314 0.1133 -15.6334 -0.575 -0.812 0.100 98 53 41 0 0
-2.4692 0.1370 -15.9943 -0.830 -0.516 0.212 43 37 37 0 0
-2.5714 0.2375 -16.9845 0.388 0.554 0.737 130 129 134 0 0
-2.0454 1.3361 -12.3819 0.135 -0.268 0.954 127 52 34 0 0
-2.0803 0.7432 -12.4345 -0.266 -0.239 0.934 129 49 27 0 0
-2.0826 0.7039 -12.4375 -0.258 -0.041 0.965 129 48 26 0 0
-2.0849 0.6675 -12.4427 -0.097 -0.115 0.989 130 49 27 0 0
-2.0921 0.5621 -12.4605 -0.337 -0.514 0.789 130 48 25 0 0
-2.0949 0.5400 -12.4761 -0.337 -0.514 0.789 131 49 26 0 0
-2.0977 0.5174 -12.4915 -0.455 -0.712 0.535 131 49 26 0 0
-2.1034 0.4765 -12.5253 -0.218 -0.447 0.867 132 50 28 0 0
-2.1156 0.2178 -12.5210 -0.300 -0.271 0.914 130 48 27 0 0
-2.1274 -0.0422 -12.5119 0.290 -0.250 0.924 127 49 28 0 0
-2.1295 -0.0821 -12.5127 0.184 -0.483 0.856 130 55 37 0 0
-2.2569 0.0163 -13.7224 -0.207 -0.834 0.512 24 4 3 0 0
-2.2693 -0.0565 -13.8025 -0.347 -0.258 0.902 122 73 39 0 0
-2.3438 -0.1069 -14.4615 -0.555 -0.820 0.139 119 61 51 0 0
-2.3475 -0.1159 -14.4913 -0.417 -0.893 0.172 117 60 49 0 0
-2.3521 -0.1073 -14.5376 -0.295 -0.955 -0.030 115 60 50 0 0
-2.3612 -0.0948 -14.6262 -0.339 -0.932 0.126 122 73 56 0 0
-2.3881 -0.0704 -14.8830 -0.367 -0.856 0.365 106 60 44 0 0
-2.3923 -0.0714 -14.9215 -0.033 -0.946 0.322 119 69 56 0 0
-2.3961 -0.0812 -14.9516 -0.090 -0.994 0.055 98 54 39 0 0
-2.5014 0.1775 -16.0313 -0.849 -0.426 0.312 43 37 37 0 0
-2.1016 0.8000 -12.4089 0.086 -0.499 0.862 132 51 30 0 0
-2.1090 0.7030 -12.4337 0.237 -0.525 0.817 127 47 24 0 0
-2.1166 0.6143 -12.4643 0.006 -0.271 0.963 129 47 25 0 0
-2.1396 0.2565 -12.5154 -0.298 -0.321 0.899 131 49 28 0 0
-2.1421 0.2286 -12.5262 -0.298 -0.321 0.899 130 48 27 0 0
-2.1492 0.0397 -12.5084 -0.048 -0.202 0.978 129 47 27 0 0
-2.1556 -0.0733 -12.5165 -0.108 -0.423 0.900 126 53 39 0 0
-2.2572 0.4589 -13.6688 0.505 -0.093 0.858 7 1 3 0 0
-2.2594 0.4200 -13.6717 0.505 -0.093 0.858 7 1 2 0 0
-2.2614 0.3772 -13.6712 -0.052 -0.594 0.803 6 0 0 0 0
-2.2621 0.3066 -13.6469 -0.387 -0.583 0.715 6 0 0 0 0
-2.2839 0.0133 -13.7162 0.133 -0.746 0.652 27 4 4 0 0
-2.2906 -0.0113 -13.7665 -0.523 -0.771 0.364 64 11 4 0 0
-2.2945 -0.0142 -13.8001 -0.347 -0.258 0.902 101 44 18 0 0
-2.2970 -0.0443 -13.8097 -0.347 -0.258 0.902 124 76 44 0 0
-2.3717 -0.1045 -14.4599 -0.302 -0.937 0.177 110 58 46 0 0
-2.3757 -0.1096 -14.4933 -0.302 -0.937 0.177 107 57 44 0 0
-2.3800 -0.1080 -14.5330 -0.141 -0.988 0.064 107 58 46 0 0
-2.3900 -0.0792 -14.6369 -0.275 -0.961 -0.011 119 72 54 0 0
-2.4238 -0.0177 -14.9690 -0.819 -0.533 0.212 113 66 49 0 0
-2.4679 0.0526 -15.3996 -0.837 -0.482 0.257 96 52 40 0 0
-2.5311 0.1774 -16.0267 -0.752 -0.243 0.613 43 37 37 0 0
-2.5800 0.4088 -16.5706 -0.552 -0.716 -0.428 35 30 27 0 0
-2.0997 1.3474 -12.3839 -0.165 -0.247 0.955 127 52 33 0 0
-2.1686 0.2391 -12.5312 -0.298 -0.321 0.899 131 49 28 0 0
-2.1753 0.0441 -12.5087 -0.048 -0.202 0.978 127 47 26 0 0
-2.1816 -0.0684 -12.5173 -0.108 -0.423 0.900 128 58 44 0 0
-2.1974 -0.2120 -12.5979 -0.297 -0.372 0.880 125 61 23 0 0
-2.2831 0.4252 -13.6368 0.715 -0.211 0.667 7 1 3 0 0
-2.2826 0.3312 -13.5930 -0.190 -0.815 0.548 6 0 1 0 0
-2.2862 0.3227 -13.6214 -0.025 -0.769 0.639 6 0 0 0 0
-2.2894 0.3057 -13.6425 -0.099 -0.858 0.504 6 0 0 0 0
-2.3110 0.0136 -13.7128 -0.088 -0.684 0.724 29 5 4 0 0
-2.3184 0.0016 -13.7742 -0.350 -0.761 0.546 69 17 2 0 0
-2.3246 -0.0363 -13.8131 -0.288 -0.248 0.925 110 63 37 0 0
-2.3666 -0.0921 -14.1665 -0.606 -0.794 0.053 107 62 45 0 0
-2.3966 -0.0815 -14.4394 -0.335 -0.941 0.056 105 57 45 0 0
-2.4051 -0.0805 -14.5165 -0.398 -0.892 0.216 104 60 47 0 0
-2.4133 -0.0868 -14.5873 -0.530 -0.845 -0.069 116 70 51 0 0
-2.4540 0.0138 -14.9953 -0.787 -0.604 0.128 107 59 42 0 0
-2.4988 0.0839 -15.4262 -0.799 -0.535 0.273 102 58 45 0 0
-2.5036 0.0870 -15.4703 -0.615 -0.789 -0.012 97 53 40 0 0
-2.5629 0.2080 -16.0535 -0.752 -0.243 0.613 42 36 36 0 0
-2.1262 1.4435 -12.4170 0.183 -0.632 0.753 126 51 32 0 0
-2.1620 0.7096 -12.4324 -0.264 -0.740 0.619 130 50 27 0 0
-2.1700 0.6324 -12.4717 -0.145 -0.429 0.891 132 53 30 0 0
-2.1727 0.6071 -12.4851 -0.288 -0.517 0.806 129 50 27 0 0
-2.2014 0.0500 -12.5101 -0.159 -0.270 0.950 124 45 25 0 0
-2.2235 -0.2022 -12.6026 -0.297 -0.372 0.880 108 48 20 0 0
-2.2398 -0.0870 -12.7952 -0.150 -0.968 0.202 70 13 7 0 0
-2.3093 0.4011 -13.6129 0.771 -0.306 0.558 8 2 2 0 0
-2.3364 0.0591 -13.7130 -0.194 -0.738 0.646 28 4 4 0 0
-2.3396 0.0414 -13.7334 -0.061 -0.494 0.867 34 5 4 0 0
-2.3953 -0.0713 -14.1816 -0.522 -0.842 0.139 108 65 48 0 0
-2.4369 -0.0867 -14.5451 -0.379 -0.545 0.748 103 59 48 0 0
-2.4795 0.0368 -14.9736 -0.797 -0.603 0.031 116 68 53 0 0
-2.5219 0.1359 -15.3913 -0.793 -0.586 0.165 92 49 41 0 0
-2.5262 0.1315 -15.4278 -0.793 -0.586 0.165 94 50 40 0 0
-2.5297 0.1139 -15.4515 -0.839 -0.421 0.346 98 54 41 0 0
-2.5945 0.2360 -16.0775 -0.752 -0.165 0.639 42 36 36 0 0
-2.1537 1.4550 -12.4221 -0.001 -0.834 0.551 124 50 31 0 0
-2.1759 0.9546 -12.4167 -0.440 -0.405 0.801 130 50 29 0 0
-2.1954 0.5162 -12.4131 -0.094 -0.799 0.595 127 49 26 0 0
-2.2663 -0.0771 -12.7999 -0.362 -0.919 0.157 72 16 8 0 0
-2.2689 -0.1816 -12.7811 -0.136 -0.920 0.367 101 56 45 0 0
-2.2722 -0.1912 -12.8064 -0.136 -0.920 0.367 88 53 46 0 0
-2.3641 0.0685 -13.7176 -0.192 -0.596 0.780 35 6 5 0 0
-2.4193 -0.0585 -14.1523 -0.563 -0.823 0.080 105 58 43 0 0
-2.4248 -0.0361 -14.2099 -0.328 -0.858 0.396 110 64 48 0 0
-2.4286 -0.0440 -14.2400 -0.365 -0.878 0.310 91 51 43 0 0
-2.5535 0.1756 -15.4260 -0.727 -0.676 0.118 91 49 39 0 0
-2.5575 0.1659 -15.4575 -0.565 -0.823 0.053 98 55 42 0 0
-2.1959 1.0717 -12.4022 -0.027 -0.098 0.995 127 47 26 0 0
-2.1980 1.0305 -12.4045 0.032 -0.062 0.998 128 49 27 0 0
-2.2017 0.9357 -12.3997 0.046 -0.135 0.990 129 51 29 0 0
-2.2039 0.8976 -12.4040 -0.117 -0.110 0.987 131 52 30 0 0
-2.2147 0.7064 -12.4238 -0.299 -0.348 0.889 130 48 26 0 0
-2.2172 0.6784 -12.4352 -0.270 -0.329 0.905 132 53 30 0 0
-2.2198 0.6500 -12.4462 -0.270 -0.329 0.905 131 53 30 0 0
-2.2436 0.2521 -12.4993 0.106 -0.020 0.994 133 52 31 0 0
-2.2475 0.1734 -12.5031 0.089 -0.283 0.955 124 46 24 0 0
-2.2665 0.0175 -12.6086 0.037 -0.285 0.958 161 99 83 0 0
-2.2925 -0.0737 -12.7994 -0.571 -0.774 0.274 78 22 14 0 0
-2.2983 -0.1891 -12.8049 -0.209 -0.865 0.456 74 40 34 0 0
-2.4481 -0.0363 -14.1687 -0.491 -0.860 0.137 111 63 46 0 0
-2.4536 -0.0152 -14.2251 -0.038 -0.722 0.691 105 61 48 0 0
-2.5933 0.1949 -15.5229 -0.594 -0.803 0.051 100 53 38 0 0
-2.6771 0.4144 -16.3377 -0.946 -0.326 0.001 40 34 34 0 0
-2.1974 1.4751 -12.3331 -0.569 -0.671 0.476 124 51 32 0 0
-2.2006 1.4600 -12.3547 -0.470 -0.645 0.602 126 53 34 0 0
-2.2078 1.4516 -12.4135 0.470 -0.621 0.627 124 51 32 0 0
-2.2213 1.0401 -12.3761 -0.461 0.019 0.887 127 46 25 0 0
-2.2372 0.7911 -12.4191 -0.112 -0.053 0.992 130 48 26 0 0
-2.2392 0.7508 -12.4215 -0.112 -0.053 0.992 129 47 25 0 0
-2.2406 0.6969 -12.4135 0.096 -0.280 0.955 130 48 26 0 0
-2.2439 0.6865 -12.4381 -0.322 -0.220 0.921 131 52 29 0 0
-2.2466 0.6621 -12.4523 -0.033 -0.260 0.965 130 53 29 0 0
-2.2473 0.5070 -12.3999 0.237 -0.766 0.597 129 50 27 0 0
-2.2735 0.1741 -12.5004 0.089 -0.283 0.955 128 49 27 0 0
-2.3108 -0.0737 -12.7298 -0.357 -0.730 0.582 61 12 4 0 0
-2.3997 0.2534 -13.6194 0.002 -0.397 0.918 16 4 4 0 0
-2.4023 0.2257 -13.6314 0.002 -0.397 0.918 15 4 3 0 0
-2.4047 0.1944 -13.6403 -0.026 -0.718 0.696 16 4 3 0 0
-2.4113 0.1645 -13.6860 -0.248 -0.723 0.644 20 4 2 0 0
-2.4816 -0.0090 -14.2270 -0.167 -0.720 0.674 92 51 41 0 0
-2.5861 0.1474 -15.1874 -0.247 -0.965 -0.092 109 57 41 0 0
-2.5907 0.1458 -15.2261 -0.224 -0.975 0.012 118 65 49 0 0
-2.7146 0.5117 -16.4328 -0.934 -0.352 -0.058 39 33 33 0 0
-2.7586 0.2811 -16.7254 -0.492 0.075 0.867 112 112 117 0 0
-2.2281 1.4738 -12.3614 -0.470 -0.645 0.602 123 50 31 0 0
-2.2313 1.4575 -12.3822 0.326 -0.793 0.514 123 50 31 0 0
-2.2344 1.4423 -12.4038 0.398 -0.709 0.582 122 49 30 0 0
-2.2670 0.6973 -12.4108 0.096 -0.280 0.955 127 45 23 0 0
-2.2705 0.6911 -12.4385 -0.266 -0.209 0.941 130 48 26 0 0
-2.2736 0.6751 -12.4588 0.266 -0.416 0.870 130 51 29 0 0
-2.2995 0.1773 -12.4997 0.201 -0.262 0.944 126 45 24 0 0
-2.4016 0.3183 -13.4234 0.464 -0.868 -0.177 11 2 2 0 0
-2.4068 0.3370 -13.4742 0.830 -0.544 0.120 12 3 2 0 0
-2.4132 0.3040 -13.5169 0.768 -0.540 0.346 15 4 4 0 0
-2.4251 0.2214 -13.5886 0.149 -0.724 0.673 18 4 3 0 0
-2.4274 0.1892 -13.5967 0.399 -0.350 0.848 17 4 4 0 0
-2.4312 0.1833 -13.6272 0.079 -0.840 0.537 16 4 3 0 0
-2.4352 0.1790 -13.6591 0.325 -0.915 0.239 18 4 3 0 0
-2.4466 0.0874 -13.7232 -0.179 -0.498 0.849 62 12 3 0 0
-2.5057 0.0048 -14.1984 -0.147 -0.904 0.401 109 64 52 0 0
-2.5096 -0.0021 -14.2295 -0.098 -0.656 0.749 89 45 36 0 0
-2.5208 -0.0326 -14.3140 -0.316 -0.919 0.237 106 58 50 0 0
-2.7913 0.3081 -16.7492 -0.382 0.055 0.922 114 114 119 0 0
-2.2291 2.0595 -12.3444 -0.423 -0.749 0.510 118 50 35 0 0
-2.2524 1.4987 -12.3436 -0.425 -0.691 0.584 124 50 32 0 0
-2.2557 1.4876 -12.3681 -0.470 -0.645 0.602 124 49 30 0 0
-2.2643 1.3304 -12.3857 0.217 0.140 0.966 124 49 29 0 0
-2.2800 0.9915 -12.3990 0.097 -0.288 0.953 127 46 25 0 0
-2.2844 0.9191 -12.4105 -0.277 -0.110 0.955 128 48 26 0 0
-2.2889 0.8508 -12.4248 -0.154 -0.110 0.982 128 46 25 0 0
-2.3058 0.5561 -12.4633 -0.124 -0.417 0.900 130 49 28 0 0
-2.3421 0.0513 -12.5931 -0.231 -0.596 0.769 161 98 85 0 0
-2.3683 -0.0434 -12.7809 -0.338 -0.922 0.189 82 25 16 0 0
-2.4287 0.3181 -13.4198 0.673 -0.738 -0.046 23 8 5 0 0
-2.4322 0.3068 -13.4454 0.789 -0.612 0.055 21 7 4 0 0
-2.4390 0.2817 -13.4946 0.712 -0.528 0.463 19 6 3 0 0
-2.4444 0.2308 -13.5222 0.721 -0.268 0.639 19 6 4 0 0
-2.4609 0.0858 -13.6111 -0.453 -0.851 0.264 22 4 1 0 0
-2.4789 0.0335 -13.7444 -0.070 -0.644 0.762 126 78 46 0 0
-2.4871 -0.0394 -13.7885 0.376 -0.554 0.742 66 15 6 0 0
-2.5335 0.0093 -14.1986 -0.147 -0.904 0.401 104 60 49 0 0
-2.5371 -0.0040 -14.2239 -0.113 -0.473 0.874 98 52 40 0 0
-2.5405 -0.0187 -14.2479 -0.182 -0.808 0.560 120 69 54 0 0
-2.5445 -0.0252 -14.2794 -0.183 -0.922 0.341 111 62 52 0 0
-2.8248 0.3436 -16.7821 0.036 -0.065 0.997 117 117 119 0 0
-2.3348 0.4565 -12.4493 0.218 -0.390 0.895 131 50 29 0 0
-2.3372 0.4290 -12.4606 0.218 -0.390 0.895 128 49 27 0 0
-2.3432 0.3189 -12.4734 -0.145 -0.178 0.973 128 48 27 0 0
-2.3451 0.2795 -12.4754 -0.206 -0.214 0.955 125 44 23 0 0
-2.3475 0.2505 -12.4854 -0.203 -0.327 0.923 125 44 23 0 0
-2.3655 0.0772 -12.5777 -0.446 -0.526 0.724 146 82 71 0 0
-2.3683 0.0568 -12.5942 -0.446 -0.526 0.724 162 97 80 0 0
-2.3957 -0.0184 -12.7979 -0.653 -0.741 0.158 90 36 26 0 0
-2.4537 0.2847 -13.3884 0.744 -0.667 0.037 25 7 2 0 0
-2.5062 0.0370 -13.7439 -0.070 -0.644 0.762 111 68 39 0 0
-2.5617 0.0187 -14.2035 -0.163 -0.932 0.325 98 52 39 0 0
-2.5656 0.0108 -14.2336 -0.353 -0.536 0.767 114 66 55 0 0
-2.5688 -0.0089 -14.2531 -0.340 -0.635 0.694 119 68 55 0 0
-2.5737 -0.0019 -14.2969 -0.415 -0.812 0.409 104 57 47 0 0
-2.5798 0.0214 -14.3559 -0.665 -0.716 0.213 99 55 46 0 0
-2.6662 0.1934 -15.1390 -0.728 -0.632 0.264 95 51 44 0 0
-2.6704 0.1855 -15.1715 -0.710 -0.603 0.363 94 51 42 0 0
-2.7544 0.3201 -15.9226 -0.813 -0.537 0.225 38 32 32 0 0
-2.7629 0.3633 -16.0086 -0.582 -0.792 -0.182 38 32 32 0 0
-2.8750 0.3838 -16.9562 -0.032 0.377 0.926 129 129 131 0 0
-2.3270 1.0236 -12.3517 -0.412 -0.692 0.592 130 49 28 0 0
-2.3424 0.8605 -12.4258 -0.010 -0.111 0.994 128 47 26 0 0
-2.3589 0.5691 -12.4668 -0.409 -0.352 0.842 132 51 30 0 0
-2.3654 0.3938 -12.4630 -0.145 -0.178 0.973 129 51 29 0 0
-2.3675 0.3601 -12.4695 -0.145 -0.178 0.973 130 52 30 0 0
-2.3697 0.3263 -12.4760 -0.145 -0.178 0.973 127 47 26 0 0
-2.3967 0.0301 -12.6026 -0.309 -0.138 0.941 156 82 59 0 0
-2.4210 -0.0996 -12.7619 -0.413 -0.692 0.592 93 53 41 0 0
-2.4241 -0.1152 -12.7824 -0.413 -0.692 0.592 91 47 39 0 0
-2.4766 0.2182 -13.3294 0.010 -0.981 0.195 27 8 2 0 0
-2.4813 0.2263 -13.3710 0.708 -0.672 0.218 28 9 3 0 0
-2.5900 0.0291 -14.2091 -0.291 -0.874 0.388 98 50 34 0 0
-2.5936 0.0162 -14.2346 -0.344 -0.349 0.872 121 72 61 0 0
-2.5972 0.0027 -14.2598 -0.453 -0.783 0.427 112 61 51 0 0
-2.6032 0.0238 -14.3166 -0.694 -0.686 0.220 101 55 46 0 0
-2.6072 0.0176 -14.3485 -0.802 -0.405 0.439 99 55 46 0 0
-2.6945 0.3171 -15.1731 -0.103 -0.986 -0.133 108 59 48 0 0
-2.8539 0.6604 -16.6112 0.762 0.081 0.642 41 36 33 0 0
-2.3668 0.8979 -12.4180 0.083 -0.229 0.970 129 51 29 0 0
-2.3765 0.7037 -12.4355 -0.050 -0.532 0.845 134 53 31 0 0
-2.3867 0.5988 -12.4862 0.172 -0.243 0.955 130 52 30 0 0
-2.3890 0.5676 -12.4950 0.091 -0.245 0.965 131 53 31 0 0
-2.3957 0.3271 -12.4734 -0.375 -0.320 0.870 133 55 33 0 0
-2.3980 0.2976 -12.4831 -0.431 -0.341 0.836 131 53 31 0 0
-2.4076 0.1159 -12.5040 0.230 -0.167 0.959 124 53 35 0 0
-2.4233 0.0428 -12.6095 -0.309 -0.138 0.941 149 76 51 0 0
-2.4922 0.1715 -13.2179 -0.330 -0.933 0.146 33 10 5 0 0
-2.5002 0.1657 -13.2822 0.156 -0.852 0.500 28 10 3 0 0
-2.5044 0.1650 -13.3163 0.284 -0.923 0.260 29 10 5 0 0
-2.5085 0.1636 -13.3499 0.327 -0.941 0.084 29 8 4 0 0
-2.5453 0.1373 -13.6447 0.525 -0.756 0.390 50 13 8 0 0
-2.6328 0.0506 -14.3373 -0.798 -0.534 0.278 99 54 45 0 0
-2.7098 0.2657 -15.0403 -0.734 -0.636 0.238 118 67 53 0 0
-2.7140 0.2577 -15.0725 -0.628 -0.748 0.212 117 66 52 0 0
-2.7232 0.3148 -15.1668 0.180 -0.978 -0.104 100 52 42 0 0
-2.8138 0.3836 -15.9351 -0.810 -0.513 0.286 35 30 30 0 0
-2.8181 0.3728 -15.9667 -0.810 -0.513 0.286 36 30 30 0 0
-2.8611 0.6357 -16.4048 -0.468 -0.705 0.534 36 30 30 0 0
-2.9434 -0.0210 -16.8729 -0.285 -0.306 0.909 149 147 148 0 0
-2.3790 1.0025 -12.3302 -0.046 -0.944 0.326 126 50 27 0 0
-2.3866 1.0732 -12.4140 -0.011 -0.940 0.340 126 49 27 0 0
-2.3892 1.0467 -12.4270 0.041 -0.954 0.296 126 47 25 0 0
-2.3909 0.9275 -12.4043 0.059 -0.384 0.922 129 51 29 0 0
-2.3937 0.9044 -12.4196 0.000 -0.277 0.961 131 53 31 0 0
-2.3977 0.8305 -12.4297 -0.010 -0.111 0.994 129 49 26 0 0
-2.4128 0.5950 -12.4801 -0.385 -0.413 0.825 131 53 31 0 0
-2.4162 0.4414 -12.4607 -0.030 -0.208 0.978 126 45 24 0 0
-2.4179 0.3998 -12.4613 -0.265 -0.230 0.936 126 44 23 0 0
-2.4201 0.3684 -12.4696 -0.265 -0.230 0.936 126 46 25 0 0
-2.4223 0.3370 -12.4779 -0.265 -0.230 0.936 127 49 26 0 0
-2.4352 0.0769 -12.5027 0.361 -0.244 0.900 136 72 56 0 0
-2.5090 0.0827 -13.1067 -0.428 -0.836 0.344 38 13 7 0 0
-2.5158 0.1247 -13.1757 -0.112 -0.968 0.227 35 12 5 0 0
-2.5252 0.1400 -13.2573 0.275 -0.952 0.131 30 9 4 0 0
-2.5716 0.1259 -13.6313 0.397 -0.867 0.302 66 23 7 0 0
-2.5830 0.1002 -13.7163 -0.335 -0.907 0.255 110 60 33 0 0
-2.6338 -0.0009 -14.1002 -0.813 -0.577 0.078 106 53 37 0 0
-2.6385 0.0005 -14.1384 -0.813 -0.577 0.078 102 52 38 0 0
-2.7411 0.2999 -15.0687 -0.423 -0.883 0.206 118 63 50 0 0
-2.7469 0.3114 -15.1194 0.030 -0.988 0.152 99 46 34 0 0
-2.8116 0.4328 -15.6853 -0.509 -0.764 0.397 73 42 34 0 0
-2.8454 0.4058 -15.9529 -0.773 -0.531 0.347 36 30 28 0 0
-2.8495 0.3926 -15.9821 -0.773 -0.531 0.347 35 29 29 0 0
-2.8978 0.6464 -16.4550 0.891 -0.453 0.024 35 29 29 0 0
-2.9057 0.6125 -16.5084 0.787 -0.041 0.616 39 33 33 0 0
-2.4130 0.9939 -12.3853 0.368 -0.215 0.905 129 51 29 0 0
-2.4175 0.9297 -12.4028 -0.054 -0.233 0.971 128 50 28 0 0
-2.4198 0.8982 -12.4120 0.003 -0.277 0.961 130 52 30 0 0
-2.4489 0.3476 -12.4829 -0.265 -0.230 0.936 127 49 27 0 0
-2.5183 0.0779 -12.9636 -0.447 -0.888 -0.112 58 20 8 0 0
-2.5371 0.1088 -13.1249 -0.271 -0.945 0.181 41 14 7 0 0
-2.5470 0.1956 -13.2311 0.579 -0.725 0.373 37 12 5 0 0
-2.5509 0.1250 -13.2414 0.282 -0.954 0.102 32 8 5 0 0
-2.5584 0.1089 -13.2971 -0.016 -1.000 0.019 48 17 10 0 0
-2.5626 0.1084 -13.3314 -0.016 -1.000 0.019 79 44 33 0 0
-2.5971 0.1044 -13.6092 0.043 -0.982 0.182 109 63 32 0 0
-2.6202 0.0542 -13.7804 -0.082 -0.707 0.702 59 13 2 0 0
-2.7703 0.3065 -15.0708 -0.303 -0.948 0.097 100 45 34 0 0
-2.8377 0.4536 -15.6598 -0.332 -0.892 0.306 96 64 51 0 0
-2.8418 0.4405 -15.6886 -0.439 -0.709 0.552 71 35 25 0 0
-2.4285 1.1593 -12.3412 0.214 -0.194 0.957 123 47 27 0 0
-2.4340 1.1127 -12.3719 0.254 -0.261 0.931 126 49 30 0 0
-2.4334 1.0290 -12.3434 -0.169 -0.699 0.695 126 51 30 0 0
-2.4361 1.0048 -12.3580 0.151 -0.642 0.752 127 52 30 0 0
-2.4394 0.9911 -12.3802 -0.323 -0.406 0.855 129 52 31 0 0
-2.4420 0.9652 -12.3935 -0.323 -0.406 0.855 125 49 26 0 0
-2.4475 0.9201 -12.4250 -0.142 -0.512 0.847 126 48 26 0 0
-2.4499 0.8910 -12.4359 -0.139 -0.569 0.811 125 47 25 0 0
-2.4753 0.3540 -12.4847 -0.233 -0.318 0.919 128 50 28 0 0
-2.4949 -0.0525 -12.5242 -0.206 -0.530 0.823 153 73 29 0 0
-2.5467 0.1092 -12.9859 -0.726 -0.675 0.134 68 27 15 0 0
-2.5771 0.1184 -13.2324 0.072 -0.994 0.077 40 8 2 0 0
-2.5809 0.1114 -13.2611 -0.082 -0.997 0.004 48 13 7 0 0
-2.5852 0.1116 -13.2959 -0.082 -0.997 0.004 61 21 9 0 0
-2.5896 0.1118 -13.3308 -0.082 -0.997 0.004 74 31 15 0 0
-2.6399 0.0762 -13.7241 -0.065 -0.913 0.403 65 25 22 0 0
-2.6436 0.0657 -13.7508 -0.005 -0.869 0.494 52 7 3 0 0
-2.8829 0.4552 -15.7822 -0.160 -0.962 0.221 90 48 38 0 0
-2.8879 0.4522 -15.8212 -0.292 -0.918 0.270 51 30 25 0 0
-2.9080 0.5004 -15.9960 -0.502 -0.864 -0.040 32 28 27 0 0
-2.9106 0.4706 -16.0088 -0.646 -0.747 0.159 33 28 28 0 0
-2.9471 0.6985 -16.3671 -0.265 0.270 0.926 33 27 27 0 0
-2.4549 1.1563 -12.3359 0.214 -0.194 0.957 123 48 29 0 0
-2.4605 1.1104 -12.3672 0.314 -0.259 0.913 124 48 30 0 0
-2.4683 1.0327 -12.4075 -0.659 -0.291 0.694 127 50 29 0 0
-2.4691 0.9762 -12.3985 -0.323 -0.406 0.855 125 49 26 0 0
-2.4719 0.9531 -12.4138 -0.306 -0.282 0.909 127 49 27 0 0
-2.4744 0.9257 -12.4261 -0.142 -0.512 0.847 127 49 26 0 0
-2.4767 0.8963 -12.4367 -0.139 -0.569 0.811 129 49 26 0 0
-2.4981 0.3667 -12.4589 0.060 -0.363 0.930 128 47 26 0 0
-2.5222 -0.0269 -12.5413 -0.437 -0.538 0.721 141 62 14 0 0
-2.6163 0.1124 -13.3279 -0.159 -0.987 0.030 109 62 39 0 0
-2.6251 0.1134 -13.3984 -0.245 -0.969 0.036 110 65 42 0 0
-2.7168 0.0684 -14.1142 -0.542 -0.824 -0.168 100 49 34 0 0
-2.8887 0.4825 -15.5964 -0.321 -0.947 -0.017 89 42 26 0 0
-2.4986 0.9567 -12.4134 -0.330 -0.230 0.915 125 47 25 0 0
-2.5011 0.9299 -12.4260 -0.301 -0.372 0.878 127 49 27 0 0
-2.5106 0.6780 -12.4329 -0.031 -0.377 0.926 131 50 29 0 0
-2.5189 0.4799 -12.4451 0.246 -0.219 0.944 131 53 32 0 0
-2.5233 0.4201 -12.4643 0.256 -0.505 0.824 128 47 26 0 0
-2.5391 0.0890 -12.4996 -0.029 -0.247 0.969 153 94 79 0 0
-2.5430 0.0225 -12.5122 -0.213 -0.283 0.935 157 77 47 0 0
-2.5454 -0.0036 -12.5240 -0.203 -0.278 0.939 162 81 39 0 0
-2.6165 0.1086 -13.1145 0.042 -0.986 0.164 104 63 41 0 0
-2.6389 0.1171 -13.2937 -0.159 -0.987 0.030 109 69 47 0 0
-2.7196 0.1103 -13.9275 -0.433 -0.780 0.452 65 31 24 0 0
-2.7314 0.0837 -14.0136 -0.310 -0.770 0.558 72 17 6 0 0
-2.8839 0.3882 -15.2968 -0.178 -0.966 -0.188 106 69 50 0 0
-2.8902 0.4012 -15.3498 -0.201 -0.958 -0.204 100 61 43 0 0
-2.8965 0.4142 -15.4029 -0.246 -0.952 -0.180 88 45 29 0 0
-2.9343 0.4863 -15.7204 -0.402 -0.640 0.655 71 29 24 0 0
-2.5200 1.0779 -12.4020 -0.227 -0.235 0.945 126 49 30 0 0
-2.5236 0.9999 -12.4097 0.105 -0.451 0.886 123 46 26 0 0
-2.5372 0.6830 -12.4336 -0.099 -0.381 0.919 130 52 30 0 0
-2.5459 0.4949 -12.4534 -0.205 -0.077 0.976 126 48 27 0 0
-2.5494 0.4203 -12.4613 -0.014 -0.383 0.924 127 46 25 0 0
-2.5517 0.3920 -12.4720 -0.006 -0.383 0.924 127 46 25 0 0
-2.5601 0.1409 -12.4722 -0.407 -0.315 0.858 128 63 54 0 0
-2.5683 0.0159 -12.5038 -0.455 -0.509 0.731 162 81 49 0 0
-2.6307 0.1194 -13.0181 0.259 -0.953 0.157 103 65 49 0 0
-2.6389 0.1137 -13.0813 -0.200 -0.944 0.262 106 67 53 0 0
-2.6431 0.1103 -13.1126 -0.137 -0.926 0.352 105 65 51 0 0
-2.6472 0.1078 -13.1447 0.004 -0.995 0.101 101 63 48 0 0
-2.6991 0.1461 -13.5598 -0.141 -0.985 0.099 79 46 38 0 0
-2.7437 0.1284 -13.9033 -0.443 -0.881 0.166 82 43 30 0 0
-2.7556 0.1021 -13.9896 -0.455 -0.710 0.537 58 11 2 0 0
-2.7592 0.0883 -14.0140 -0.619 -0.596 0.510 78 18 5 0 0
-2.8462 0.2636 -14.7393 -0.741 -0.670 0.049 89 57 46 0 0
-2.9552 0.5081 -15.6542 -0.226 -0.947 0.226 82 44 36 0 0
-2.9651 0.5001 -15.7296 -0.371 -0.694 0.617 87 46 39 0 0
-2.9794 0.4806 -15.8362 -0.423 -0.861 0.282 21 15 17 0 0
-2.5341 1.4209 -12.3872 -0.300 -0.810 0.504 126 51 34 0 0
-2.5375 1.4078 -12.4102 -0.300 -0.810 0.504 123 48 32 0 0
-2.5394 1.3704 -12.4158 0.274 -0.501 0.821 124 48 31 0 0
-2.5425 1.2149 -12.4012 0.477 -0.458 0.750 125 50 31 0 0
-2.5637 0.6881 -12.4343 -0.099 -0.381 0.919 131 52 30 0 0
-2.5727 0.5054 -12.4582 -0.205 -0.077 0.976 126 47 26 0 0
-2.5933 0.0660 -12.5076 -0.410 -0.303 0.860 149 76 53 0 0
-2.5948 0.0287 -12.5107 -0.454 -0.588 0.669 160 79 43 0 0
-2.6566 0.1137 -13.0100 0.259 -0.953 0.157 95 58 50 0 0
-2.6610 0.1143 -13.0444 0.470 -0.578 0.667 94 59 50 0 0
-2.7307 0.1473 -13.5927 -0.141 -0.985 0.099 94 58 42 0 0
-2.7352 0.1455 -13.6267 -0.113 -0.976 0.184 105 68 50 0 0
-2.7678 0.1474 -13.8800 -0.696 -0.666 0.269 92 48 32 0 0
-2.7726 0.1491 -13.9179 -0.698 -0.500 0.513 83 43 30 0 0
-2.7773 0.1482 -13.9535 -0.563 -0.548 0.618 66 27 19 0 0
-2.5643 1.2703 -12.3734 0.117 -0.395 0.911 126 50 34 0 0
-2.5667 1.2420 -12.3853 0.117 -0.395 0.911 124 48 32 0 0
-2.5710 1.1759 -12.4023 0.249 -0.309 0.918 126 51 30 0 0
-2.5737 1.1525 -12.4177 0.276 -0.662 0.696 126 49 31 0 0
-2.5765 1.1299 -12.4336 0.202 -0.606 0.770 127 50 31 0 0
-2.5773 1.0762 -12.4269 -0.103 -0.496 0.862 127 50 30 0 0
-2.5796 0.9797 -12.4210 -0.196 -0.280 0.940 126 48 28 0 0
-2.5941 0.6860 -12.4620 -0.335 -0.255 0.907 128 50 28 0 0
-2.6203 0.0837 -12.5184 -0.422 -0.261 0.868 149 73 41 0 0
-2.6219 0.0473 -12.5222 -0.327 -0.383 0.864 157 80 35 0 0
-2.6537 0.1315 -12.7864 -0.375 -0.486 0.789 88 38 24 0 0
-2.6486 0.0044 -12.7174 -0.567 -0.787 0.243 95 52 41 0 0
-2.6839 0.1274 -13.0179 -0.348 -0.422 0.837 87 49 40 0 0
-2.6865 0.1026 -13.0314 -0.029 -0.488 0.872 85 47 37 0 0
-2.6900 0.0906 -13.0556 -0.107 -0.868 0.485 81 42 34 0 0
-2.7526 0.1414 -13.5487 0.185 -0.970 0.157 92 55 37 0 0
-2.9076 0.3183 -14.7821 -0.693 -0.716 0.089 115 76 57 0 0
-2.9493 0.3819 -15.1176 -0.333 -0.934 -0.129 80 32 25 0 0
-2.9895 0.4751 -15.4489 -0.616 -0.784 -0.071 59 22 16 0 0
-3.0828 0.7048 -16.2206 -0.470 -0.868 -0.159 25 20 20 0 0
-3.0902 0.7225 -16.2815 -0.575 -0.797 -0.187 27 21 21 0 0
-2.5845 1.5702 -12.3896 0.164 -0.324 0.932 122 49 32 0 0
-2.6040 1.0778 -12.4250 0.348 -0.625 0.699 128 51 31 0 0
-2.6120 0.7509 -12.4103 -0.218 -0.612 0.760 126 49 27 0 0
-2.6156 0.7409 -12.4352 0.027 -0.454 0.890 128 50 28 0 0
-2.6182 0.7170 -12.4497 -0.127 -0.556 0.821 128 50 28 0 0
-2.6207 0.6914 -12.4629 -0.211 -0.461 0.862 130 52 30 0 0
-2.6228 0.6587 -12.4708 -0.211 -0.538 0.816 126 48 26 0 0
-2.6301 0.3972 -12.4666 0.015 -0.463 0.886 124 46 24 0 0
-2.6492 0.0687 -12.5359 -0.115 -0.308 0.944 144 70 23 0 0
-2.6763 0.1437 -12.7597 -0.087 -0.991 0.104 76 19 9 0 0
-2.6806 0.1428 -12.7922 -0.375 -0.486 0.789 95 44 31 0 0
-2.6831 0.1174 -12.8050 -0.529 -0.680 0.507 96 55 44 0 0
-2.7113 0.1410 -13.0257 0.404 -0.611 0.681 74 35 20 0 0
-2.7134 0.1105 -13.0346 0.615 -0.382 0.690 77 38 22 0 0
-2.7171 0.1003 -13.0602 0.474 -0.569 0.673 82 42 26 0 0
-3.1158 0.7316 -16.2427 -0.510 -0.827 -0.238 29 24 24 0 0
-3.2132 0.4952 -16.9307 -0.094 -0.983 -0.155 119 119 121 0 0
-3.2153 0.4594 -16.9382 -0.032 -0.936 0.351 123 121 124 0 0
-3.2132 0.3859 -16.9053 0.564 0.129 0.815 127 125 128 0 0
-2.6104 1.5537 -12.3750 0.349 -0.242 0.905 121 46 30 0 0
-2.6344 1.0067 -12.4346 0.264 -0.614 0.744 126 48 29 0 0
-2.7088 0.1699 -12.8106 -0.563 -0.367 0.740 101 51 39 0 0
-2.7105 0.1355 -12.8163 -0.699 -0.610 0.374 93 55 44 0 0
-2.7372 0.1347 -13.0172 0.329 -0.621 0.711 95 56 42 0 0
-2.7401 0.1146 -13.0346 0.148 -0.470 0.870 94 55 39 0 0
-2.7726 0.1241 -13.2823 0.282 -0.451 0.847 88 49 37 0 0
-2.9624 0.3528 -14.7672 -0.444 -0.842 0.306 82 23 11 0 0
-2.9721 0.3455 -14.8384 -0.354 -0.934 0.044 114 48 27 0 0
-2.9834 0.3560 -14.9266 -0.318 -0.943 -0.103 84 20 13 0 0
-3.1343 0.7287 -16.1492 -0.013 -0.997 -0.076 34 25 26 0 0
-3.1598 0.8094 -16.3595 -0.601 -0.756 -0.259 32 26 26 0 0
-3.1672 0.8252 -16.4190 -0.541 -0.769 -0.341 33 27 27 0 0
-3.2455 0.5084 -16.9398 -0.292 -0.937 -0.192 118 118 120 0 0
-3.2455 0.4550 -16.9286 0.184 -0.624 0.760 122 120 123 0 0
-2.6373 1.5512 -12.3701 0.286 -0.155 0.946 122 46 30 0 0
-2.6532 1.1449 -12.4029 -0.350 -0.434 0.830 124 48 29 0 0
-2.6567 1.0703 -12.4133 0.335 -0.785 0.521 122 45 27 0 0
-2.6604 0.9989 -12.4258 -0.162 -0.294 0.942 124 46 27 0 0
-2.6714 0.7257 -12.4500 0.129 -0.294 0.947 130 52 33 0 0
-2.6744 0.7069 -12.4682 -0.112 -0.658 0.745 130 52 34 0 0
-2.6769 0.6817 -12.4818 -0.093 -0.923 0.373 125 47 27 0 0
-2.7351 0.1720 -12.8091 -0.641 -0.576 0.507 102 53 43 0 0
-2.7657 0.2183 -13.0482 -0.750 -0.624 0.219 90 51 42 0 0
-2.7721 0.1296 -13.0775 -0.409 0.018 0.912 88 49 37 0 0
-2.7759 0.1201 -13.1038 -0.337 -0.834 0.436 90 52 40 0 0
-2.8001 0.1356 -13.2885 -0.533 -0.173 0.828 93 56 43 0 0
-2.8719 0.2564 -13.8517 -0.502 -0.849 0.165 97 62 45 0 0
-2.9920 0.3655 -14.7750 -0.444 -0.842 0.306 81 20 8 0 0
-3.0014 0.3552 -14.8434 -0.364 -0.931 0.017 110 43 25 0 0
-3.0070 0.3589 -14.8860 -0.348 -0.935 -0.066 88 21 13 0 0
-2.6657 1.5723 -12.3819 0.025 -0.053 0.998 122 46 30 0 0
-2.6804 1.1532 -12.4058 -0.270 -0.531 0.803 123 48 29 0 0
-2.6795 1.0787 -12.3840 0.222 -0.830 0.512 124 48 29 0 0
-2.6827 1.0615 -12.4038 0.196 -0.858 0.474 123 46 28 0 0
-2.6882 1.0162 -12.4354 -0.178 -0.596 0.783 125 47 27 0 0
-2.6910 0.9950 -12.4522 -0.178 -0.596 0.783 125 47 27 0 0
-2.6947 0.7437 -12.4279 -0.117 -0.172 0.978 127 49 28 0 0
-2.6977 0.7253 -12.4465 0.129 -0.294 0.947 126 48 28 0 0
-2.7007 0.7076 -12.4657 0.036 -0.778 0.627 128 50 30 0 0
-2.7279 0.0874 -12.5411 -0.303 -0.394 0.868 124 53 15 0 0
-2.7625 0.1877 -12.8183 -0.516 -0.820 0.248 95 50 40 0 0
-2.7969 0.1659 -13.0699 -0.627 -0.035 0.778 92 59 46 0 0
-2.8063 0.1676 -13.1396 -0.657 -0.342 0.672 91 55 43 0 0
-2.8402 0.2387 -13.4061 -0.292 -0.934 0.207 88 52 38 0 0
-2.8573 0.2734 -13.5408 -0.057 -0.992 0.115 87 51 36 0 0
-2.8622 0.2745 -13.5771 -0.014 -0.997 0.081 92 56 42 0 0
-2.9140 0.2587 -13.9591 -0.485 -0.817 0.313 111 67 44 0 0
-3.0161 0.3759 -14.7418 -0.420 -0.904 0.073 74 13 4 0 0
-3.0202 0.3638 -14.7694 -0.476 -0.815 0.332 99 35 18 0 0
-3.0249 0.3578 -14.8028 -0.407 -0.816 0.410 108 42 20 0 0
-3.0310 0.3672 -14.8505 -0.537 -0.836 0.110 94 26 17 0 0
-3.0374 0.3787 -14.9005 -0.514 -0.854 -0.076 70 12 7 0 0
-3.1053 0.5734 -15.4446 0.099 -0.968 0.229 93 50 43 0 0
-3.1114 0.5792 -15.4911 -0.237 -0.963 -0.130 97 53 44 0 0
-3.1708 0.7747 -15.9722 -0.246 -0.887 0.390 45 34 35 0 0
-3.1747 0.7578 -15.9981 -0.331 -0.883 0.332 44 33 32 0 0
-2.6485 4.4564 -12.6175 -0.221 0.355 0.908 103 63 55 0 0
-2.6941 1.5298 -12.3812 -0.136 -0.180 0.974 123 47 31 0 0
-2.7069 1.1515 -12.4015 -0.176 -0.607 0.775 123 48 29 0 0
-2.7059 1.0762 -12.3791 0.044 -0.889 0.456 124 47 29 0 0
-2.7092 1.0609 -12.4003 -0.088 -0.787 0.610 122 45 27 0 0
-2.7124 1.0452 -12.4211 -0.088 -0.787 0.610 124 45 28 0 0
-2.7178 0.9988 -12.4519 -0.197 -0.542 0.817 126 48 28 0 0
-2.7219 0.7561 -12.4341 0.312 -0.291 0.904 129 51 30 0 0
-2.7268 0.7043 -12.4601 0.231 -0.780 0.581 130 52 31 0 0
-2.7297 0.6856 -12.4785 0.083 -0.906 0.415 128 50 29 0 0
-2.7322 0.6604 -12.4920 -0.113 -0.603 0.789 128 50 28 0 0
-2.7526 0.0741 -12.5274 -0.502 -0.623 0.600 112 51 19 0 0
-3.0400 0.3840 -14.7066 -0.318 -0.942 -0.107 69 11 1 0 0
-3.0499 0.3771 -14.7777 -0.353 -0.883 0.310 107 41 22 0 0
-3.0544 0.3692 -14.8094 -0.407 -0.816 0.410 97 31 18 0 0
-3.0615 0.3879 -14.8658 -0.560 -0.826 0.067 75 15 10 0 0
-3.0848 0.4604 -15.0517 -0.159 -0.976 -0.149 60 13 7 0 0
-3.1329 0.5575 -15.4252 0.462 -0.673 0.578 99 56 50 0 0
-3.1394 0.5665 -15.4747 0.174 -0.979 -0.104 70 36 30 0 0
-3.1918 0.7981 -15.9060 -0.679 -0.654 0.335 43 26 26 0 0
-3.1962 0.7857 -15.9362 -0.546 -0.798 0.256 40 24 24 0 0
-2.7306 1.1711 -12.3803 -0.255 -0.023 0.967 124 47 28 0 0
-2.7325 1.0771 -12.3767 -0.234 -0.724 0.649 124 47 29 0 0
-2.7360 1.0644 -12.3997 -0.088 -0.787 0.610 126 49 31 0 0
-2.7457 1.0170 -12.4622 -0.088 -0.787 0.610 124 46 26 0 0
-2.7584 0.6598 -12.4884 0.292 -0.774 0.562 125 47 25 0 0
-3.0793 0.3877 -14.7836 -0.287 -0.862 0.417 101 35 19 0 0
-3.1087 0.4662 -15.0134 -0.379 -0.924 -0.052 61 12 7 0 0
-3.2236 0.8155 -15.9185 -0.809 -0.508 0.294 27 8 6 0 0
-3.2326 0.7918 -15.9801 -0.572 -0.772 0.277 29 9 8 0 0
-3.2375 0.7832 -16.0141 -0.572 -0.772 0.277 29 10 9 0 0
-3.2424 0.7745 -16.0482 -0.494 -0.835 0.243 29 11 10 0 0
-3.2402 0.7014 -16.0188 -0.222 -0.711 0.667 30 13 13 0 0
-3.2438 0.6812 -16.0416 -0.222 -0.711 0.667 29 15 15 0 0
-2.7583 1.1853 -12.3875 0.540 -0.468 0.700 123 48 29 0 0
-2.7595 1.0832 -12.3781 -0.348 -0.615 0.708 124 47 29 0 0
-2.7656 1.0469 -12.4162 -0.306 -0.767 0.563 127 50 31 0 0
-2.8318 0.2424 -12.7525 -0.278 -0.899 0.338 66 12 5 0 0
-2.8518 0.2079 -12.8915 -0.524 -0.852 0.007 98 62 51 0 0
-3.1049 0.4131 -14.7642 -0.487 -0.873 -0.010 103 36 17 0 0
-3.1261 0.4620 -14.9265 -0.531 -0.844 0.080 62 13 5 0 0
-2.7868 1.0936 -12.3825 -0.348 -0.615 0.708 122 45 27 0 0
-2.8094 0.6967 -12.4774 -0.548 -0.689 0.475 123 45 23 0 0
-2.8591 0.2555 -12.7597 -0.462 -0.677 0.573 72 17 10 0 0
-3.1058 0.4058 -14.5609 -0.364 -0.931 0.006 78 15 8 0 0
-3.3179 0.7014 -16.1381 -0.077 -0.954 -0.290 36 17 16 0 0
-2.8257 1.0216 -12.4562 -0.017 -0.679 0.734 122 44 26 0 0
-2.8359 0.6995 -12.4764 -0.388 -0.676 0.626 123 45 24 0 0
-2.8548 0.1702 -12.5252 0.029 -0.354 0.935 138 80 33 0 0
-2.8833 0.2861 -12.7475 -0.580 -0.523 0.624 73 13 4 0 0
-2.9071 0.2393 -12.9102 -0.412 -0.909 -0.057 92 61 49 0 0
-2.9128 0.2501 -12.9525 -0.230 -0.973 -0.023 91 56 45 0 0
-3.0881 0.3202 -14.2160 -0.611 -0.790 -0.053 126 70 51 0 0
-3.0945 0.3318 -14.2636 -0.568 -0.818 -0.091 109 57 41 0 0
-3.1591 0.4397 -14.7419 0.039 -0.411 0.911 89 25 11 0 0
-3.1685 0.4775 -14.8155 -0.509 -0.860 0.032 73 15 6 0 0
-3.2413 0.4820 -15.3363 0.446 -0.789 0.423 25 4 3 0 0
-3.2607 0.5024 -15.4781 -0.473 -0.773 0.424 30 7 5 0 0
-3.2784 0.5572 -15.6132 0.194 -0.981 -0.024 31 8 4 0 0
-2.7845 4.4627 -12.5054 -0.260 0.352 0.899 201 197 195 0 0
-2.8395 1.3169 -12.4084 0.075 -0.428 0.901 121 46 27 0 0
-2.8433 1.3076 -12.4341 -0.248 -0.885 0.394 122 47 28 0 0
-2.8450 0.9884 -12.3964 0.019 -0.347 0.938 122 44 27 0 0
-3.0373 0.4091 -13.6699 -0.565 -0.663 0.491 109 59 29 0 0
-3.0410 0.3948 -13.6934 -0.565 -0.663 0.491 110 64 38 0 0
-3.1095 0.3605 -14.1736 0.163 -0.889 0.427 94 39 21 0 0
-3.1741 0.5188 -14.6556 0.105 -0.909 0.404 70 13 4 0 0
-3.1777 0.5019 -14.6787 -0.033 -0.896 0.444 73 13 3 0 0
-3.1819 0.4897 -14.7063 -0.046 -0.839 0.542 99 35 18 0 0
-3.1858 0.4752 -14.7317 0.018 -0.701 0.713 93 28 11 0 0
-3.1995 0.5006 -14.8327 -0.601 -0.798 -0.042 61 9 2 0 0
-2.8115 4.4196 -12.4764 -0.302 0.212 0.929 204 202 200 0 0
-2.8649 1.3006 -12.3936 -0.176 -0.241 0.955 121 46 27 0 0
-2.8705 1.3126 -12.4346 0.213 -0.762 0.611 121 46 27 0 0
-2.8639 1.1760 -12.3685 -0.422 -0.790 0.444 122 47 28 0 0
-2.8805 0.9328 -12.4495 0.132 -0.575 0.808 123 45 27 0 0
-2.8830 0.9071 -12.4629 -0.130 -0.823 0.553 125 48 29 0 0
-2.8859 0.8875 -12.4808 0.132 -0.575 0.808 125 48 27 0 0
-2.9572 0.2650 -12.8907 -0.705 -0.707 0.057 92 60 54 0 0
-2.9662 0.2582 -12.9524 -0.113 -0.985 0.132 26 11 7 0 0
-3.1282 0.3756 -14.1092 -0.651 -0.575 0.496 98 41 24 0 0
-3.1328 0.3687 -14.1401 -0.319 -0.610 0.725 97 32 14 0 0
-3.1372 0.3606 -14.1699 -0.289 -0.837 0.466 85 34 18 0 0
-3.1935 0.5374 -14.5917 0.019 -0.994 0.104 82 18 8 0 0
-3.1973 0.5219 -14.6160 -0.073 -0.946 0.317 70 12 3 0 0
-3.2015 0.5109 -14.6444 -0.087 -0.932 0.351 71 13 2 0 0
-3.2060 0.5018 -14.6747 -0.130 -0.942 0.309 91 29 14 0 0
-3.2103 0.4902 -14.7028 -0.073 -0.902 0.426 92 27 13 0 0
-3.2815 0.5264 -15.2088 0.389 -0.826 0.408 24 3 1 0 0
-3.3408 0.5885 -15.6349 -0.597 -0.482 0.641 37 11 7 0 0
-3.5412 0.2116 -16.9882 0.591 0.460 0.662 151 149 150 0 0
-2.8435 4.4537 -12.4940 -0.312 0.171 0.935 205 205 204 0 0
-2.8762 1.6216 -12.3276 -0.426 -0.633 0.646 118 45 28 0 0
-2.8821 1.5229 -12.3550 0.190 -0.272 0.943 121 45 29 0 0
-2.8941 1.3310 -12.4123 -0.106 -0.541 0.834 122 47 28 0 0
-2.8967 1.3061 -12.4269 0.221 -0.570 0.791 122 47 28 0 0
-2.8932 1.2085 -12.3889 -0.149 -0.652 0.743 123 48 29 0 0
-2.9070 0.9332 -12.4466 0.120 -0.564 0.817 122 45 27 0 0
-2.9096 0.9096 -12.4616 -0.007 -0.749 0.662 126 49 29 0 0
-3.1241 0.3734 -13.8839 -0.604 -0.762 0.234 90 42 29 0 0
-3.1648 0.4096 -14.1723 -0.703 -0.621 0.347 100 39 22 0 0
-3.1712 0.4201 -14.2188 -0.799 -0.572 0.187 83 34 19 0 0
-3.2220 0.5395 -14.5897 -0.053 -0.972 0.230 70 13 4 0 0
-3.2258 0.5244 -14.6144 -0.087 -0.932 0.351 69 12 2 0 0
-3.2310 0.5212 -14.6498 -0.141 -0.953 0.268 83 23 11 0 0
-3.2356 0.5131 -14.6810 -0.141 -0.953 0.268 92 28 14 0 0
-3.2974 0.5632 -15.1193 0.260 -0.882 0.392 64 19 13 0 0
-3.3015 0.5484 -15.1453 0.389 -0.826 0.408 34 3 2 0 0
-3.3055 0.5336 -15.1714 0.389 -0.826 0.408 24 2 1 0 0
-3.3095 0.5188 -15.1975 0.389 -0.826 0.408 22 4 2 0 0
-2.9213 1.3921 -12.4206 0.153 -0.771 0.618 121 46 27 0 0
-2.9232 1.3589 -12.4293 0.493 -0.504 0.710 122 47 28 0 0
-2.9362 0.9117 -12.4600 -0.062 -0.835 0.547 126 49 28 0 0
-3.0172 0.3425 -12.9462 -0.874 -0.454 0.173 23 9 6 0 0
-3.0539 0.4670 -13.2169 -0.398 -0.911 -0.107 7 2 1 0 0
-3.1972 0.4532 -14.2070 -0.729 -0.676 0.112 98 44 28 0 0
-3.2568 0.5490 -14.6327 0.021 -0.952 0.305 70 13 3 0 0
-3.2611 0.5375 -14.6607 0.190 -0.967 0.169 87 27 15 0 0
-3.4057 0.6393 -15.6755 -0.927 -0.105 0.361 42 13 10 0 0
-2.9280 1.7659 -12.3252 -0.614 -0.223 0.757 119 47 32 0 0
-2.9328 1.6552 -12.3450 -0.381 -0.461 0.801 119 45 28 0 0
-2.9356 1.6322 -12.3611 -0.190 -0.890 0.415 120 46 30 0 0
-2.9378 1.4354 -12.3515 0.269 -0.833 0.483 122 47 28 0 0
-2.9407 1.4149 -12.3692 0.107 -0.902 0.418 123 48 29 0 0
-2.9444 1.4031 -12.3931 0.059 -0.866 0.496 122 47 28 0 0
-2.9479 1.3887 -12.4151 0.067 -0.671 0.739 121 46 27 0 0
-2.9476 1.3305 -12.4058 0.236 -0.168 0.957 121 46 27 0 0
-2.9503 1.1457 -12.4018 0.037 -0.410 0.911 122 47 28 0 0
-2.9525 1.1166 -12.4131 0.079 -0.340 0.937 125 50 31 0 0
-3.0431 0.3875 -12.9454 -0.912 -0.368 0.183 46 28 22 0 0
-3.0816 0.4760 -13.2208 -0.125 -0.954 -0.271 7 2 3 0 0
-3.1348 0.6997 -13.6140 -0.214 -0.333 0.918 27 8 4 0 0
-3.1369 0.6703 -13.6252 -0.214 -0.333 0.918 25 6 2 0 0
-3.1755 0.4402 -13.8617 -0.615 -0.569 0.546 116 70 46 0 0
-3.2289 0.4891 -14.2348 -0.717 -0.697 -0.022 96 46 30 0 0
-3.2491 0.5235 -14.3777 -0.236 -0.971 0.048 108 54 39 0 0
-3.2753 0.5606 -14.5626 0.141 -0.802 0.581 72 13 4 0 0
-3.2852 0.5495 -14.6292 0.021 -0.952 0.305 68 12 3 0 0
-3.2929 0.5677 -14.6841 -0.289 -0.956 0.049 72 16 8 0 0
-3.4385 0.4700 -15.6726 0.235 -0.345 0.909 44 14 8 0 0
-2.9359 4.4964 -12.5107 -0.497 0.002 0.868 211 211 212 0 0
-2.9570 1.7888 -12.3381 -0.563 -0.135 0.815 118 45 30 0 0
-2.9636 1.6441 -12.3664 -0.186 -0.759 0.624 120 45 29 0 0
-2.9625 1.4663 -12.3381 -0.123 -0.565 0.816 119 46 28 0 0
-2.9646 1.4360 -12.3488 -0.018 -0.903 0.429 121 46 27 0 0
-2.9683 1.4246 -12.3730 -0.018 -0.903 0.429 121 46 27 0 0
-2.9718 1.4106 -12.3953 0.258 -0.788 0.559 120 45 26 0 0
-2.9748 1.3907 -12.4135 0.374 -0.652 0.659 119 44 25 0 0
-2.9807 1.0831 -12.4179 0.041 -0.126 0.991 121 44 26 0 0
-2.9841 0.8588 -12.4147 -0.354 -0.106 0.929 123 45 24 0 0
-3.0081 0.2552 -12.5074 -0.216 -0.512 0.832 131 66 18 0 0
-3.0417 0.4035 -12.7544 -0.418 -0.904 0.094 68 17 8 0 0
-3.1969 0.4824 -13.8219 -0.273 -0.415 0.868 97 49 40 0 0
-3.2086 0.4433 -13.8970 -0.342 -0.851 0.399 79 32 20 0 0
-3.2785 0.5358 -14.3848 -0.133 -0.886 0.445 110 52 36 0 0
-3.2783 0.4850 -14.3773 -0.225 -0.812 0.539 114 57 37 0 0
-3.3043 0.5669 -14.5643 0.171 -0.754 0.635 70 13 6 0 0
-3.3126 0.5904 -14.6238 -0.276 -0.866 0.418 64 12 4 0 0
-3.3185 0.5924 -14.6640 -0.575 -0.775 0.260 62 12 4 0 0
-3.4189 0.6092 -15.3512 0.487 -0.809 0.330 43 13 8 0 0
-3.4181 0.5541 -15.3394 0.351 -0.926 0.135 44 13 8 0 0
-2.9909 1.4310 -12.3422 -0.406 -0.567 0.717 119 45 26 0 0
-2.9938 1.4104 -12.3598 -0.402 -0.659 0.636 118 44 25 0 0
-2.9976 1.3994 -12.3843 -0.224 -0.879 0.420 118 43 24 0 0
-3.0004 1.3776 -12.4011 0.060 -0.699 0.712 119 44 25 0 0
-2.9995 1.3139 -12.3878 0.185 -0.101 0.977 120 45 26 0 0
-2.9990 1.2019 -12.3718 0.086 -0.441 0.893 125 50 31 0 0
-3.0035 1.1472 -12.3968 0.130 -0.502 0.855 121 47 28 0 0
-3.0057 1.1188 -12.4084 -0.027 -0.393 0.919 120 46 27 0 0
-3.0112 0.9193 -12.4239 0.184 -0.228 0.956 122 45 25 0 0
-3.0120 0.8247 -12.4186 -0.010 -0.255 0.967 121 44 21 0 0
-3.0320 0.5807 -12.5270 0.009 -0.708 0.706 121 48 33 0 0
-3.2225 0.5148 -13.8098 -0.280 -0.768 0.576 67 20 13 0 0
-3.2254 0.4929 -13.8272 0.084 -0.372 0.925 108 61 46 0 0
-3.2333 0.4674 -13.8777 -0.114 -0.909 0.401 92 37 17 0 0
-3.2366 0.4491 -13.8984 -0.149 -0.924 0.352 77 31 23 0 0
-3.3027 0.5023 -14.3513 -0.124 -0.896 0.427 110 49 32 0 0
-3.3379 0.6130 -14.6019 -0.464 -0.832 0.304 67 14 9 0 0
-3.3444 0.6200 -14.6465 -0.555 -0.775 0.303 62 11 6 0 0
-3.4205 0.6274 -15.1629 -0.207 -0.886 0.415 29 4 0 0 0
-3.0226 1.4334 -12.3731 -0.318 -0.293 0.902 121 48 29 0 0
-3.0247 1.4030 -12.3838 -0.067 -0.735 0.675 119 45 26 0 0
-3.0273 1.3782 -12.3984 0.527 -0.493 0.693 119 45 26 0 0
-3.0260 1.3113 -12.3829 0.149 -0.107 0.983 119 45 26 0 0
-3.0214 1.2086 -12.3414 0.278 -0.679 0.680 119 44 25 0 0
-3.0277 1.1730 -12.3801 0.218 -0.510 0.832 130 58 39 0 0
-3.0298 1.1439 -12.3913 0.233 -0.505 0.831 119 46 27 0 0
-3.0318 1.1136 -12.4016 0.170 -0.371 0.913 125 50 31 0 0
-3.0370 0.9639 -12.4214 0.274 -0.180 0.945 122 45 25 0 0
-3.0373 0.9159 -12.4183 0.158 -0.387 0.908 120 45 24 0 0
-3.0513 0.6101 -12.4812 0.037 -0.477 0.878 121 45 26 0 0
-3.0593 0.6422 -12.5380 0.096 -0.365 0.926 126 51 33 0 0
-3.0595 0.5955 -12.5351 -0.147 -0.650 0.746 130 60 44 0 0
-3.2504 0.5192 -13.8099 -0.008 -0.494 0.869 82 32 24 0 0
-3.2529 0.4938 -13.8244 0.084 -0.372 0.925 113 66 44 0 0
-3.2557 0.4711 -13.8411 -0.106 -0.542 0.834 114 66 34 0 0
-3.2602 0.4629 -13.8703 -0.003 -0.796 0.605 88 34 13 0 0
-3.2646 0.4536 -13.8985 -0.149 -0.924 0.352 78 32 22 0 0
-3.4594 0.6117 -15.2242 -0.064 -0.680 0.730 41 12 6 0 0
-3.4659 0.5679 -15.2634 0.039 -0.895 0.444 46 13 7 0 0
-3.4726 0.5733 -15.3088 0.243 -0.851 0.465 48 14 8 0 0
-3.4741 0.5379 -15.3157 0.373 -0.892 0.254 48 14 8 0 0
-3.5772 0.2412 -15.9778 -0.249 0.540 0.804 65 44 42 0 0
-3.0506 1.4468 -12.3796 -0.176 -0.261 0.949 119 46 27 0 0
-3.0517 1.4058 -12.3827 -0.001 -0.621 0.784 120 47 28 0 0
-3.0512 1.1925 -12.3589 0.306 -0.421 0.854 126 51 32 0 0
-3.0560 1.1407 -12.3859 0.233 -0.505 0.831 117 44 25 0 0
-3.0585 1.1160 -12.4002 0.233 -0.505 0.831 121 45 27 0 0
-3.0607 1.0882 -12.4123 0.242 -0.437 0.866 120 43 25 0 0
-3.0635 0.9146 -12.4143 0.071 -0.405 0.912 126 51 31 0 0
-3.0729 0.6141 -12.4487 -0.392 -0.351 0.850 116 40 21 0 0
-3.0789 0.6254 -12.4897 -0.470 -0.588 0.659 122 46 27 0 0
-3.0844 0.6321 -12.5272 -0.033 -0.326 0.945 128 54 36 0 0
-3.2470 0.7739 -13.6256 -0.007 0.079 0.997 26 6 5 0 0
-3.2520 0.7707 -13.6586 0.494 -0.656 0.570 25 5 4 0 0
-3.2781 0.5219 -13.8086 -0.008 -0.494 0.869 97 52 33 0 0
-3.2809 0.4994 -13.8256 -0.027 -0.597 0.801 120 78 47 0 0
-3.2846 0.4839 -13.8485 0.006 -0.792 0.610 109 51 24 0 0
-3.3625 0.5359 -14.3734 -0.623 -0.770 0.134 114 48 26 0 0
-3.0783 1.4566 -12.3835 -0.314 -0.168 0.934 119 46 27 0 0
-3.0793 1.4152 -12.3863 -0.197 -0.664 0.721 119 46 27 0 0
-3.0813 1.3848 -12.3969 -0.407 -0.685 0.604 120 47 28 0 0
-3.0787 1.2540 -12.3679 -0.196 -0.608 0.770 121 46 27 0 0
-3.0780 1.1951 -12.3577 0.087 -0.533 0.842 121 46 27 0 0
-3.0805 1.1711 -12.3726 0.087 -0.533 0.842 124 49 30 0 0
-3.0824 1.1404 -12.3826 0.228 -0.494 0.839 123 47 29 0 0
-3.0847 1.1128 -12.3948 0.233 -0.505 0.831 120 43 25 0 0
-3.0873 1.0901 -12.4106 0.159 -0.421 0.893 118 41 23 0 0
-3.1023 0.6468 -12.4703 -0.332 -0.660 0.674 117 40 23 0 0
-3.1061 0.6363 -12.4948 -0.338 -0.724 0.602 123 47 29 0 0
-3.1103 0.6293 -12.5220 -0.561 -0.580 0.590 128 55 38 0 0
-3.2800 0.8236 -13.6631 -0.242 -0.312 0.919 25 5 4 0 0
-3.2802 0.7767 -13.6600 0.265 -0.262 0.928 25 5 4 0 0
-3.2804 0.7306 -13.6575 0.373 -0.361 0.855 25 5 4 0 0
-3.3058 0.5249 -13.8075 -0.079 -0.560 0.825 117 72 47 0 0
-3.3091 0.5060 -13.8276 -0.157 -0.679 0.717 124 85 51 0 0
-3.3761 0.5574 -14.2761 -0.790 -0.609 -0.067 114 58 43 0 0
-3.7827 -0.9873 -16.8320 0.476 -0.878 -0.056 200 200 200 0 0
-3.7755 -1.0731 -16.7770 -0.061 -0.694 0.718 200 200 200 0 0
-3.7795 -1.0906 -16.8020 -0.340 -0.351 0.872 200 200 200 0 0
-3.7831 -1.1109 -16.8238 -0.360 -0.751 0.554 200 200 200 0 0
-3.7872 -1.1279 -16.8495 -0.360 -0.751 0.554 201 201 201 0 0
-3.1073 1.4278 -12.3922 -0.335 -0.366 0.868 118 45 26 0 0
-3.1091 1.3953 -12.4014 -0.239 -0.676 0.696 120 47 28 0 0
-3.1103 1.2044 -12.3936 -0.394 -0.767 0.507 121 44 26 0 0
-3.1178 0.8335 -12.4127 -0.200 -0.479 0.855 124 49 30 0 0
-3.1234 0.6949 -12.4386 0.155 -0.461 0.874 116 39 21 0 0
-3.1286 0.6488 -12.4687 0.193 -0.775 0.602 117 40 24 0 0
-3.1338 0.6511 -12.5028 -0.006 -0.905 0.426 122 44 28 0 0
-3.3072 0.7729 -13.6533 0.265 -0.262 0.928 26 6 5 0 0
-3.3235 0.6775 -13.7529 -0.287 -0.820 0.495 115 58 30 0 0
-3.3309 0.5523 -13.7912 -0.313 -0.629 0.711 80 30 18 0 0
-3.3337 0.5290 -13.8074 -0.079 -0.560 0.825 117 77 47 0 0
-3.3630 0.4970 -13.9979 -0.292 -0.956 -0.029 102 49 35 0 0
-3.6053 0.2676 -15.5725 0.681 -0.723 -0.117 50 15 9 0 0
-3.6326 0.2366 -15.7492 0.707 -0.703 0.076 53 20 15 0 0
-3.8016 -1.0483 -16.7556 -0.389 -0.431 0.814 200 200 200 0 0
-3.8065 -1.0605 -16.7869 -0.326 -0.479 0.815 200 200 200 0 0
-3.8096 -1.0839 -16.8049 -0.373 -0.305 0.877 201 201 201 0 0
-3.8119 -1.1116 -16.8180 -0.323 -0.264 0.909 200 200 200 0 0
-3.8226 -1.1311 -16.8866 -0.192 -0.966 0.171 201 201 201 0 0
-3.1337 1.4239 -12.3864 -0.463 -0.781 0.419 119 45 26 0 0
-3.1369 1.4062 -12.4061 -0.441 -0.685 0.580 120 46 27 0 0
-3.1328 1.2637 -12.3687 -0.222 -0.553 0.803 121 45 26 0 0
-3.1355 1.2406 -12.3843 -0.097 -0.533 0.840 120 43 25 0 0
-3.1381 1.2170 -12.3996 -0.097 -0.533 0.840 121 44 26 0 0
-3.1413 1.2001 -12.4197 -0.089 -0.771 0.630 124 47 29 0 0
-3.1447 1.1837 -12.4402 -0.089 -0.771 0.630 119 42 24 0 0
-3.1480 1.1674 -12.4607 -0.089 -0.771 0.630 119 42 24 0 0
-3.1416 0.9068 -12.3992 -0.101 -0.183 0.978 119 44 25 0 0
-3.1600 0.6523 -12.5006 -0.006 -0.905 0.426 132 54 40 0 0
-3.1940 0.4996 -12.7109 -0.506 -0.746 0.433 58 12 5 0 0
-3.3424 0.7451 -13.6982 0.129 -0.193 0.973 33 6 4 0 0
-3.3515 0.6817 -13.7528 -0.363 -0.753 0.549 119 66 38 0 0
-3.3593 0.5608 -13.7948 -0.402 -0.628 0.666 105 58 41 0 0
-3.3625 0.5412 -13.8142 -0.398 -0.502 0.768 123 84 52 0 0
-3.3713 0.5222 -13.8703 -0.302 -0.859 0.413 80 30 16 0 0
-3.5596 0.6794 -15.1111 0.128 -0.824 0.552 45 13 6 0 0
-3.5868 0.6997 -15.2903 -0.252 -0.785 0.565 51 14 8 0 0
-3.6172 0.1446 -15.4471 -0.273 -0.924 -0.269 53 16 10 0 0
-3.8379 -1.0045 -16.8019 -0.334 -0.258 0.906 200 200 200 0 0
-3.8371 -1.0507 -16.7934 -0.326 -0.479 0.815 200 200 200 0 0
-3.1610 1.4299 -12.3876 -0.416 -0.683 0.601 120 43 25 0 0
-3.1639 1.4089 -12.4050 -0.243 -0.923 0.299 120 45 26 0 0
-3.1637 1.3074 -12.3970 -0.200 -0.309 0.930 120 43 25 0 0
-3.1689 1.2098 -12.4236 -0.048 -0.312 0.949 126 49 31 0 0
-3.1720 1.1910 -12.4424 -0.036 -0.635 0.772 118 41 23 0 0
-3.1748 1.1700 -12.4595 0.003 -0.672 0.741 120 43 25 0 0
-3.1778 1.1502 -12.4775 0.003 -0.672 0.741 121 44 26 0 0
-3.1685 0.9131 -12.4008 -0.101 -0.183 0.978 119 44 25 0 0
