ply
format ascii 1.0
element vertex 856
property float x
property float y
property float z
property float nx
property float ny
property float nz
property uchar diffuse_red
property uchar diffuse_green
property uchar diffuse_blue
property uchar class
property uchar detection
end_header
2.8897 1.1214 -16.6629 0.812 0.531 0.240 172 173 175 0 0
4.2059 0.7160 -16.8465 -0.288 -0.594 0.751 190 191 193 0 0
4.2387 0.7060 -16.8440 0.054 -0.108 0.993 189 190 192 0 0
4.2769 0.6946 -16.8325 -0.054 -0.336 0.940 189 190 192 0 0
4.3803 0.6645 -16.7648 0.098 -0.674 0.732 189 190 192 0 0
4.4329 0.6493 -16.7291 0.599 0.285 0.748 190 191 193 0 0
4.9034 0.5031 -16.8515 0.605 0.783 0.143 194 195 197 0 0
5.2977 0.3856 -16.7229 0.588 0.309 0.747 201 201 203 0 0
5.3975 0.3546 -16.7495 0.774 -0.381 0.506 202 202 204 0 0
-0.3114 2.1597 -12.4687 0.379 0.301 0.875 130 48 24 0 0
-0.2896 2.1527 -12.4852 0.428 0.191 0.884 129 47 23 0 0
0.0039 2.0627 -12.5174 0.516 -0.574 0.635 133 49 25 0 0
0.0217 2.0569 -12.5369 0.314 -0.146 0.938 132 48 24 0 0
0.2766 1.9781 -12.5966 0.588 -0.266 0.764 134 50 24 0 0
0.8372 1.8062 -12.6585 0.420 0.035 0.907 127 45 24 0 0
0.8629 1.7982 -12.6701 0.420 0.035 0.907 133 50 27 0 0
1.0547 1.7391 -12.7044 0.811 0.478 0.337 153 67 30 0 0
1.1189 1.6945 -13.8078 0.396 0.350 0.849 135 82 34 0 0
1.1470 1.6857 -13.8175 0.448 0.303 0.842 139 89 49 0 0
1.2011 1.6687 -13.8390 0.475 0.515 0.714 92 38 26 0 0
1.3904 1.6078 -13.9903 0.810 0.388 0.440 97 39 25 0 0
1.4261 1.5852 -14.5044 0.848 0.524 0.077 72 73 73 0 0
1.4608 1.5728 -14.5878 0.687 0.671 0.278 128 84 72 0 0
2.3422 1.2832 -15.5382 0.804 0.258 0.536 66 65 69 0 0
2.6886 1.1759 -15.6268 0.536 -0.171 0.827 26 25 30 0 0
2.7369 1.1616 -15.6085 0.825 -0.111 0.554 43 43 45 0 0
4.2325 0.6790 -16.8406 -0.054 -0.336 0.940 188 189 191 0 0
4.2627 0.6697 -16.8422 -0.054 -0.336 0.940 189 190 192 0 0
4.3507 0.6440 -16.7999 -0.018 -0.777 0.630 188 189 191 0 0
4.4118 0.6254 -16.8007 0.027 -0.640 0.768 188 189 191 0 0
4.8596 0.4879 -16.8620 0.494 0.749 0.442 193 194 196 0 0
5.2096 0.3837 -16.7632 0.967 0.169 0.188 199 199 201 0 0
5.2089 0.3827 -16.8163 0.632 -0.248 0.734 200 200 202 0 0
5.2966 0.3584 -16.7108 0.588 0.309 0.747 200 200 202 0 0
5.4003 0.3265 -16.7304 0.635 -0.624 0.457 201 201 203 0 0
-0.4418 2.1705 -12.4642 0.114 -0.140 0.984 133 52 28 0 0
-0.3666 2.1475 -12.4719 0.209 -0.112 0.971 128 46 23 0 0
-0.0887 2.0622 -12.5184 0.191 0.085 0.978 126 44 20 0 0
-0.0595 2.0532 -12.5284 0.382 0.170 0.908 137 53 29 0 0
-0.0284 2.0435 -12.5369 0.628 -0.344 0.698 133 49 25 0 0
0.0091 2.0321 -12.5400 0.409 0.012 0.912 131 47 23 0 0
0.2092 1.9714 -12.5431 0.441 0.025 0.897 134 48 23 0 0
0.5212 1.8751 -12.6191 0.386 -0.171 0.907 133 47 21 0 0
0.6799 1.8270 -12.6178 0.076 -0.021 0.997 130 48 26 0 0
0.8008 1.7888 -12.6833 0.493 0.128 0.860 132 51 29 0 0
0.9187 1.7523 -12.7161 0.527 -0.210 0.824 146 57 31 0 0
0.9527 1.7419 -12.7201 0.348 0.080 0.934 152 60 30 0 0
0.9984 1.7283 -12.7132 0.375 0.006 0.927 158 63 31 0 0
1.0248 1.7200 -12.7239 0.375 0.006 0.927 158 71 34 0 0
1.1002 1.6963 -12.7593 0.706 0.363 0.608 132 64 30 0 0
1.2079 1.6392 -13.7852 0.089 0.205 0.975 138 90 55 0 0
1.2566 1.6238 -13.8120 0.369 -0.023 0.929 95 43 30 0 0
1.3771 1.5839 -13.9565 0.761 0.408 0.505 100 51 43 0 0
1.3990 1.5768 -13.9722 0.881 0.240 0.408 96 44 34 0 0
1.4161 1.5712 -13.9931 0.917 0.280 0.286 98 38 26 0 0
2.3333 1.2564 -15.5385 0.668 -0.388 0.635 70 70 74 0 0
2.6801 1.1492 -15.6268 0.536 -0.171 0.827 19 18 22 0 0
2.7360 1.1330 -15.5986 0.798 -0.127 0.589 15 15 18 0 0
4.4317 0.5893 -16.8558 -0.211 -0.538 0.816 186 187 189 0 0
5.2037 0.3564 -16.8115 0.970 0.068 0.233 200 200 202 0 0
5.2956 0.3313 -16.6988 0.588 0.309 0.747 199 199 201 0 0
5.4275 0.2896 -16.7706 0.669 0.197 0.717 202 202 204 0 0
-1.2639 2.3910 -12.4157 0.827 0.036 0.561 124 50 31 0 0
-0.3636 2.1180 -12.4621 0.260 -0.050 0.964 127 45 23 0 0
-0.0962 2.0359 -12.5171 0.372 0.110 0.922 124 41 17 0 0
-0.0675 2.0270 -12.5276 0.372 0.110 0.922 126 44 20 0 0
-0.0277 2.0149 -12.5288 0.459 -0.497 0.736 133 49 25 0 0
0.0029 2.0055 -12.5376 0.222 -0.251 0.942 133 48 25 0 0
0.5116 1.8498 -12.6198 0.386 -0.171 0.907 137 51 26 0 0
0.6372 1.8121 -12.6133 0.084 0.046 0.995 136 52 28 0 0
0.6965 1.7938 -12.6299 0.174 -0.115 0.978 133 51 29 0 0
0.7313 1.7832 -12.6337 0.205 -0.365 0.908 127 45 24 0 0
0.9582 1.7128 -12.7072 0.491 -0.499 0.714 142 55 30 0 0
0.9773 1.7067 -12.7247 0.491 -0.499 0.714 155 63 36 0 0
1.0957 1.6701 -12.7556 0.492 -0.056 0.869 163 94 57 0 0
1.4023 1.5475 -13.9599 0.862 0.269 0.430 96 52 42 0 0
1.4199 1.5416 -13.9801 0.940 0.051 0.337 97 44 36 0 0
1.4289 1.5382 -14.0093 0.835 0.064 0.547 97 37 27 0 0
1.4403 1.5341 -14.0362 0.881 0.240 0.408 102 41 25 0 0
1.4921 1.5029 -14.6559 0.913 0.380 0.149 145 93 78 0 0
1.5301 1.4874 -14.8187 0.991 0.090 0.100 138 91 81 0 0
1.5341 1.4853 -14.8555 0.991 0.090 0.100 141 95 86 0 0
2.6716 1.1226 -15.6268 0.536 -0.171 0.827 19 19 19 0 0
2.7276 1.1064 -15.5985 0.772 -0.190 0.606 14 14 14 0 0
2.7456 1.1004 -15.6195 0.852 -0.020 0.523 13 13 16 0 0
2.7546 1.0935 -15.7865 0.987 0.142 0.070 148 150 153 0 0
3.0116 0.9980 -16.5022 -0.145 -0.479 0.866 166 167 169 0 0
4.2132 0.6267 -16.8453 0.096 -0.286 0.953 185 186 188 0 0
4.5960 0.5155 -16.6713 0.291 -0.008 0.957 186 187 189 0 0
4.9276 0.4155 -16.6664 0.471 -0.215 0.856 190 191 193 0 0
4.9796 0.3995 -16.6785 0.653 0.394 0.647 191 192 194 0 0
5.1700 0.3388 -16.8059 0.749 0.201 0.632 197 197 199 0 0
5.1909 0.3322 -16.8205 0.918 0.191 0.346 198 198 200 0 0
5.2343 0.3197 -16.7947 0.065 0.357 0.932 199 199 201 0 0
-1.2430 2.3547 -12.4268 0.236 0.006 0.972 129 54 35 0 0
-1.1614 2.3299 -12.4329 0.279 0.064 0.958 129 52 33 0 0
-0.0957 2.0074 -12.5092 0.379 -0.375 0.846 130 48 24 0 0
-0.0693 1.9991 -12.5216 0.581 -0.194 0.791 132 50 26 0 0
1.0292 1.6629 -12.7391 0.379 -0.337 0.862 173 94 60 0 0
1.4880 1.4905 -14.0546 0.770 0.442 0.459 117 53 26 0 0
1.5395 1.4534 -14.8809 0.991 0.090 0.100 139 88 75 0 0
1.5435 1.4512 -14.9180 0.991 0.090 0.100 140 88 75 0 0
1.5501 1.4484 -14.9521 0.997 0.024 0.070 144 89 75 0 0
2.7187 1.0799 -15.5990 0.420 -0.075 0.904 14 14 15 0 0
2.7460 1.0714 -15.6078 0.772 0.052 0.634 13 13 16 0 0
2.7733 1.0583 -15.7957 0.865 -0.188 0.465 147 148 152 0 0
2.9663 0.9804 -16.5540 -0.162 -0.479 0.863 162 163 165 0 0
3.8135 0.7402 -15.9950 0.487 0.873 -0.009 188 190 193 0 0
4.1629 0.6163 -16.7125 -0.004 0.022 1.000 184 185 187 0 0
4.5744 0.4930 -16.6939 0.529 0.299 0.794 185 186 188 0 0
4.5965 0.4860 -16.7075 0.405 0.225 0.886 185 186 188 0 0
4.9666 0.3752 -16.6872 0.457 -0.504 0.733 190 191 193 0 0
5.1813 0.3084 -16.7718 0.841 0.201 0.502 198 198 200 0 0
-0.6243 2.1397 -12.4171 0.772 -0.088 0.630 130 47 25 0 0
-0.5962 2.1310 -12.4290 0.625 -0.068 0.777 124 39 18 0 0
-0.0555 1.9659 -12.5370 0.653 0.299 0.696 135 51 27 0 0
0.0320 1.9389 -12.5670 0.377 -0.473 0.796 131 47 21 0 0
0.1995 1.8878 -12.5976 0.769 0.245 0.590 132 46 21 0 0
0.2195 1.8814 -12.6151 0.289 0.114 0.950 134 48 23 0 0
0.6234 1.7604 -12.6101 0.088 -0.359 0.929 136 52 26 0 0
0.5988 1.7663 -12.6664 0.756 0.224 0.615 136 55 28 0 0
1.1191 1.6069 -12.7881 0.459 0.152 0.875 166 97 61 0 0
1.2850 1.5390 -13.4572 0.579 0.813 0.056 51 10 5 0 0
1.2920 1.5360 -13.4873 0.579 0.813 0.056 56 10 3 0 0
1.3070 1.5309 -13.5095 0.561 0.822 0.097 61 13 5 0 0
1.5410 1.4237 -14.8693 0.991 0.090 0.100 124 74 58 0 0
1.5450 1.4215 -14.9063 0.991 0.090 0.100 122 72 56 0 0
1.5501 1.4190 -14.9422 0.997 0.024 0.070 136 82 60 0 0
2.3181 1.1717 -15.5690 0.826 -0.378 0.418 17 15 22 0 0
2.6982 1.0577 -15.5703 0.630 -0.160 0.760 19 19 20 0 0
2.7183 1.0511 -15.5884 0.630 -0.160 0.760 15 15 16 0 0
2.7420 1.0437 -15.6020 0.875 -0.024 0.484 14 14 17 0 0
2.7718 1.0322 -15.6967 0.967 0.139 0.213 44 48 49 0 0
2.7798 1.0288 -15.7309 0.967 0.139 0.213 60 61 65 0 0
2.7440 1.0181 -16.5180 0.824 0.565 -0.024 142 142 144 0 0
2.7129 1.0223 -16.7048 0.692 0.715 -0.096 151 152 154 0 0
4.2218 0.5672 -16.8050 -0.048 -0.121 0.991 178 179 181 0 0
4.5667 0.4669 -16.6932 0.410 0.344 0.845 182 183 185 0 0
4.5916 0.4592 -16.7022 0.410 0.344 0.845 183 184 186 0 0
4.7015 0.4257 -16.7201 0.258 -0.684 0.683 184 185 187 0 0
4.8617 0.3754 -16.8033 0.212 0.268 0.940 188 189 191 0 0
4.9670 0.3474 -16.6729 0.766 -0.027 0.642 189 190 192 0 0
5.1821 0.2792 -16.8081 0.431 0.290 0.855 196 196 198 0 0
5.2281 0.2663 -16.7777 0.609 0.322 0.725 195 195 197 0 0
-1.2260 2.2900 -12.4335 0.455 -0.266 0.850 126 49 30 0 0
-0.1127 1.9553 -12.5083 0.403 -0.075 0.912 130 46 22 0 0
-0.0840 1.9464 -12.5189 0.497 -0.030 0.867 134 50 26 0 0
-0.0597 1.9387 -12.5330 0.497 -0.030 0.867 135 51 27 0 0
-0.0068 1.9222 -12.5576 0.372 -0.237 0.898 130 46 20 0 0
0.0171 1.9147 -12.5721 0.450 -0.373 0.811 131 47 21 0 0
0.1483 1.8757 -12.5646 0.830 -0.169 0.531 134 48 23 0 0
0.1900 1.8623 -12.5982 0.599 0.094 0.795 136 50 25 0 0
0.6118 1.7359 -12.6126 0.314 0.011 0.949 140 57 31 0 0
0.5998 1.7382 -12.6578 0.744 0.277 0.608 137 54 29 0 0
1.1169 1.5802 -12.7823 0.459 0.152 0.875 176 106 66 0 0
1.3455 1.4936 -13.4257 0.561 0.827 0.036 73 30 21 0 0
1.3591 1.4888 -13.4490 0.625 0.773 0.105 76 34 25 0 0
1.3535 1.4893 -13.4917 0.516 0.848 0.122 84 41 32 0 0
1.5301 1.3756 -15.6382 0.517 0.752 0.409 107 67 65 0 0
2.6614 1.0398 -15.5626 0.510 -0.129 0.850 48 47 52 0 0
2.6842 1.0325 -15.5774 0.510 -0.129 0.850 27 27 30 0 0
2.7070 1.0253 -15.5921 0.510 -0.129 0.850 15 15 17 0 0
2.7298 1.0181 -15.6068 0.588 -0.194 0.785 13 12 16 0 0
3.0358 0.9255 -15.6482 0.223 -0.526 0.820 131 133 132 0 0
4.1615 0.5762 -16.1063 0.271 -0.873 0.406 161 162 166 0 0
4.1764 0.5710 -16.1309 0.555 -0.631 0.542 172 173 176 0 0
4.2082 0.5616 -16.1294 0.198 -0.791 0.579 181 182 184 0 0
4.7388 0.3856 -16.7450 -0.364 -0.382 0.849 184 184 186 0 0
5.1360 0.2676 -16.7215 0.554 -0.427 0.715 193 193 195 0 0
5.1321 0.2671 -16.7798 0.499 0.004 0.867 192 192 194 0 0
5.1455 0.2623 -16.8076 0.506 0.367 0.781 195 195 197 0 0
5.3416 0.2063 -16.7150 -0.074 0.314 0.947 198 198 198 0 0
5.3947 0.1903 -16.7222 0.117 0.427 0.897 199 199 199 0 0
5.4860 0.1633 -16.7112 0.636 -0.139 0.759 201 201 203 0 0
-1.2379 2.2638 -12.4354 0.455 -0.266 0.850 125 48 29 0 0
-1.2270 2.2598 -12.4614 0.862 -0.097 0.497 125 48 28 0 0
-0.0814 1.9173 -12.5092 0.306 0.026 0.952 132 48 24 0 0
0.0990 1.8620 -12.5644 0.389 -0.336 0.858 134 49 23 0 0
0.4626 1.7528 -12.5974 0.372 -0.476 0.797 133 49 23 0 0
0.6011 1.7100 -12.6490 0.779 0.075 0.622 134 50 25 0 0
0.6512 1.6944 -12.6740 0.734 -0.142 0.664 136 52 29 0 0
1.5025 1.3396 -16.1063 0.366 0.894 0.258 83 80 82 0 0
2.9845 0.9102 -15.7058 0.734 0.072 0.675 128 130 129 0 0
2.8303 0.9293 -16.6126 0.570 0.820 0.062 149 150 152 0 0
4.1288 0.5594 -16.0494 0.775 0.549 0.312 59 53 59 0 0
4.1531 0.5519 -16.0595 0.839 0.465 0.283 55 53 57 0 0
4.1621 0.5482 -16.0931 0.886 -0.067 0.459 61 58 63 0 0
4.1729 0.5441 -16.1239 0.861 -0.198 0.468 68 64 69 0 0
4.1901 0.5383 -16.1450 0.285 -0.860 0.423 79 76 78 0 0
4.2291 0.5257 -16.1800 -0.001 -0.945 0.328 119 117 118 0 0
4.2501 0.5190 -16.1953 0.022 -0.917 0.398 143 141 143 0 0
4.2855 0.5087 -16.1880 0.052 -0.927 0.372 161 160 163 0 0
4.6912 0.3724 -16.7105 0.091 0.373 0.923 182 182 184 0 0
4.7264 0.3607 -16.7525 -0.210 -0.603 0.770 183 183 185 0 0
4.8893 0.3130 -16.7287 -0.178 -0.158 0.971 186 187 189 0 0
4.9263 0.3023 -16.7158 0.810 0.585 0.039 185 186 188 0 0
5.1265 0.2425 -16.7245 0.755 -0.063 0.653 191 191 193 0 0
5.1262 0.2410 -16.7763 0.499 0.004 0.867 191 191 193 0 0
5.3272 0.1826 -16.7270 0.152 0.381 0.912 196 196 196 0 0
5.3521 0.1750 -16.7337 0.365 0.477 0.799 196 196 196 0 0
5.4792 0.1379 -16.7095 0.608 -0.187 0.771 200 200 202 0 0
5.5134 0.1280 -16.6986 0.480 0.232 0.846 201 201 203 0 0
-2.2640 2.5408 -12.3609 0.047 0.594 0.803 118 52 36 0 0
-0.9210 2.1405 -12.4234 0.442 0.122 0.889 127 47 25 0 0
-0.8799 2.1282 -12.4255 0.437 -0.154 0.886 129 49 26 0 0
-0.2993 1.9534 -12.5098 0.340 -0.290 0.895 128 46 24 0 0
-0.0071 1.8657 -12.5428 0.277 -0.067 0.958 134 50 24 0 0
0.0347 1.8523 -12.5766 0.335 0.069 0.940 134 50 24 0 0
0.1883 1.8065 -12.5844 0.227 0.279 0.933 128 42 17 0 0
0.6513 1.6677 -12.6315 0.722 0.008 0.692 139 55 30 0 0
0.6585 1.6647 -12.6598 0.345 -0.016 0.939 137 53 29 0 0
0.6709 1.6603 -12.6834 0.421 -0.200 0.885 136 52 28 0 0
0.9442 1.5782 -12.7157 0.221 -0.412 0.884 131 53 32 0 0
1.4092 1.4187 -13.4189 0.803 0.522 0.288 102 53 41 0 0
1.4199 1.4147 -13.4452 0.761 0.572 0.306 103 50 39 0 0
1.5648 1.3064 -15.5761 0.636 0.742 0.213 87 78 78 0 0
1.5723 1.3017 -15.6547 0.637 0.325 0.699 73 53 48 0 0
1.5959 1.2943 -15.6706 0.904 0.339 0.260 89 55 47 0 0
1.5917 1.2858 -15.9870 0.308 0.930 0.203 80 75 75 0 0
2.9789 0.8844 -15.6572 0.364 -0.500 0.786 127 129 129 0 0
2.9791 0.8830 -15.7017 0.842 0.101 0.530 125 127 126 0 0
3.7617 0.6550 -15.5649 -0.352 0.725 0.591 160 161 163 0 0
4.1663 0.5208 -16.0272 0.937 0.249 0.246 43 30 31 0 0
4.1758 0.5170 -16.0597 0.937 0.249 0.246 41 26 27 0 0
4.1693 0.5172 -16.1172 0.818 -0.465 0.340 41 26 28 0 0
4.1773 0.5137 -16.1523 0.946 0.064 0.319 41 25 26 0 0
4.1881 0.5096 -16.1833 0.946 0.064 0.319 38 23 23 0 0
4.1965 0.5060 -16.2181 0.810 -0.370 0.455 38 26 25 0 0
4.2109 0.5010 -16.2437 0.168 -0.910 0.379 43 33 33 0 0
4.2297 0.4948 -16.2624 0.104 -0.910 0.402 54 46 47 0 0
4.6888 0.3436 -16.7517 -0.219 -0.211 0.953 181 181 183 0 0
4.9433 0.2705 -16.6730 0.870 0.399 0.290 185 186 188 0 0
4.9403 0.2697 -16.7290 0.781 0.327 0.531 186 187 189 0 0
5.0838 0.2270 -16.7346 0.119 -0.249 0.961 190 190 192 0 0
5.0910 0.2236 -16.7732 0.296 -0.081 0.952 191 191 193 0 0
5.1204 0.2149 -16.7728 0.499 0.004 0.867 191 191 193 0 0
5.1399 0.2086 -16.7898 0.571 0.390 0.722 192 192 194 0 0
5.5190 0.0965 -16.7782 1.000 -0.017 0.015 203 203 205 0 0
-1.2547 2.2116 -12.3652 0.770 0.072 0.634 123 49 30 0 0
-0.0196 1.8408 -12.5458 0.365 -0.017 0.931 132 48 22 0 0
0.4161 1.7085 -12.6572 0.364 -0.389 0.846 133 47 22 0 0
0.5657 1.6651 -12.6301 0.661 -0.278 0.697 137 53 26 0 0
0.6611 1.6363 -12.6498 0.810 -0.060 0.583 131 47 22 0 0
0.6790 1.6304 -12.6686 0.763 0.035 0.645 133 49 25 0 0
0.6969 1.6245 -12.6874 0.734 0.110 0.670 135 51 27 0 0
0.9364 1.5517 -12.7499 0.629 -0.422 0.653 126 49 29 0 0
1.5973 1.3163 -14.0100 0.632 0.570 0.525 128 84 66 0 0
1.6175 1.3098 -14.0273 0.632 0.570 0.525 117 70 53 0 0
1.6758 1.2613 -15.0096 0.861 0.488 0.141 91 76 73 0 0
1.6832 1.2581 -15.0431 0.861 0.488 0.141 99 81 75 0 0
1.6905 1.2548 -15.0766 0.861 0.488 0.141 105 84 77 0 0
1.6933 1.2528 -15.1155 0.927 0.372 0.057 94 80 83 0 0
1.5909 1.2711 -15.4914 0.931 0.350 -0.102 89 86 89 0 0
1.5592 1.2779 -15.5721 0.907 0.330 0.262 92 90 92 0 0
1.5872 1.2693 -15.5828 0.739 0.587 0.330 98 95 96 0 0
1.5724 1.2717 -15.6440 0.366 0.431 0.825 99 91 92 0 0
1.6210 1.2564 -15.6740 0.762 0.309 0.569 93 59 53 0 0
2.6597 0.9525 -15.5761 0.511 -0.500 0.699 20 19 24 0 0
2.6796 0.9460 -15.5945 0.431 -0.530 0.730 12 12 14 0 0
2.6961 0.9390 -15.6618 0.690 0.054 0.722 35 35 39 0 0
2.9840 0.8532 -15.6839 0.806 0.046 0.591 119 121 121 0 0
4.1393 0.5203 -15.4127 0.594 0.712 0.374 117 103 103 0 0
4.1580 0.5142 -15.4301 0.569 0.744 0.351 91 79 79 0 0
4.1958 0.4844 -16.0169 0.942 -0.214 0.258 52 25 22 0 0
4.2042 0.4808 -16.0511 0.923 -0.278 0.267 52 24 21 0 0
4.2203 0.4753 -16.0737 0.941 -0.061 0.334 52 24 20 0 0
4.1866 0.4821 -16.1733 0.946 0.064 0.319 49 22 19 0 0
4.2983 0.4424 -16.3838 -0.087 -0.910 0.406 61 53 53 0 0
4.3647 0.4230 -16.3758 -0.151 -0.869 0.471 123 118 119 0 0
4.7988 0.2827 -16.7547 0.027 -0.059 0.998 182 182 184 0 0
4.9444 0.2395 -16.7593 -0.203 -0.436 0.877 185 186 188 0 0
4.9754 0.2304 -16.7566 -0.203 -0.436 0.877 186 186 188 0 0
5.1204 0.1891 -16.7077 0.639 0.376 0.671 190 190 192 0 0
-0.5428 1.9695 -12.4521 0.098 0.068 0.993 128 44 23 0 0
-0.0613 1.8248 -12.5388 0.597 -0.243 0.765 130 46 22 0 0
-0.0413 1.8184 -12.5565 0.597 -0.243 0.765 131 47 23 0 0
0.0396 1.7945 -12.5574 0.798 -0.090 0.596 134 50 22 0 0
0.3481 1.7009 -12.6393 0.617 0.087 0.782 132 48 22 0 0
0.3740 1.6929 -12.6515 0.428 -0.101 0.898 134 50 24 0 0
0.5561 1.6399 -12.6310 0.661 -0.278 0.697 137 53 27 0 0
0.6617 1.6073 -12.6762 0.691 -0.176 0.701 140 56 31 0 0
1.4049 1.3787 -12.9722 0.857 0.054 0.512 72 15 1 0 0
1.4984 1.3302 -13.6091 0.826 0.065 0.560 68 16 6 0 0
1.5159 1.3244 -13.6287 0.669 -0.089 0.738 85 28 7 0 0
1.5350 1.3181 -13.6467 0.669 -0.089 0.738 102 43 13 0 0
1.5537 1.3120 -13.6650 0.721 -0.284 0.632 104 43 10 0 0
1.6276 1.2790 -14.0074 0.540 0.460 0.705 104 57 50 0 0
1.6501 1.2719 -14.0222 0.560 0.517 0.647 100 57 49 0 0
1.6714 1.2651 -14.0382 0.686 0.460 0.563 102 58 46 0 0
1.6021 1.2384 -15.4678 0.861 0.504 -0.066 91 86 90 0 0
1.5654 1.2435 -15.6417 0.683 0.265 0.681 91 90 94 0 0
1.6239 1.2242 -15.7038 0.792 0.388 0.470 94 58 51 0 0
1.7517 1.1858 -15.7268 0.765 -0.401 0.505 126 66 57 0 0
2.7296 0.9003 -15.6516 0.325 0.164 0.931 26 26 28 0 0
4.0327 0.5298 -15.2446 -0.444 0.530 0.722 114 95 91 0 0
4.1311 0.5011 -15.2355 0.586 0.802 0.115 137 111 107 0 0
4.1947 0.4811 -15.2759 0.705 0.708 0.055 129 116 111 0 0
4.1842 0.4822 -15.3357 0.957 0.267 -0.112 109 92 92 0 0
4.8365 0.2442 -16.7275 -0.004 -0.106 0.994 181 181 183 0 0
4.8676 0.2352 -16.7251 -0.459 -0.553 0.696 181 181 183 0 0
4.9617 0.2077 -16.7156 -0.218 -0.167 0.962 184 184 186 0 0
5.1191 0.1603 -16.7473 0.571 0.390 0.722 190 190 192 0 0
5.1406 0.1536 -16.7607 0.571 0.390 0.722 190 190 192 0 0
-0.5926 1.9553 -12.4504 0.276 -0.409 0.870 127 44 22 0 0
-0.5130 1.9317 -12.4551 0.407 -0.283 0.868 130 48 26 0 0
-0.4362 1.9078 -12.4959 0.226 -0.407 0.885 128 46 23 0 0
-0.0400 1.7897 -12.5478 0.412 -0.282 0.866 133 49 25 0 0
0.0356 1.7674 -12.5533 0.736 -0.205 0.645 137 53 26 0 0
0.3462 1.6735 -12.6334 0.861 0.118 0.495 132 48 22 0 0
0.5270 1.6210 -12.6142 0.495 -0.393 0.775 129 45 19 0 0
0.7121 1.5640 -12.6930 0.111 -0.273 0.956 138 54 26 0 0
1.2380 1.4118 -12.6310 0.664 0.166 0.729 161 98 84 0 0
1.7844 1.1711 -14.9902 0.956 0.277 -0.101 81 77 78 0 0
1.5837 1.2104 -15.5657 0.944 0.246 0.220 90 88 90 0 0
1.5955 1.2059 -15.5953 0.782 0.349 0.517 90 89 91 0 0
1.6155 1.1994 -15.6153 0.918 0.090 0.385 91 91 94 0 0
1.6258 1.1953 -15.6470 0.958 -0.029 0.284 95 91 92 0 0
1.6360 1.1912 -15.6787 0.968 -0.105 0.229 104 90 88 0 0
2.6422 0.8994 -15.5767 0.536 0.081 0.840 16 15 18 0 0
2.6655 0.8920 -15.5908 0.536 0.081 0.840 12 12 14 0 0
2.7543 0.8654 -15.6084 0.248 0.299 0.922 16 16 18 0 0
3.0033 0.7913 -15.6356 0.763 0.123 0.635 18 17 20 0 0
3.1060 0.7552 -15.8119 0.599 0.057 0.798 115 117 117 0 0
4.0294 0.5037 -15.2381 -0.496 0.381 0.780 111 85 79 0 0
4.1884 0.4588 -15.1854 0.651 0.758 -0.029 136 111 106 0 0
4.1910 0.4567 -15.2257 0.537 0.832 0.143 138 119 116 0 0
4.2054 0.4517 -15.2490 0.496 0.853 0.162 125 110 108 0 0
4.2787 0.3995 -16.1486 0.864 -0.249 0.437 64 26 18 0 0
4.3549 0.3681 -16.4146 0.559 0.412 0.719 34 19 19 0 0
4.3840 0.3595 -16.4169 0.551 0.077 0.831 47 34 34 0 0
4.5098 0.3211 -16.4591 -0.097 -0.750 0.654 126 124 124 0 0
-1.2871 2.1299 -12.4365 0.387 0.543 0.745 125 48 30 0 0
-1.2347 2.1148 -12.4309 0.482 0.502 0.718 122 45 26 0 0
0.6759 1.5471 -12.6828 0.445 -0.203 0.872 132 46 22 0 0
0.9938 1.4544 -12.6742 0.429 0.439 0.789 131 50 27 0 0
1.1972 1.3954 -12.6609 -0.033 -0.177 0.984 157 93 80 0 0
1.2301 1.3856 -12.6651 0.638 0.106 0.763 182 134 123 0 0
1.3645 1.3385 -12.8884 0.900 0.127 0.417 126 50 14 0 0
1.4115 1.3176 -13.0923 0.908 0.180 0.379 55 12 5 0 0
1.4222 1.3135 -13.1178 0.902 0.199 0.384 66 19 10 0 0
1.4453 1.2986 -13.3491 0.978 0.042 0.202 101 55 34 0 0
1.4571 1.2943 -13.3740 0.962 0.074 0.263 100 54 33 0 0
1.4684 1.2888 -13.4364 0.976 -0.065 0.207 100 54 35 0 0
1.8310 1.1333 -14.8435 0.830 0.551 -0.091 80 75 76 0 0
1.7654 1.1409 -15.1703 0.907 0.418 -0.045 86 82 83 0 0
2.0169 1.0506 -15.6467 -0.326 -0.355 0.876 23 23 28 0 0
2.8163 0.8183 -15.6049 0.438 -0.192 0.878 51 52 55 0 0
2.8431 0.8102 -15.6142 0.444 -0.191 0.876 71 71 77 0 0
2.9645 0.7740 -15.6316 0.896 -0.097 0.433 18 16 19 0 0
3.0113 0.7594 -15.6584 0.634 0.168 0.755 16 14 19 0 0
3.1017 0.7278 -15.8063 0.567 0.194 0.801 113 115 114 0 0
4.4884 0.2985 -16.4810 0.102 -0.465 0.880 60 56 55 0 0
4.5143 0.2906 -16.4881 0.102 -0.465 0.880 84 79 78 0 0
4.5407 0.2827 -16.4943 0.001 -0.556 0.831 108 103 102 0 0
4.5689 0.2743 -16.4976 -0.047 -0.511 0.858 128 124 123 0 0
4.9975 0.1391 -16.7793 0.179 -0.661 0.729 183 183 185 0 0
-0.9246 1.9963 -12.3898 0.219 -0.155 0.963 127 47 25 0 0
0.0581 1.7039 -12.5536 0.388 0.022 0.921 133 47 21 0 0
0.4862 1.5762 -12.6346 0.681 0.079 0.728 138 54 28 0 0
0.5098 1.5689 -12.6485 0.752 -0.370 0.545 135 50 24 0 0
0.5355 1.5609 -12.6607 0.553 -0.188 0.812 135 50 25 0 0
0.8813 1.4575 -12.7339 0.562 -0.174 0.808 136 52 27 0 0
1.3735 1.3078 -12.9071 0.917 -0.037 0.397 109 41 7 0 0
1.4187 1.2871 -13.1130 0.940 0.085 0.330 71 22 10 0 0
1.4513 1.2682 -13.3714 0.929 -0.348 0.125 90 43 29 0 0
1.4735 1.2613 -13.3860 0.948 0.029 0.317 91 44 30 0 0
1.4699 1.2608 -13.4264 0.959 0.102 0.266 92 46 31 0 0
1.4961 1.2488 -13.5481 0.950 -0.082 0.302 111 65 39 0 0
1.5000 1.2464 -13.5815 0.864 0.139 0.484 107 65 37 0 0
1.7724 1.1100 -15.1520 0.841 0.541 -0.005 83 79 80 0 0
1.7769 1.1074 -15.1891 0.852 0.522 0.049 84 80 83 0 0
1.7666 1.0911 -15.7205 0.784 -0.482 0.391 105 52 38 0 0
1.9827 1.0296 -15.6779 -0.307 -0.431 0.849 24 24 28 0 0
4.4016 0.2963 -16.4608 0.486 -0.199 0.851 34 26 27 0 0
4.4246 0.2892 -16.4728 0.513 -0.140 0.847 30 24 25 0 0
4.4466 0.2822 -16.4864 0.160 -0.351 0.922 29 24 25 0 0
4.4825 0.2721 -16.4775 0.355 -0.059 0.933 35 27 28 0 0
4.5293 0.2577 -16.5000 0.184 -0.282 0.942 40 33 34 0 0
4.5550 0.2499 -16.5074 0.184 -0.282 0.942 54 45 46 0 0
4.5818 0.2419 -16.5129 0.027 -0.314 0.949 77 69 69 0 0
5.4767 -0.0288 -16.7852 0.639 0.458 0.619 201 201 203 0 0
5.4878 -0.0332 -16.8169 0.312 0.034 0.949 201 201 203 0 0
-1.3894 2.1017 -12.3968 0.490 0.327 0.808 121 48 29 0 0
-1.3153 2.0798 -12.4092 0.161 0.328 0.931 123 48 29 0 0
-0.9360 1.9703 -12.3914 0.219 -0.155 0.963 127 47 24 0 0
-0.4765 1.8326 -12.5063 0.179 0.086 0.980 128 45 22 0 0
-0.4295 1.8191 -12.5026 0.272 -0.039 0.962 131 47 23 0 0
0.2742 1.6122 -12.5690 0.379 -0.118 0.918 136 51 26 0 0
0.4820 1.5496 -12.6307 0.723 0.039 0.690 143 59 33 0 0
0.5019 1.5431 -12.6478 0.806 -0.249 0.537 142 57 31 0 0
0.5170 1.5380 -12.6692 0.687 -0.347 0.639 135 49 24 0 0
0.5645 1.5244 -12.6620 0.261 -0.453 0.852 132 46 21 0 0
0.8697 1.4330 -12.7366 0.744 -0.101 0.660 136 52 27 0 0
1.5028 1.2180 -13.5699 0.888 0.131 0.441 95 48 26 0 0
1.5789 1.1876 -13.7927 0.871 -0.268 0.412 125 68 44 0 0
1.5913 1.1830 -13.8179 0.780 0.079 0.621 148 92 59 0 0
1.8611 1.0879 -14.2651 0.881 0.462 0.101 126 73 57 0 0
1.8753 1.0800 -14.3684 0.797 0.600 0.072 145 82 64 0 0
1.8804 1.0772 -14.4025 0.797 0.600 0.072 144 82 66 0 0
1.8682 1.0666 -14.7811 0.708 0.696 -0.122 78 72 72 0 0
1.8541 1.0685 -14.8384 0.687 0.720 -0.098 76 74 75 0 0
1.7953 1.0737 -15.1574 0.828 0.560 -0.007 80 78 79 0 0
2.1437 0.9592 -15.5132 0.486 -0.713 0.506 41 42 46 0 0
2.1578 0.9541 -15.5395 0.447 -0.617 0.648 73 74 76 0 0
2.1730 0.9487 -15.5645 0.742 -0.284 0.607 103 104 106 0 0
2.2013 0.9402 -15.5733 0.457 -0.492 0.741 65 65 69 0 0
3.1535 0.6568 -15.7580 0.119 0.450 0.885 109 111 112 0 0
3.8204 0.4777 -15.3688 -0.513 0.277 0.812 137 138 137 0 0
4.0105 0.4276 -15.2313 -0.500 0.307 0.810 103 46 32 0 0
4.5550 0.2222 -16.4943 0.630 0.450 0.633 31 17 17 0 0
4.5734 0.2162 -16.5136 0.185 -0.169 0.968 56 40 40 0 0
4.9395 0.1010 -16.7504 0.373 0.201 0.906 176 176 178 0 0
5.6379 -0.1031 -16.7853 0.137 -0.592 0.794 205 205 205 0 0
-1.2367 2.0273 -12.4106 0.201 0.136 0.970 123 46 26 0 0
0.4788 1.5227 -12.6258 0.723 0.039 0.690 134 48 23 0 0
0.4937 1.5175 -12.6473 0.806 -0.249 0.537 136 51 26 0 0
0.5142 1.5110 -12.6640 0.836 -0.212 0.506 131 45 20 0 0
0.5476 1.5011 -12.6692 0.261 -0.453 0.852 134 48 23 0 0
0.8640 1.4071 -12.7340 0.744 -0.101 0.660 138 54 29 0 0
1.2999 1.2763 -12.8553 0.456 -0.073 0.887 124 46 18 0 0
1.3200 1.2698 -12.8715 0.563 -0.397 0.725 97 22 2 0 0
1.3306 1.2644 -12.9320 0.750 -0.240 0.616 84 16 3 0 0
1.3718 1.2499 -12.9990 0.885 -0.208 0.417 85 20 1 0 0
1.4506 1.2134 -13.3552 0.934 -0.168 0.316 102 55 31 0 0
1.4600 1.2068 -13.4561 0.869 -0.341 0.358 96 45 24 0 0
1.5585 1.1663 -13.7671 0.784 0.231 0.576 145 98 56 0 0
1.5962 1.1525 -13.8419 0.363 0.159 0.918 144 85 44 0 0
1.6225 1.1445 -13.8525 0.414 0.170 0.894 144 81 38 0 0
1.8212 1.0833 -13.9483 0.601 -0.109 0.792 120 49 15 0 0
1.8565 1.0715 -13.9875 0.609 0.133 0.782 110 42 17 0 0
1.9101 1.0261 -14.7644 0.718 0.685 -0.119 76 71 69 0 0
1.7950 1.0213 -15.7529 0.558 -0.413 0.720 9 5 7 0 0
3.0881 0.6509 -15.6557 0.688 0.461 0.560 31 32 34 0 0
4.5281 0.2064 -16.3778 0.777 0.141 0.613 29 23 25 0 0
4.5341 0.2032 -16.4170 0.787 0.160 0.595 28 20 20 0 0
4.5936 0.1821 -16.5168 0.360 0.167 0.918 66 45 42 0 0
4.8943 0.0856 -16.7638 0.406 0.413 0.815 171 171 173 0 0
4.9286 0.0760 -16.7555 0.500 0.174 0.848 173 173 175 0 0
5.0942 0.0254 -16.8249 0.857 0.350 0.379 183 183 185 0 0
5.1136 0.0191 -16.8421 0.503 0.314 0.805 184 184 186 0 0
5.3748 -0.0544 -16.7874 -0.282 0.402 0.871 194 194 194 0 0
5.7814 -0.1731 -16.8152 0.454 0.435 0.778 209 209 209 0 0
-0.4584 1.7708 -12.4769 0.386 0.021 0.922 129 46 23 0 0
0.4614 1.5008 -12.5988 0.712 0.096 0.696 136 50 25 0 0
0.4699 1.4972 -12.6259 0.761 -0.347 0.549 137 51 26 0 0
0.4832 1.4925 -12.6488 0.666 -0.312 0.677 135 49 24 0 0
0.5004 1.4868 -12.6684 0.666 -0.312 0.677 134 48 23 0 0
0.8480 1.3850 -12.7059 0.627 0.373 0.684 137 53 28 0 0
0.8994 1.3679 -12.7637 0.492 -0.006 0.871 147 67 43 0 0
1.2859 1.2527 -12.8606 0.657 -0.207 0.725 104 27 4 0 0
1.3228 1.2392 -12.9313 0.775 -0.089 0.626 71 12 2 0 0
1.3386 1.2339 -12.9517 0.775 -0.089 0.626 67 11 2 0 0
1.3544 1.2285 -12.9720 0.775 -0.089 0.626 68 10 2 0 0
1.3578 1.2262 -13.0043 0.839 0.095 0.536 66 10 2 0 0
1.3722 1.2212 -13.0260 0.839 0.095 0.536 62 11 2 0 0
1.3867 1.2162 -13.0478 0.839 0.095 0.536 59 11 2 0 0
1.5698 1.1357 -13.7466 0.876 -0.153 0.458 144 81 38 0 0
1.5760 1.1326 -13.7781 0.766 0.048 0.641 158 97 54 0 0
1.5967 1.1260 -13.7944 0.600 0.272 0.753 155 92 49 0 0
1.8143 1.0572 -13.9467 0.601 -0.109 0.792 141 77 34 0 0
1.8323 1.0513 -13.9658 0.335 -0.210 0.919 136 68 27 0 0
1.8639 1.0420 -13.9704 0.299 -0.387 0.872 120 50 16 0 0
1.8903 1.0340 -13.9805 0.306 -0.187 0.934 109 36 12 0 0
1.8497 0.9854 -15.5009 0.765 0.440 0.469 13 5 4 0 0
1.7894 0.9929 -15.7490 0.857 0.024 0.515 5 3 6 0 0
4.5992 0.2070 -15.1400 0.348 0.839 0.419 75 56 54 0 0
4.6452 0.1391 -16.5176 0.376 0.460 0.804 70 46 42 0 0
4.6696 0.1317 -16.5268 0.419 0.511 0.751 52 31 27 0 0
4.7635 0.1049 -16.5195 -0.163 -0.063 0.985 81 72 71 0 0
5.3991 -0.0867 -16.7292 0.071 0.807 0.586 193 193 193 0 0
5.7674 -0.1946 -16.7748 -0.200 0.462 0.864 208 208 208 0 0
5.7980 -0.2033 -16.7691 -0.087 0.485 0.870 210 210 210 0 0
5.8122 -0.2084 -16.7947 0.015 0.381 0.924 211 211 211 0 0
-1.1765 1.9520 -12.3843 0.448 -0.342 0.826 125 48 29 0 0
-0.1978 1.6663 -12.4966 0.541 0.292 0.789 130 45 21 0 0
-0.1676 1.6572 -12.5060 0.620 0.076 0.781 133 47 24 0 0
0.0451 1.5950 -12.5345 0.446 -0.219 0.868 131 46 19 0 0
0.0839 1.5838 -12.5362 0.677 -0.267 0.686 132 46 21 0 0
0.4724 1.4675 -12.6507 0.681 -0.299 0.669 139 53 26 0 0
0.4893 1.4618 -12.6704 0.681 -0.299 0.669 136 50 24 0 0
0.8329 1.3615 -12.7118 0.508 -0.140 0.850 140 58 34 0 0
0.8641 1.3522 -12.7183 0.828 0.164 0.536 138 56 34 0 0
1.3741 1.1921 -13.0518 0.860 -0.295 0.417 47 8 3 0 0
1.4332 1.1582 -13.4659 0.666 -0.673 0.322 46 8 3 0 0
1.4894 1.1368 -13.5949 0.715 -0.342 0.609 44 7 4 0 0
1.5046 1.1316 -13.6167 0.823 -0.265 0.503 42 7 2 0 0
1.5182 1.1267 -13.6404 0.835 -0.232 0.500 49 10 3 0 0
1.5785 1.1058 -13.7288 0.779 -0.027 0.626 142 65 27 0 0
1.5876 1.1020 -13.7571 0.576 0.092 0.812 149 77 37 0 0
1.6511 1.0803 -13.8428 0.719 -0.042 0.694 140 69 31 0 0
1.7135 1.0604 -13.8916 0.676 -0.526 0.515 138 74 28 0 0
1.7435 1.0515 -13.8980 0.641 -0.544 0.541 147 87 40 0 0
1.8037 1.0321 -13.9489 0.658 -0.134 0.741 120 60 25 0 0
1.8198 1.0266 -13.9702 0.282 -0.100 0.954 140 79 40 0 0
1.8497 1.0178 -13.9766 0.393 -0.450 0.802 147 84 42 0 0
1.8757 1.0099 -13.9871 0.285 -0.442 0.850 142 72 36 0 0
4.5290 0.2058 -15.0139 0.667 0.727 0.166 122 88 78 0 0
4.5455 0.2003 -15.0331 0.597 0.777 0.200 103 73 64 0 0
4.8158 0.0620 -16.5180 0.383 0.376 0.844 84 79 78 0 0
5.0045 -0.0016 -16.7495 -0.075 0.013 0.997 170 170 172 0 0
5.1895 -0.0582 -16.8341 0.049 0.651 0.757 184 184 186 0 0
5.7694 -0.2195 -16.7042 0.820 -0.153 0.552 207 207 207 0 0
5.7672 -0.2212 -16.7608 -0.192 0.452 0.871 208 208 208 0 0
5.7983 -0.2298 -16.7542 -0.087 0.485 0.870 209 209 209 0 0
-1.1719 1.9203 -12.4077 0.555 -0.099 0.826 127 50 29 0 0
-1.1357 1.9097 -12.4141 0.293 -0.124 0.948 126 48 26 0 0
-1.1115 1.9021 -12.4297 0.319 -0.028 0.947 125 47 25 0 0
-1.0360 1.8801 -12.4399 0.291 0.277 0.916 124 47 24 0 0
-1.0037 1.8704 -12.4490 0.423 0.175 0.889 126 48 25 0 0
-0.9260 1.8464 -12.4913 0.395 -0.524 0.754 123 45 22 0 0
-0.7503 1.7990 -12.4216 0.686 0.293 0.666 127 48 25 0 0
-0.4591 1.7140 -12.4626 0.179 -0.064 0.982 129 45 21 0 0
-0.4259 1.7042 -12.4701 0.546 0.220 0.808 130 46 22 0 0
0.1014 1.5500 -12.5483 0.775 -0.279 0.567 129 43 18 0 0
0.3022 1.4910 -12.5835 0.360 -0.032 0.932 131 45 22 0 0
0.4624 1.4423 -12.6517 0.681 -0.299 0.669 137 52 24 0 0
0.5010 1.4312 -12.6525 0.469 -0.056 0.881 139 53 27 0 0
0.8220 1.3368 -12.7138 0.485 -0.198 0.852 137 55 31 0 0
0.8677 1.3240 -12.7073 0.884 0.080 0.460 145 63 41 0 0
0.8933 1.3147 -12.7536 0.831 0.167 0.530 139 60 38 0 0
1.0256 1.2775 -12.7373 0.607 -0.360 0.708 145 77 65 0 0
1.0329 1.2713 -12.8354 0.915 -0.291 0.281 162 97 86 0 0
1.2135 1.2193 -12.8426 0.681 0.353 0.642 132 56 35 0 0
1.2817 1.1996 -12.8486 0.520 -0.170 0.837 101 26 7 0 0
1.3225 1.1836 -12.9509 0.685 0.022 0.729 63 13 6 0 0
1.3413 1.1775 -12.9684 0.685 0.022 0.729 82 43 35 0 0
1.3548 1.1727 -12.9910 0.785 0.099 0.612 109 80 72 0 0
1.3558 1.1709 -13.0257 0.880 -0.188 0.436 44 12 4 0 0
1.3980 1.1424 -13.4188 0.931 -0.048 0.363 46 10 5 0 0
1.4046 1.1392 -13.4491 0.889 -0.015 0.457 40 8 5 0 0
1.4171 1.1346 -13.4735 0.889 -0.015 0.457 40 8 6 0 0
1.4279 1.1304 -13.4997 0.907 0.128 0.402 42 8 6 0 0
1.6841 1.0429 -13.8372 0.826 0.120 0.550 119 37 10 0 0
1.7149 1.0323 -13.8811 0.826 0.120 0.550 129 50 18 0 0
1.7298 1.0271 -13.9035 0.800 0.125 0.587 145 74 34 0 0
1.7744 1.0131 -13.9328 0.539 0.199 0.819 148 92 52 0 0
1.9184 0.9687 -14.0090 0.634 -0.014 0.773 134 59 27 0 0
2.0891 0.8483 -15.7132 -0.073 -0.459 0.885 12 11 14 0 0
4.4150 0.2127 -14.9961 -0.190 0.388 0.902 116 57 37 0 0
4.5333 0.1789 -14.9963 0.408 0.650 0.641 119 68 51 0 0
5.7977 -0.2562 -16.7409 -0.025 0.519 0.854 208 208 208 0 0
5.8395 -0.2670 -16.7138 0.626 0.761 0.172 209 209 209 0 0
-1.1792 1.8930 -12.4061 0.555 -0.099 0.826 123 45 25 0 0
-1.1487 1.8838 -12.4169 0.274 -0.180 0.945 125 47 25 0 0
-1.1181 1.8747 -12.4275 0.274 -0.180 0.945 126 48 26 0 0
-1.0285 1.8491 -12.4267 0.517 0.167 0.840 125 48 25 0 0
-1.0024 1.8411 -12.4407 0.593 0.177 0.785 126 50 27 0 0
-0.9755 1.8328 -12.4540 0.661 0.095 0.745 127 50 28 0 0
-0.9575 1.8268 -12.4743 0.790 0.038 0.612 126 49 26 0 0
-0.4257 1.6757 -12.4625 0.546 0.220 0.808 133 49 25 0 0
-0.3981 1.6673 -12.4743 0.342 0.324 0.882 128 44 20 0 0
-0.1877 1.6044 -12.5420 0.319 -0.246 0.915 131 49 25 0 0
0.0836 1.5264 -12.5558 0.693 -0.199 0.693 132 46 21 0 0
0.2706 1.4726 -12.5686 0.371 -0.038 0.928 134 48 25 0 0
0.2975 1.4644 -12.5800 0.369 0.036 0.929 133 47 24 0 0
1.0837 1.2301 -12.8155 0.200 0.449 0.871 159 86 61 0 0
1.2714 1.1750 -12.8504 0.670 0.042 0.741 95 20 5 0 0
1.2795 1.1715 -12.8778 0.811 -0.091 0.578 83 16 6 0 0
1.3069 1.1618 -12.9224 0.900 0.053 0.433 63 11 5 0 0
1.4345 1.0996 -13.5215 0.882 -0.304 0.359 52 9 4 0 0
1.4427 1.0960 -13.5504 0.745 -0.130 0.654 51 9 4 0 0
1.4595 1.0904 -13.5707 0.745 -0.130 0.654 46 6 2 0 0
1.4723 1.0857 -13.5950 0.620 -0.168 0.766 45 7 2 0 0
1.4920 1.0793 -13.6123 0.620 -0.168 0.766 48 9 2 0 0
1.5117 1.0730 -13.6296 0.620 -0.168 0.766 59 11 2 0 0
1.5263 1.0678 -13.6521 0.569 -0.312 0.761 85 22 5 0 0
1.5518 1.0584 -13.7010 0.539 -0.252 0.804 129 46 15 0 0
1.5993 1.0438 -13.7274 0.770 -0.062 0.635 113 33 8 0 0
1.7748 0.9853 -13.9233 0.537 -0.105 0.837 148 85 51 0 0
2.0146 0.9030 -14.2454 0.715 0.677 0.174 131 81 64 0 0
2.1264 0.8085 -15.7002 0.322 -0.852 0.413 10 9 14 0 0
4.5720 0.1425 -14.9713 0.180 0.094 0.979 115 61 45 0 0
4.8501 0.0567 -15.1221 0.852 0.521 0.044 83 68 69 0 0
5.4936 -0.1957 -16.7214 0.996 0.012 0.091 197 197 197 0 0
-1.3019 1.8991 -12.3898 0.338 -0.249 0.908 125 50 31 0 0
-1.0326 1.8212 -12.4226 0.591 -0.165 0.790 126 48 27 0 0
-1.0103 1.8141 -12.4396 0.573 -0.193 0.796 127 49 29 0 0
-0.9886 1.8072 -12.4569 0.573 -0.193 0.796 126 49 28 0 0
-0.4423 1.6514 -12.4685 0.483 -0.149 0.863 132 48 24 0 0
-0.4155 1.6433 -12.4811 0.264 -0.140 0.954 130 46 22 0 0
0.5060 1.3747 -12.6329 0.419 -0.442 0.793 130 43 18 0 0
0.7626 1.2996 -12.6823 0.423 -0.476 0.771 135 52 28 0 0
0.9256 1.2506 -12.7434 0.238 -0.210 0.948 153 80 60 0 0
0.9778 1.2364 -12.7306 0.712 -0.395 0.580 151 82 66 0 0
0.9805 1.2326 -12.7979 0.664 -0.153 0.731 160 99 84 0 0
1.1053 1.1976 -12.7875 0.289 0.451 0.844 152 79 53 0 0
1.2240 1.1626 -12.8168 0.441 0.290 0.849 131 55 34 0 0
1.2493 1.1549 -12.8281 0.573 0.309 0.759 108 29 10 0 0
1.2622 1.1502 -12.8510 0.559 0.319 0.766 90 17 2 0 0
1.3116 1.1320 -12.9452 0.571 0.363 0.737 57 9 4 0 0
1.3979 1.0857 -13.4387 0.915 0.059 0.398 68 22 10 0 0
1.4093 1.0813 -13.4643 0.915 0.059 0.398 67 20 8 0 0
1.4232 1.0764 -13.4873 0.899 0.245 0.363 68 20 8 0 0
1.4382 1.0695 -13.5463 0.871 -0.054 0.489 74 21 10 0 0
1.4515 1.0647 -13.5701 0.689 -0.220 0.690 70 18 7 0 0
1.4645 1.0599 -13.5943 0.620 -0.168 0.766 64 12 2 0 0
1.4808 1.0544 -13.6150 0.615 -0.015 0.788 72 16 5 0 0
2.0370 0.8700 -14.2111 0.959 0.223 0.176 114 73 59 0 0
2.1202 0.7807 -15.6971 0.052 -0.868 0.494 11 10 15 0 0
3.2674 0.4580 -15.6245 0.640 0.119 0.759 21 21 23 0 0
4.3831 0.1696 -14.9770 0.537 -0.297 0.789 113 56 37 0 0
4.4017 0.1636 -14.9932 0.554 -0.316 0.770 113 56 37 0 0
4.7302 0.0706 -14.9852 0.404 0.541 0.737 115 74 68 0 0
5.8081 -0.3134 -16.7449 0.250 0.894 0.373 210 210 210 0 0
-1.2048 1.8411 -12.4111 0.386 -0.461 0.799 125 49 30 0 0
-1.0312 1.7903 -12.4485 0.448 -0.257 0.856 124 46 26 0 0
-1.0026 1.7817 -12.4605 0.537 -0.155 0.829 125 47 25 0 0
-0.9496 1.7654 -12.4877 0.374 0.288 0.882 125 47 25 0 0
-0.3659 1.5980 -12.5362 0.259 0.035 0.965 133 49 25 0 0
-0.2243 1.5570 -12.5573 0.240 -0.396 0.886 131 47 23 0 0
0.0786 1.4718 -12.5450 0.869 -0.007 0.495 134 50 24 0 0
0.3203 1.4018 -12.5796 0.189 0.070 0.980 133 47 24 0 0
0.3832 1.3833 -12.5942 0.318 -0.042 0.947 136 50 27 0 0
0.4677 1.3580 -12.6242 0.329 -0.441 0.835 129 42 19 0 0
0.4910 1.3508 -12.6383 0.419 -0.442 0.793 130 42 19 0 0
0.5129 1.3439 -12.6537 0.419 -0.442 0.793 130 43 17 0 0
0.5314 1.3378 -12.6720 0.547 -0.440 0.712 136 49 22 0 0
0.7487 1.2756 -12.6871 0.443 -0.400 0.802 138 54 30 0 0
0.7800 1.2665 -12.6936 0.399 -0.604 0.690 136 51 28 0 0
1.1756 1.1488 -12.8192 0.316 -0.592 0.741 149 80 59 0 0
1.2126 1.1383 -12.8196 0.224 -0.366 0.903 131 54 32 0 0
1.2166 1.1358 -12.8509 0.646 -0.504 0.573 116 38 16 0 0
1.3079 1.0994 -13.0830 0.734 -0.658 0.167 25 5 4 0 0
1.3634 1.0697 -13.3911 0.475 -0.650 0.593 21 6 3 0 0
2.0480 0.7699 -15.7316 -0.031 -0.544 0.838 19 18 21 0 0
2.8860 0.5450 -15.4589 0.698 0.628 0.344 82 82 85 0 0
2.9184 0.5318 -15.5483 0.626 -0.088 0.775 55 54 60 0 0
2.9529 0.5201 -15.5913 0.643 -0.182 0.743 11 10 16 0 0
2.9788 0.5123 -15.6013 0.720 -0.301 0.625 55 54 60 0 0
4.3750 0.1453 -14.9776 0.722 -0.107 0.684 112 54 35 0 0
4.5149 0.1052 -14.9898 -0.055 0.043 0.998 111 54 36 0 0
4.7342 0.0441 -14.9679 0.404 0.541 0.737 118 71 63 0 0
5.5819 -0.2714 -16.6343 0.005 -0.662 0.750 199 199 199 0 0
-1.3164 1.8443 -12.3864 0.391 -0.031 0.920 125 50 31 0 0
-1.2939 1.8372 -12.4035 0.557 -0.285 0.780 124 49 30 0 0
-1.2567 1.8264 -12.4094 0.783 -0.208 0.587 123 48 29 0 0
-1.1653 1.8007 -12.4078 0.399 0.057 0.915 124 47 27 0 0
-1.1141 1.7849 -12.4368 0.172 -0.043 0.984 124 47 27 0 0
-0.7105 1.6715 -12.4292 0.190 -0.307 0.933 128 46 24 0 0
-0.3365 1.5609 -12.5390 0.214 0.009 0.977 127 43 19 0 0
-0.2316 1.5305 -12.5558 0.451 0.408 0.794 130 46 22 0 0
-0.2017 1.5216 -12.5655 0.338 0.372 0.865 128 44 20 0 0
0.0689 1.4462 -12.5456 0.567 0.273 0.777 136 52 26 0 0
0.3353 1.3673 -12.6280 0.276 -0.337 0.900 128 42 19 0 0
0.4279 1.3416 -12.6167 0.279 -0.415 0.866 133 47 22 0 0
0.4518 1.3343 -12.6304 0.329 -0.441 0.835 135 50 24 0 0
0.4837 1.3250 -12.6370 0.532 -0.321 0.784 135 49 24 0 0
0.4979 1.3199 -12.6592 0.487 -0.398 0.777 130 44 20 0 0
0.5176 1.3136 -12.6765 0.547 -0.440 0.712 131 46 22 0 0
0.7115 1.2588 -12.6779 0.543 -0.431 0.720 137 53 28 0 0
0.7302 1.2527 -12.6959 0.389 -0.469 0.793 140 54 31 0 0
0.7612 1.2436 -12.7027 0.399 -0.604 0.690 143 58 35 0 0
1.0312 1.1644 -12.7705 0.032 0.446 0.895 161 94 77 0 0
1.1574 1.1261 -12.8283 0.880 0.036 0.473 146 77 55 0 0
1.1812 1.1188 -12.8410 0.511 -0.093 0.855 128 50 27 0 0
1.1915 1.1147 -12.8665 0.303 -0.031 0.952 110 30 7 0 0
1.3207 1.0774 -12.8852 0.794 0.398 0.460 57 9 2 0 0
1.3321 1.0730 -12.9096 0.958 0.112 0.263 52 8 2 0 0
1.2949 1.0753 -13.0874 0.796 -0.604 0.031 6 4 5 0 0
1.2840 1.0762 -13.1337 0.739 -0.537 0.407 12 9 11 0 0
1.2915 1.0727 -13.1624 0.703 -0.535 0.469 15 10 13 0 0
1.3040 1.0681 -13.1864 0.703 -0.535 0.469 30 22 23 0 0
2.1148 0.7783 -14.5022 0.915 -0.401 0.038 96 65 58 0 0
2.1261 0.7739 -14.5295 0.951 -0.306 0.039 87 63 56 0 0
2.1462 0.7124 -15.7314 0.287 0.325 0.901 9 9 11 0 0
2.9664 0.4848 -15.6510 0.719 -0.445 0.535 26 26 29 0 0
2.9837 0.4789 -15.6726 0.662 -0.396 0.636 16 14 17 0 0
3.1092 0.4451 -15.6380 0.835 0.243 0.493 70 69 74 0 0
3.1892 0.4235 -15.6191 0.090 0.175 0.980 70 71 74 0 0
3.2639 0.4030 -15.6067 0.694 0.080 0.716 25 24 27 0 0
3.3078 0.3892 -15.6360 0.904 0.060 0.424 20 14 18 0 0
3.5243 0.3275 -15.6499 -0.609 -0.141 0.780 91 59 51 0 0
4.5469 0.0725 -14.9315 0.375 0.380 0.845 111 54 37 0 0
4.9456 -0.0528 -15.2063 0.587 0.681 0.438 53 37 37 0 0
4.9664 -0.0592 -15.2184 0.585 0.686 0.432 49 37 36 0 0
5.8207 -0.3661 -16.6400 0.161 0.761 0.629 208 208 208 0 0
-1.3656 1.8288 -12.3823 0.358 -0.323 0.876 121 46 27 0 0
-1.3054 1.8108 -12.4050 0.534 -0.396 0.747 124 49 30 0 0
-1.2631 1.7988 -12.4070 0.770 -0.413 0.486 124 49 30 0 0
-0.5185 1.5864 -12.4737 0.349 0.138 0.927 130 45 22 0 0
-0.4691 1.5728 -12.4680 0.334 0.116 0.935 131 47 23 0 0
-0.4362 1.5632 -12.4756 0.638 0.345 0.689 130 46 22 0 0
-0.3724 1.5429 -12.5265 0.278 -0.016 0.961 137 53 29 0 0
-0.3415 1.5337 -12.5356 0.278 -0.016 0.961 128 44 20 0 0
-0.3042 1.5231 -12.5394 0.256 0.137 0.957 128 44 20 0 0
-0.2438 1.5052 -12.5584 0.396 0.099 0.913 131 47 23 0 0
0.3358 1.3394 -12.6199 0.349 -0.204 0.914 133 47 24 0 0
0.4392 1.3097 -12.6338 0.454 -0.216 0.864 138 53 27 0 0
0.4644 1.3020 -12.6463 0.480 -0.210 0.852 138 54 28 0 0
0.4887 1.2946 -12.6596 0.606 -0.022 0.795 136 52 29 0 0
0.5097 1.2879 -12.6758 0.606 -0.022 0.795 134 49 27 0 0
0.5787 1.2681 -12.6842 0.150 -0.163 0.975 134 49 24 0 0
1.1757 1.0947 -12.8033 0.799 -0.190 0.570 146 79 55 0 0
1.1888 1.0899 -12.8260 0.632 -0.287 0.720 128 51 28 0 0
1.2171 1.0799 -12.8697 0.475 -0.534 0.700 89 20 3 0 0
1.2741 1.0513 -13.1351 0.835 -0.368 0.410 25 19 20 0 0
1.2848 1.0470 -13.1607 0.835 -0.368 0.410 19 13 15 0 0
1.2955 1.0428 -13.1863 0.835 -0.368 0.410 11 6 7 0 0
2.0001 0.8102 -13.9132 0.542 -0.124 0.831 153 104 72 0 0
2.0516 0.7106 -15.7053 0.122 0.039 0.992 12 11 14 0 0
2.0908 0.6998 -15.7010 0.172 -0.103 0.980 21 20 25 0 0
3.0952 0.4202 -15.6457 0.107 0.004 0.994 68 67 72 0 0
3.1397 0.4084 -15.6302 -0.074 0.162 0.984 74 75 79 0 0
3.1759 0.3984 -15.6258 -0.074 0.162 0.984 67 68 70 0 0
3.3161 0.3617 -15.5688 0.838 -0.047 0.544 19 17 20 0 0
3.3243 0.3578 -15.6020 0.847 -0.156 0.508 16 13 17 0 0
4.4796 0.0630 -14.9759 -0.324 0.507 0.799 109 52 37 0 0
4.5440 0.0453 -14.9680 0.265 -0.329 0.906 111 59 44 0 0
4.5645 0.0389 -14.9811 0.412 -0.312 0.856 117 68 58 0 0
5.0033 -0.0946 -15.1935 0.672 0.628 0.392 49 28 27 0 0
-1.5131 1.8421 -12.3494 0.860 -0.232 0.454 122 49 31 0 0
-1.1912 1.7489 -12.4132 0.223 -0.004 0.975 124 48 28 0 0
-0.3486 1.5071 -12.5340 0.278 -0.016 0.961 132 48 24 0 0
-0.2616 1.4813 -12.5657 0.426 -0.419 0.802 130 46 22 0 0
-0.1420 1.4476 -12.5698 0.392 -0.075 0.917 132 48 24 0 0
-0.1093 1.4381 -12.5769 0.273 -0.094 0.958 133 49 23 0 0
0.0807 1.3859 -12.5550 0.462 -0.466 0.755 133 49 23 0 0
0.1150 1.3744 -12.5947 0.594 -0.389 0.704 132 46 21 0 0
0.2987 1.3222 -12.6099 0.449 -0.257 0.856 139 53 28 0 0
0.3252 1.3143 -12.6215 0.349 -0.204 0.914 133 47 22 0 0
0.3853 1.2983 -12.6040 0.437 0.231 0.870 132 46 23 0 0
0.4391 1.2821 -12.6262 0.603 0.188 0.775 137 52 28 0 0
0.4687 1.2734 -12.6349 0.492 0.311 0.813 144 60 36 0 0
1.2745 1.0221 -13.1624 0.833 -0.369 0.413 17 10 13 0 0
1.2904 1.0167 -13.1831 0.728 -0.012 0.685 10 6 8 0 0
1.2691 1.0092 -13.4591 0.277 -0.632 0.724 7 6 4 0 0
1.3299 0.9897 -13.5095 0.467 -0.682 0.562 8 7 5 0 0
1.3556 0.9820 -13.5209 0.698 -0.503 0.510 13 11 9 0 0
1.3765 0.9736 -13.5741 0.869 -0.454 0.195 8 7 5 0 0
1.6530 0.8917 -13.6654 0.297 0.345 0.890 105 48 32 0 0
2.0721 0.7496 -14.1739 0.642 0.304 0.704 128 69 45 0 0
2.1542 0.7099 -14.5181 0.899 0.126 0.420 118 74 54 0 0
2.2922 0.6157 -15.6593 0.208 -0.676 0.707 20 17 24 0 0
3.3077 0.3336 -15.6136 0.733 -0.421 0.534 17 13 15 0 0
3.3518 0.3199 -15.6423 0.934 -0.194 0.301 12 8 9 0 0
4.4653 0.0443 -14.8993 -0.123 0.394 0.911 111 52 37 0 0
4.5414 0.0200 -14.9606 0.194 -0.439 0.877 111 60 48 0 0
4.5580 0.0145 -14.9795 0.423 -0.735 0.530 116 69 63 0 0
5.7257 -0.4006 -16.7912 -0.338 -0.125 0.933 208 208 208 0 0
-1.5269 1.8162 -12.3525 0.727 -0.054 0.685 121 48 29 0 0
-1.4853 1.8027 -12.3897 0.698 -0.579 0.421 123 50 33 0 0
-1.1264 1.7009 -12.4245 0.210 0.143 0.967 121 50 30 0 0
-0.1178 1.4120 -12.5765 0.320 -0.228 0.920 133 49 23 0 0
0.0637 1.3621 -12.5618 0.743 -0.145 0.654 133 49 23 0 0
0.4320 1.2562 -12.6248 0.559 0.003 0.829 137 51 28 0 0
0.4568 1.2487 -12.6376 0.641 -0.016 0.768 135 50 26 0 0
0.4702 1.2438 -12.6604 0.663 -0.012 0.748 134 48 25 0 0
0.4893 1.2376 -12.6783 0.724 -0.013 0.690 136 50 27 0 0
0.5098 1.2310 -12.6949 0.711 -0.122 0.692 135 51 27 0 0
0.5550 1.2187 -12.6897 0.620 -0.036 0.784 141 57 33 0 0
1.0594 1.0747 -12.7558 0.331 0.065 0.942 148 72 47 0 0
1.1661 1.0394 -12.8664 0.426 -0.209 0.881 98 25 8 0 0
1.2281 1.0110 -13.0913 0.799 -0.600 0.022 9 3 5 0 0
1.2861 0.9904 -13.1790 0.728 -0.012 0.685 9 5 6 0 0
1.2798 0.9865 -13.2938 0.582 -0.632 0.512 12 8 9 0 0
1.3479 0.9580 -13.4830 0.869 -0.454 0.195 7 6 4 0 0
1.3588 0.9537 -13.5091 0.905 -0.374 0.203 8 7 5 0 0
1.3645 0.9505 -13.5404 0.905 -0.374 0.203 8 7 5 0 0
1.3702 0.9474 -13.5718 0.905 -0.374 0.203 8 7 5 0 0
2.0139 0.7468 -13.9954 0.805 -0.527 0.273 148 89 57 0 0
2.1771 0.6608 -14.8079 0.848 0.512 0.140 94 54 34 0 0
2.2330 0.6319 -15.0749 0.791 0.604 0.099 62 17 9 0 0
2.2420 0.6278 -15.1062 0.725 0.675 0.134 61 18 10 0 0
2.3136 0.5822 -15.6215 0.997 0.059 -0.044 15 13 19 0 0
3.2534 0.3240 -15.5428 0.263 -0.311 0.913 50 50 52 0 0
3.2867 0.3125 -15.5864 0.496 -0.510 0.702 20 17 20 0 0
4.5777 -0.0110 -14.8529 0.214 0.784 0.583 109 55 40 0 0
4.6285 -0.0236 -14.8210 0.655 0.165 0.737 112 62 51 0 0
4.5379 -0.0072 -14.9980 0.199 -0.281 0.939 117 72 65 0 0
4.5723 -0.0186 -15.0342 0.969 -0.238 -0.064 131 96 87 0 0
4.5714 -0.0206 -15.0793 -0.185 0.280 0.942 135 101 92 0 0
5.2212 -0.2298 -15.6410 0.833 0.538 0.129 89 83 83 0 0
5.2290 -0.2336 -15.6751 0.833 0.538 0.129 94 88 87 0 0
-1.4645 1.7684 -12.3669 0.072 0.061 0.996 123 50 33 0 0
-0.9630 1.6260 -12.4275 0.621 -0.055 0.782 125 48 26 0 0
-0.9666 1.6251 -12.4644 0.753 -0.377 0.539 127 48 26 0 0
-0.8914 1.6055 -12.4398 0.515 -0.048 0.856 128 48 25 0 0
-0.2924 1.4338 -12.5417 0.340 0.176 0.924 131 47 23 0 0
-0.2457 1.4211 -12.5376 0.271 0.016 0.962 130 46 22 0 0
0.0346 1.3428 -12.5445 0.654 -0.163 0.739 131 47 21 0 0
0.0566 1.3359 -12.5603 0.800 -0.090 0.593 133 49 23 0 0
0.0719 1.3306 -12.5818 0.800 -0.090 0.593 131 45 20 0 0
0.4601 1.2204 -12.6271 0.206 -0.201 0.958 136 48 26 0 0
0.4694 1.2164 -12.6535 0.763 -0.328 0.557 135 48 25 0 0
0.4709 1.2143 -12.6867 0.497 -0.193 0.846 137 50 27 0 0
1.0244 1.0575 -12.7454 0.492 -0.054 0.869 148 75 54 0 0
1.1440 1.0193 -12.8442 0.378 -0.369 0.849 115 37 18 0 0
1.1564 1.0146 -12.8676 0.426 -0.209 0.881 100 28 10 0 0
1.2160 0.9755 -13.3113 0.759 -0.157 0.632 8 4 5 0 0
2.0106 0.7221 -13.9514 0.480 -0.324 0.815 159 96 64 0 0
2.1794 0.6364 -14.7131 0.966 0.260 0.018 88 55 40 0 0
2.1809 0.6340 -14.7523 0.926 0.350 0.145 92 55 38 0 0
2.1825 0.6315 -14.7916 0.981 -0.101 0.164 98 53 37 0 0
2.1880 0.6283 -14.8264 0.981 -0.101 0.164 106 56 42 0 0
2.1996 0.6236 -14.8540 0.969 -0.118 0.217 110 62 40 0 0
2.2066 0.6200 -14.8872 0.969 -0.118 0.217 104 56 34 0 0
2.2152 0.6139 -14.9601 0.973 0.225 -0.050 108 59 38 0 0
3.0946 0.3385 -15.5685 0.709 0.336 0.620 43 41 44 0 0
3.3001 0.2820 -15.5569 0.616 0.117 0.779 19 17 19 0 0
3.3010 0.2773 -15.6448 0.830 -0.338 0.444 13 9 10 0 0
3.3817 0.2491 -15.7581 -0.393 0.372 0.841 88 39 30 0 0
4.5157 -0.0175 -14.8038 0.869 -0.494 -0.016 109 52 35 0 0
4.5709 -0.0440 -15.0250 0.378 -0.345 0.859 129 94 85 0 0
4.8534 -0.1165 -14.9054 0.771 0.454 0.447 135 98 87 0 0
4.8906 -0.1284 -14.9358 0.654 0.639 0.404 127 87 74 0 0
5.0376 -0.1733 -15.0160 0.764 0.622 0.171 102 45 28 0 0
5.5204 -0.3894 -16.6259 0.285 -0.488 0.825 193 193 193 0 0
5.5387 -0.3980 -16.6953 0.595 -0.651 0.470 196 196 196 0 0
5.5533 -0.4033 -16.7201 0.385 -0.199 0.901 197 197 197 0 0
5.7403 -0.4534 -16.6828 0.342 -0.352 0.871 206 206 206 0 0
-1.0042 1.6070 -12.4522 0.449 -0.353 0.821 123 45 25 0 0
-0.9759 1.5985 -12.4644 0.700 -0.315 0.641 125 47 25 0 0
-0.8999 1.5788 -12.4392 0.520 -0.159 0.839 128 48 25 0 0
-0.7872 1.5468 -12.4532 0.510 -0.138 0.849 131 49 28 0 0
-0.6054 1.4951 -12.4797 0.297 -0.006 0.955 128 46 23 0 0
-0.3135 1.4124 -12.5173 0.411 0.413 0.813 134 50 26 0 0
0.0269 1.3168 -12.5435 0.654 -0.163 0.739 131 47 21 0 0
0.5042 1.1773 -12.6845 0.337 -0.292 0.895 139 55 31 0 0
0.9001 1.0644 -12.7468 0.346 0.097 0.933 160 103 87 0 0
0.9309 1.0555 -12.7535 0.599 0.106 0.794 161 100 87 0 0
1.1104 1.0017 -12.8325 0.634 -0.466 0.618 134 61 39 0 0
1.1256 0.9965 -12.8534 0.540 -0.384 0.749 118 43 21 0 0
1.1361 0.9922 -12.8787 0.583 -0.222 0.781 105 34 15 0 0
1.1559 0.9859 -12.8953 0.583 -0.222 0.781 94 30 16 0 0
1.1818 0.9782 -12.9062 0.812 -0.318 0.489 77 19 10 0 0
1.1676 0.9740 -13.0614 0.676 -0.728 0.115 41 9 6 0 0
1.1708 0.9714 -13.0940 0.562 -0.785 0.260 13 1 1 0 0
1.1796 0.9676 -13.1214 0.509 -0.809 0.295 20 15 16 0 0
1.1951 0.9528 -13.3234 0.682 -0.459 0.570 6 2 3 0 0
1.1496 0.9573 -13.4779 0.520 -0.854 0.019 5 3 2 0 0
1.4280 0.8696 -13.6829 0.437 -0.662 0.609 99 61 36 0 0
2.0302 0.6865 -13.9979 0.607 -0.168 0.777 152 93 57 0 0
2.1960 0.6049 -14.6838 0.990 0.123 -0.062 126 85 68 0 0
2.1853 0.6051 -14.7372 1.000 0.020 0.020 118 71 53 0 0
2.1769 0.6047 -14.7881 0.974 -0.195 0.118 107 56 39 0 0
2.1825 0.6014 -14.8228 0.957 -0.240 0.163 89 37 20 0 0
2.1877 0.5981 -14.8580 0.957 -0.240 0.163 87 30 13 0 0
2.2022 0.5928 -14.8823 0.969 -0.118 0.217 84 27 11 0 0
2.2092 0.5892 -14.9156 0.969 -0.118 0.217 82 25 10 0 0
2.2162 0.5855 -14.9489 0.969 -0.118 0.217 80 24 8 0 0
2.2639 0.5259 -15.8397 0.964 0.201 -0.173 62 62 65 0 0
3.1238 0.3023 -15.5625 0.745 -0.017 0.667 75 74 80 0 0
3.1423 0.2962 -15.5820 0.724 0.100 0.682 82 82 86 0 0
3.1611 0.2900 -15.6011 0.724 0.100 0.682 77 78 79 0 0
4.4957 -0.0390 -14.8220 0.647 -0.752 0.128 108 52 36 0 0
4.5029 -0.0427 -14.8543 0.687 -0.700 0.197 109 54 38 0 0
4.5459 -0.0648 -15.0509 0.362 0.556 0.748 127 92 83 0 0
4.5767 -0.0732 -15.0488 -0.245 0.676 0.694 123 88 79 0 0
4.9726 -0.1812 -15.0174 0.432 0.668 0.605 102 38 20 0 0
5.3382 -0.3719 -16.7373 1.000 -0.023 -0.017 181 179 179 0 0
5.3988 -0.3883 -16.7305 0.643 -0.599 0.478 186 185 186 0 0
5.7276 -0.4774 -16.6925 0.576 0.039 0.817 206 206 206 0 0
-1.0479 1.5902 -12.4447 0.224 -0.218 0.950 131 50 29 0 0
-1.0180 1.5814 -12.4556 0.449 -0.353 0.821 126 45 24 0 0
-1.0033 1.5761 -12.4785 0.559 0.095 0.823 126 46 25 0 0
-0.9477 1.5613 -12.4693 0.226 0.036 0.973 127 46 25 0 0
