ply
format ascii 1.0
element vertex 690
property float x
property float y
property float z
property uchar diffuse_red
property uchar diffuse_green
property uchar diffuse_blue
end_header
-0.491644622934047 -1.0841531167981158 -13.408577771938743 102 47 30
-0.49290315093107084 -1.086514136077727 -13.447258606250195 107 50 34
-0.5424317566014358 -1.1526584673654394 -13.409234713041077 109 50 35
-0.5332254691627152 -1.141192364784259 -13.46459845119756 110 52 37
-0.5333317412293419 -1.1420333295859857 -13.505257064252174 111 56 39
-0.53028654706582 -1.1387128006313585 -13.551086981066142 113 61 42
-0.5289890689943713 -1.137703513809301 -13.594246761738994 112 60 40
-0.5408828963209249 -1.1541215092968367 -13.616240683005618 108 59 43
-0.544344079959802 -1.1594011427832704 -13.65189107908584 94 44 30
-0.5477163020719664 -1.1645647174932066 -13.687769886990754 96 45 31
-0.5583352838405253 -1.179300648789341 -13.711935124471108 90 41 27
-0.5597331482132262 -1.1818591678487351 -13.751174500939543 94 44 31
-0.5563463966065494 -1.1781011379328596 -13.798353052604373 95 46 34
-0.568921115334331 -1.1954223571817177 -13.819469241772898 94 46 36
-0.5624822341489639 -1.1876381807992606 -13.871899342773707 95 44 34
-0.5725118571390952 -1.2016006214733679 -13.897308757385787 98 45 33
-0.57988513033093 -1.2120564883897584 -13.927142389586672 98 39 26
-0.5885665323527141 -1.2242401288831957 -13.954852605669652 82 15 5
-0.5943512591793021 -1.2326006097381867 -13.987425831455806 88 16 5
-0.5822151218450058 -1.2173069715763756 -14.050005064442077 95 25 8
-0.5662296445349884 -1.196936661786431 -14.119271450226414 107 44 25
-0.5703486385837988 -1.2031053272890455 -14.155031172231089 108 55 37
-0.5667399650982619 -1.1990769354142126 -14.203895944915947 109 56 43
-0.5619780772483085 -1.1935294100675709 -14.25486750516512 99 51 37
-0.576824461891178 -1.213859265899222 -14.27277559821686 106 51 35
-0.5710686148215842 -1.2070044250766587 -14.325681350068697 110 50 29
-0.576174066096907 -1.2144830992170128 -14.360253491407573 115 50 27
-0.5714305071549042 -1.2089690877024815 -14.411737599067315 134 60 33
-0.5754791339263567 -1.2150569745947797 -14.448320366797255 102 50 33
-0.5463412242353174 -1.1773683576030924 -14.542048295971739 52 32 29
-0.5374933120565686 -1.1664506609560936 -14.601205084300048 50 38 36
-0.5186639950748613 -1.1423713926039412 -14.677837287579802 47 37 35
-0.5422115581149134 -1.1741881454632201 -14.681294875874736 53 37 36
-0.5326747342366351 -1.1623711186673535 -14.742186708209832 78 48 34
-0.5710328265573317 -1.213718059655827 -14.719765857819716 130 65 46
-0.5803556205216984 -1.2267736247201384 -14.747878859224809 119 54 37
-0.5930405038442119 -1.2442628976388006 -14.770130355211421 113 55 40
-0.5576660188435918 -1.1983876696914244 -14.876933296375045 108 55 38
-0.5897487689198586 -1.2414549065411329 -14.865209036793946 108 54 38
-0.5856891726902052 -1.2368727238146668 -14.917241113744346 116 63 47
-0.5808677695124391 -1.2312892996805456 -14.970798364037236 104 54 38
-0.5735739783783695 -1.2224501041029443 -15.02893731287605 119 65 48
-0.5774195245617229 -1.2282964322287437 -15.067404039250487 114 60 44
-0.5740783181929685 -1.2246726780988038 -15.118828368586591 106 57 42
-0.5707246811239028 -1.221035442133819 -15.170444021805778 109 57 42
-0.5251135897980053 -1.1617158220793824 -15.298298283262419 110 64 48
-0.4982017516295558 -1.1270461553840043 -15.393002898532874 81 43 31
-0.5610497391353375 -1.2106498239954826 -15.325614569658384 111 61 47
-0.5549412046917421 -1.2033947272968746 -15.382914412428049 115 57 45
-0.5153474577302735 -1.1520294764304246 -15.501390026913715 113 55 43
-0.4967641716644984 -1.1283511379624045 -15.582050567377252 116 58 42
-0.4894018312161279 -1.1194590695103237 -15.64249602111894 115 60 42
-0.5016407454613541 -1.1363882545738413 -15.667158475267101 83 42 30
-0.4955507644478372 -1.1291776738653443 -15.725594425430323 97 53 39
-0.4972700774400929 -1.1322551161931598 -15.769811014517447 89 36 23
-0.5541665275011631 -1.2079953949841 -15.711931230387638 108 36 24
-0.5731695932948977 -1.2338308110239504 -15.723990987376494 115 40 27
-0.5800084376623333 -1.2452818312352019 -15.853828144630334 34 34 34
-0.5205741545949021 -1.1678626402645582 -16.013333156678485 33 33 33
-0.4855404685489697 -1.1225757164692016 -16.12763591098497 32 32 32
-1.6942990141227359 -2.7621007562538997 -16.67153966631801 205 205 205
1.3742135292160453 1.4955519882280557 -12.898848011890511 208 206 206
1.3169217080950952 1.418621274777121 -12.86639194005242 162 144 141
1.2743822184700693 1.3613447016007223 -12.852335187373846 114 71 62
1.2474861934814774 1.3249066210758258 -12.857975701396628 115 59 47
1.2995212441335795 1.393591939074522 -12.964286264088617 114 54 43
1.305594954632244 1.4010601867023924 -13.012236921845325 114 52 42
1.272746492418812 1.356693403070623 -13.01035173837986 116 51 39
1.1795536812761411 1.2319716412934678 -12.930601510928582 115 52 37
1.1369394620591495 1.1746089127511334 -12.91558363936934 116 51 37
1.0945588353983782 1.11756062529384 -12.900647853825333 117 51 37
1.0526607437000193 1.061158210058509 -12.886119416053589 116 51 37
0.9534686798492089 0.9278661043396559 -12.836290596993246 116 50 37
0.9031888918529836 0.8603161885015442 -12.810064533751643 117 51 38
0.8580472203096212 0.7996106863973687 -12.790309130318853 113 53 43
0.8323464756642434 0.7647882347501636 -12.795939045269517 126 79 68
0.7634636006061233 0.6724868984346504 -12.744375657066719 128 76 65
0.7390171095135583 0.6393394892018547 -12.751308731854841 116 54 42
0.7144023877825898 0.6059695251274224 -12.757930051966987 112 48 33
0.6873162203229115 0.5693116107051326 -12.761165206145463 115 49 34
0.6891812524838103 0.5711858270962926 -12.803019900956105 118 52 36
0.6869802765837876 0.5676471445616063 -12.839535631657174 117 50 34
0.660530538247301 0.5318379918899794 -12.843508602395493 116 48 35
0.6155643794801522 0.47139076271239677 -12.822389581461447 115 47 37
0.5699141762514053 0.410037195693568 -12.800093908504126 125 60 49
0.53477353000646 0.3626713337035268 -12.791805825916573 122 55 41
0.5041194631638888 0.32127762555242345 -12.789449954702906 118 48 32
0.4801196388436755 0.28873922769044125 -12.796038265047322 118 51 34
0.45837434540182986 0.2592015946054289 -12.805625378232335 117 48 31
0.4747202668583608 0.28033885894695576 -12.867448078032384 117 49 32
0.44392416533684553 0.23876107464863416 -12.864581429219719 117 49 32
0.39923499294945053 0.17748469910166875 -12.921384643901085 120 48 34
0.37941509204892077 0.1505113818162025 -12.933427110204711 120 48 33
0.34636864877954743 0.10594821496209228 -12.9269322962477 120 48 33
0.30955142767264165 0.056372842500458376 -12.914989818771392 119 47 32
0.27016231243058764 0.0033802964861484597 -12.899237962312537 120 48 33
0.23111723594315592 -0.049151413060156024 -12.883754447184248 120 48 34
0.19203442079204214 -0.10172998908858233 -12.868002966838558 120 48 34
0.14917546086662403 -0.1593261493319229 -12.846682423648659 119 47 33
0.12223025166669998 -0.19575991865103326 -12.847739850442782 119 47 33
0.09121645988711835 -0.23760110956018998 -12.842878388764328 120 48 33
0.05157220704347143 -0.29091372643188596 -12.825523614328525 121 49 34
0.0271224982419227 -0.32402347081918226 -12.829736463621414 120 48 33
-0.007691363111311578 -0.37090899183801174 -12.818944050279839 120 48 32
0.025058501518596454 -0.3279820439768999 -12.905425109379522 121 50 31
-0.059368521459706614 -0.44081167466927695 -12.822771196353179 121 50 33
-0.0808972916645776 -0.47003214837446183 -12.830770714808533 121 49 34
-0.10851821054979016 -0.5073483084056809 -12.829830354607225 120 47 32
-0.1377989930197332 -0.5468684603540739 -12.826340644803683 117 44 29
-0.14735647669624274 -0.5601754656377889 -12.851573254493848 118 45 30
-0.10035679437934908 -0.49832581821946587 -12.959838231317326 118 46 31
-0.12508806213650736 -0.5318002566893298 -12.963025296761936 119 47 32
-0.14744100555089412 -0.5621129258692221 -12.96961951192154 119 48 33
-0.17581656999469475 -0.6004263847613238 -12.967213799840204 120 48 33
-0.21533171560313802 -0.6535378554104909 -12.948133341894572 120 49 35
-0.24479342655305825 -0.6932893660491315 -12.943790745240674 116 46 32
-0.2738935682962045 -0.7325582834702873 -12.939841857831265 116 45 32
-0.2972011060913169 -0.7641300508492987 -12.944424339901873 115 43 30
-0.3418616116177682 -0.8240643509241794 -12.916841868607795 114 41 26
-0.36166059758486124 -0.8509714601807428 -12.926427818382342 111 38 24
-0.3710611764059353 -0.8640663499937595 -12.951657008827805 112 38 24
-0.4540566133010495 -0.9749057634797005 -12.865417701805946 111 36 22
-0.41620296671394463 -0.9252395361882382 -12.962171960976807 112 36 21
-0.43590450002181225 -0.9520135324845711 -12.971667128810225 122 45 26
-0.4436155831890414 -0.9628639883819545 -12.999420212519592 128 53 26
-0.45573779406001913 -0.9795724603407852 -13.020453639325456 100 35 16
-0.48623280121387147 -1.0206763333913518 -13.013250863962316 77 26 19
-0.49554916166489305 -1.0336581879229874 -13.038531134677672 86 32 23
-0.500948374858528 -1.0414398039968615 -13.06989298451985 100 34 17
-0.5089221633689802 -1.0526403564041367 -13.097324967017181 107 40 20
-0.5040770861632131 -1.0468241555761617 -13.144725534332697 114 51 30
-0.5277397778958823 -1.0788531000594936 -13.147830091179987 118 56 38
-0.5150581917811139 -1.0626376109918931 -13.207664553512089 106 52 37
-0.5348845548606675 -1.0895739134548164 -13.216744967600942 101 53 38
-0.5388608286236871 -1.0954722050371188 -13.250685675174893 103 57 43
-0.5428444998169284 -1.1013814844290808 -13.284690475728203 99 52 38
-0.5468348024803937 -1.1073007384518005 -13.318760796531683 99 50 37
-0.5347967048585529 -1.0919509129156069 -13.378334024786557 98 48 36
-0.5340571796809588 -1.0915973421401723 -13.420155161158778 98 48 36
-0.5593631891839417 -1.1258053032887565 -13.420541188145227 94 45 33
-0.5649271509846945 -1.1338172269991533 -13.452397948433331 92 43 32
-0.5553751182507312 -1.1217749448460799 -13.508574308605432 94 46 34
-0.5600745957864697 -1.1286430038490591 -13.542018479545362 95 46 35
-0.563502341623253 -1.1338250804452272 -13.577586944574609 94 46 34
-0.5691891886871856 -1.1420052358154695 -13.609582761771783 93 46 34
-0.5748836462411866 -1.1501964626390961 -13.641629443371796 94 46 34
-0.5694200094953854 -1.1435886442648844 -13.69190398483369 94 45 32
-0.5721987600468599 -1.147915477203453 -13.728890212552379 95 45 31
-0.5788664443657581 -1.1574014165649062 -13.759600592268686 95 44 30
-0.5860335436829986 -1.1675505213379722 -13.789546173791743 96 45 31
-0.5913591795001927 -1.1752584399009907 -13.82257491407577 94 45 31
-0.5928130933704843 -1.177833396580641 -13.862066109434142 94 43 33
-0.6001839524643575 -1.1882555943785729 -13.891863048120278 92 41 27
-0.6087563991798732 -1.2002717223011379 -13.919713745184527 87 36 19
-0.5980692089809629 -1.186753840862047 -13.979684723424073 78 18 10
-0.6044945661004464 -1.1959261080116983 -14.011291311467314 83 14 7
-0.5933424999671266 -1.1817975931841573 -14.072405931454455 93 23 6
-0.5908690717590339 -1.1791769028449979 -14.119168100192503 103 38 20
-0.5949878973653271 -1.1852965821395962 -14.154968555279964 106 53 35
-0.5981657189838239 -1.1901703025110129 -14.192442209229947 105 54 41
-0.5911528953288383 -1.1815391600367118 -14.247278685116001 98 50 38
-0.6061589919011134 -1.2020923659369718 -14.264884240392051 103 50 35
-0.6034467871405833 -1.1991647413357418 -14.312668168044762 109 49 30
-0.5986933580402947 -1.19353455802794 -14.364092822287002 121 52 26
-0.591631111797744 -1.1848477149172956 -14.419647708694715 133 62 35
-0.5608548980952031 -1.1447432871243937 -14.516168212009664 82 42 29
-0.5873082081592909 -1.1825086148543722 -14.646483452899062 50 36 36
-0.5676220405996308 -1.1571160818500603 -14.725088118963622 66 43 32
-0.5741512668669229 -1.1664514546458316 -14.758165913727584 124 66 46
-0.6098806970462847 -1.2144618547425425 -14.740086596399061 116 54 37
-0.6271156501511781 -1.2379752531856347 -14.75431313250734 110 53 39
-0.5906669179754496 -1.1903953412450052 -14.863208724172118 107 53 37
-0.6127519411632614 -1.2203341094253428 -14.869039129063324 102 53 38
-0.6027468933604054 -1.2077800068413653 -14.931718983954559 110 58 40
-0.6118022915134071 -1.2204665464261222 -14.960714723332849 115 60 42
-0.6062413706444878 -1.2138021094659681 -15.015836451688845 118 61 47
-0.6079932679371947 -1.2168220126625995 -15.058060647425181 113 57 45
-0.5935084389717735 -1.1983493171589705 -15.12954568521759 104 56 44
-0.5961001054271864 -1.202485754142094 -15.170575637811284 108 58 44
-0.6013114413077583 -1.2100914110154122 -15.206985348836357 109 62 47
-0.582120546942777 -1.1854001980817284 -15.28765802032023 86 45 34
-0.5879192668751756 -1.1937877680422133 -15.323293498135765 118 63 49
-0.580394496000074 -1.184544064266043 -15.38326784862471 111 55 45
-0.5805190932503894 -1.1854263649238392 -15.429490319618305 109 56 43
-0.5396228068422335 -1.1320299231982212 -15.550979214382853 110 57 41
-0.5294394241465916 -1.1192806465792984 -15.616627817026513 111 61 43
-0.5213163119369639 -1.1092611310848186 -15.67873027772676 82 40 28
-0.5074301107244255 -1.0916205478876169 -15.751707388561389 90 43 29
-0.5202391858807944 -1.1093002267266723 -15.775517430659361 95 41 27
-0.5088590846553176 -1.0949816072715013 -15.844278128729034 110 37 28
-0.5139962747348878 -1.1062400622358295 -16.12368074656215 33 33 33
-1.0332856107067991 -1.8182648976901312 -16.783202762202265 185 185 187
-1.641608295563381 -2.6398353011607423 -16.74435555667135 202 202 202
-1.678551683869483 -2.689274725974953 -16.71257050268907 202 202 202
-1.6772082833774675 -2.688297799414242 -16.766874946198115 204 204 204
1.3630258197595242 1.535409836164023 -12.877860234074172 210 211 213
1.3289198377984617 1.4892581107450136 -12.874765444111736 193 183 184
1.2676181427077822 1.4067473300671018 -12.83701752757071 123 88 83
1.2345594156188735 1.3620013395996295 -12.834847933140257 117 61 51
1.2098720808272443 1.3284491987062905 -12.843214531227934 116 55 46
1.2496542928221253 1.3810852180409876 -12.934005861496738 115 53 42
1.1505004736194242 1.2479843542475102 -12.846863460841751 115 53 42
1.078325876567614 1.150412361424161 -12.833492752762712 117 51 37
1.045325257653904 1.1057557303524748 -12.830546860859556 117 51 37
0.9974769588622991 1.0412556661660455 -12.80816941569865 117 51 37
0.864340727166153 0.8616877937223206 -12.753094031417444 117 51 37
0.854294521468967 0.8477202160510426 -12.779370390007191 117 51 37
0.8196232369161423 0.8008447735633544 -12.7732197365762 115 55 43
0.7940631408248429 0.7661467904466681 -12.778945251006313 133 81 71
0.7676144236234435 0.7302627162504223 -12.783396949014122 119 61 49
0.7413187968355612 0.6945846152921842 -12.787948977902342 115 49 34
0.7202592235602392 0.665903967985229 -12.799379701176765 123 57 41
0.7259390974149666 0.6729501204741899 -12.846503475700867 119 53 37
0.6509763612307551 0.572253882376641 -12.785626414329531 118 50 34
0.6263534291000941 0.5388167202741485 -12.79197139309749 118 49 34
0.644630171224192 0.5626911436583759 -12.8560929481668 117 48 33
0.5956803680726761 0.49675683930025105 -12.829514025687846 117 48 34
0.5518053256057383 0.43760532354319626 -12.809537326498592 117 49 33
0.5207287032988797 0.3955526869593351 -12.806731786833787 118 49 33
0.49966422561770063 0.3668752291233819 -12.81744622189532 118 49 33
0.4771205715555058 0.3362230043471257 -12.826071585324748 119 49 34
0.47145239682157225 0.3281105421005588 -12.857784592355717 120 48 34
0.4049646914869398 0.23877070051352245 -12.805828191526562 119 47 33
0.38650686533214973 0.21357967057960092 -12.819755547817174 119 47 33
0.35141541001466026 0.16617630312188503 -12.810605780613919 119 47 31
0.3440438648876283 0.15579170759834504 -12.839771550051513 121 48 31
0.3095150606822967 0.10914304645715767 -12.831158401053194 121 48 32
0.26997743865605495 0.055808731619152674 -12.81537334127677 121 48 32
0.24153530620990304 0.017292120987793425 -12.814914302686494 120 49 31
0.2177627118120351 -0.014988220384879014 -12.820887973308668 119 48 30
0.20185376821503942 -0.0367686400512639 -12.837851479338399 120 49 31
0.1859558494226885 -0.05853398421409217 -12.854804555627068 121 49 32
0.1534691759010114 -0.10244459685208618 -12.848222292390787 123 51 36
0.07356800127022245 -0.2096476262395397 -12.774087412946422 120 48 33
0.059297771209050776 -0.2292345883280289 -12.792949954428657 120 48 33
0.03692756799367114 -0.25963327368664224 -12.800219390373316 122 50 35
0.01510898071781508 -0.2892945774696516 -12.808198711828464 123 52 37
-0.003632680039068692 -0.3148480716504469 -12.820525503727222 120 49 34
-0.019599520064240927 -0.33669748167490177 -12.836802283319416 120 48 32
-0.0309432851674476 -0.35237663931320107 -12.859736575085808 121 49 32
-0.092362837346605 -0.4348831957220991 -12.810051658270684 121 50 32
-0.15854291499334883 -0.5237368714127566 -12.753031679133723 121 50 32
-0.17596497934090038 -0.5475213110363484 -12.7666878670498 121 49 34
-0.1729901719935163 -0.5440886282111563 -12.81014306553466 118 46 31
-0.17840255125582516 -0.551848681421883 -12.841422483892986 121 49 34
-0.21265964076543353 -0.5980951042671476 -12.830316393481844 118 46 31
-0.22617540871412523 -0.6166664454278488 -12.849633973369805 120 48 33
-0.24117606082749266 -0.6372186655879366 -12.866744553697274 120 48 33
-0.23786805433534042 -0.6333457941944483 -12.911008896972417 120 48 33
-0.27050393698987163 -0.6774238443206233 -12.901901886540927 119 46 32
-0.25040479859704323 -0.6511542228975635 -12.971349793749608 118 44 31
-0.2907667027837286 -0.7055361962648696 -12.950554367161887 116 42 29
-0.32318267086069685 -0.7493164055801769 -12.941448693905203 116 42 29
-0.35140868770909117 -0.7875058413935072 -12.938479107470945 113 40 26
-0.3687358716065354 -0.8111576039703765 -12.951831649471583 109 39 26
-0.3809887539351058 -0.8280414768645459 -12.972826523092344 111 38 26
-0.41008930529855725 -0.867393091568899 -12.968231038184461 113 36 24
-0.4183200862494232 -0.878912421605917 -12.995281101963403 120 43 24
-0.4401295355617245 -0.9085388623103228 -13.001622257299857 123 45 19
-0.45759445660184106 -0.9323711645192638 -13.01453653472512 124 49 23
-0.4768978956479306 -0.9586542113899776 -13.024580349451657 85 25 10
-0.5034822796769052 -0.9946439332029957 -13.023342060978862 79 30 17
-0.5302315322653874 -1.0308517186062662 -13.02172206415329 101 37 22
-0.5277771931555626 -1.0281247962727056 -13.065237151847441 115 40 18
-0.5505524897503138 -1.0590331696548363 -13.069666606345985 109 39 16
-0.547696225023147 -1.0557725391300083 -13.113959196155538 111 50 29
-0.5668086312084388 -1.081797382284737 -13.124042143227719 114 58 40
-0.5620775881330959 -1.076040228475434 -13.171448047810456 101 52 38
-0.5664908164688649 -1.0824731047150964 -13.204629201003161 93 47 37
-0.5672899606420283 -1.0840901681531134 -13.243581336201835 91 45 37
-0.5729428881417009 -1.0921774173632421 -13.274962015487972 92 46 36
-0.5744342732995267 -1.0947195836826538 -13.31300424060856 96 49 39
-0.57862152504797 -1.1008556179338838 -13.34685765056824 94 46 37
-0.584796776936662 -1.1096417605225248 -13.377614787571517 94 44 36
-0.5797754120448708 -1.1035095183099726 -13.426341675984535 90 42 33
-0.5840679332826397 -1.1097893748726078 -13.46028556988135 94 46 36
-0.5858158569296799 -1.112679982374563 -13.498399003694576 90 41 29
-0.5841669116704873 -1.1110463664791803 -13.542093006017193 97 47 34
-0.5875695612686878 -1.116144369171571 -13.577742796814013 100 49 35
-0.5920331848620104 -1.1226569110863762 -13.61175509715396 102 51 36
-0.5992559202732188 -1.1328458629198943 -13.641351334630482 101 51 33
-0.601995346592608 -1.1370636158064924 -13.678315404968462 100 50 32
-0.6049535692363635 -1.1415740558739431 -13.715013028660117 103 48 31
-0.6069207097994802 -1.1447657150370247 -13.753427880975316 104 47 33
-0.605961364481082 -1.144061162692183 -13.796761112850568 101 49 34
-0.6097905197851463 -1.1497355247700511 -13.83231523122017 97 46 30
-0.6225114121922228 -1.1672521492832155 -13.85322735747144 94 44 31
-0.6316341943092838 -1.1799773870499557 -13.88011376138027 96 44 29
-0.612189371993261 -1.1546633555236863 -13.954614933224644 90 37 20
-0.6183272514490059 -1.1634169754775252 -13.986690375368816 71 15 5
-0.624770431653991 -1.1725779398720615 -14.018316729485512 76 14 7
-0.630891783863841 -1.1813112511212571 -14.050543434399652 92 22 9
-0.6292330895501141 -1.1796878214114113 -14.095941480639624 104 38 20
-0.6206981982271489 -1.1689124475499222 -14.153097169519373 108 52 35
-0.6160615467579658 -1.1633291282851355 -14.203853346124223 107 55 41
-0.6213330472259204 -1.170936907165018 -14.23794019689213 95 49 35
-0.6281659568718889 -1.1806239794374598 -14.269438781107603 99 48 35
-0.6282951700547623 -1.1813894353282999 -14.312453697731335 105 50 29
-0.6265685819828533 -1.1796867075898403 -14.358774001548898 126 58 30
-0.630767286963136 -1.185871522107746 -14.395051014064396 125 62 35
-0.6368777773700804 -1.19460164141171 -14.42811694199489 59 36 28
-0.6430124814063651 -1.2033648927748226 -14.461207374593805 45 34 36
-0.6158591674254779 -1.1684398220865662 -14.59614497842406 47 37 35
-0.6632001736976862 -1.234464061913112 -14.734862036318972 107 53 38
-0.6137947637884302 -1.1693599217505355 -14.86687563538916 106 52 36
-0.6261481190660287 -1.18640827591822 -14.88993931863011 102 52 37
-0.6299675135281793 -1.1921065156673727 -14.928196091009173 108 54 38
-0.648883108486118 -1.2178830002415042 -14.93960557051442 118 64 46
-0.6478559059085947 -1.2171374551257417 -14.98664805882844 115 59 40
-0.6245427700516375 -1.1867582301035124 -15.0738378758658 114 56 42
-0.6222504922182823 -1.1843360571027368 -15.123563454198703 102 53 41
-0.6394184051489864 -1.207791323789829 -15.138316618045017 106 55 41
-0.6402595509044819 -1.2095382866750102 -15.182587737422299 105 58 45
-0.6312329939757686 -1.1981678265378921 -15.244904305569158 92 50 38
-0.6107435284008238 -1.171561356732517 -15.328326825327999 119 63 48
-0.6087352126940999 -1.1695278981244268 -15.378351621912586 110 57 44
-0.6065864900429183 -1.167309998595659 -15.42879390391155 104 55 41
-0.6178655467431424 -1.182942779124975 -15.454734488775909 107 55 38
-0.609640762003516 -1.1726524043118314 -15.516624150336789 110 61 44
-0.5795584788065717 -1.133314965284046 -15.619122306036477 85 41 29
-0.573506861115523 -1.1259206126995318 -15.677560036862406 88 42 30
-0.5569098362778266 -1.1045150455615902 -15.755799854104733 92 40 26
-0.5491397226171406 -1.0948435543493593 -15.81791265327007 106 34 24
-0.5591562923757492 -1.1088097539026016 -15.84701286633278 113 37 26
-0.5718117909701901 -1.1262828192928547 -15.871204211644722 95 43 35
-0.5615748842499073 -1.1133404708990886 -15.938434422835824 54 38 35
-0.4734513358486563 -1.0071957640744795 -16.90099212654944 112 113 116
-1.6382252947381661 -2.5835387751807346 -16.80896725212946 201 201 201
-1.6643648073304202 -2.61884164881144 -16.80158754042271 201 201 201
-1.6897456924131995 -2.6531382121561933 -16.79575217272091 204 204 204
1.3618895226856358 1.5887759399973982 -12.869540452862157 213 212 215
1.3278438206201728 1.5426001062913048 -12.866578499852022 204 203 203
1.2956357970482286 1.4988924743260919 -12.865794422597027 149 127 126
1.2877173370146866 1.4877847912807924 -12.89576028278292 116 66 61
1.2531649702335037 1.4409332486097188 -12.89179824878213 116 58 47
1.1580297995249986 1.3127827185252423 -12.810181718105019 115 55 44
1.135492943392482 1.2820617246932748 -12.821091585334022 115 54 42
1.069797504289634 1.1934275243706765 -12.776399727832676 116 52 40
0.8385646454330562 0.8793775416348106 -12.79221006852859 118 52 37
0.8112680884162304 0.8422842688075534 -12.795769896960792 119 54 40
0.780721118270951 0.8008321035969219 -12.794913958811483 119 58 45
0.7519320455264 0.7617395710607404 -12.796259180192727 118 54 39
0.7232317849621444 0.7227676255404925 -12.797601133338382 119 53 37
0.6946183549351188 0.6839136022720869 -12.798937736542438 124 58 42
0.7056360693491386 0.6982160450004207 -12.853279145627345 119 51 36
0.6300600004757939 0.5963769519600133 -12.791390200751728 119 50 35
0.5871918000455558 0.5384098809864488 -12.773112498109352 118 49 34
0.6088439273072357 0.566973970231536 -12.84185022209191 118 49 34
0.5489956006061707 0.4862382166739012 -12.80032727730298 118 49 34
0.5330755905117637 0.4644150953137043 -12.818185015477756 118 49 34
0.5171659068430321 0.44260610156984903 -12.836033488822537 119 50 34
0.5012638760203765 0.42080765002608445 -12.85386907132111 119 50 34
0.49737085161785277 0.4151119217416035 -12.888159220382155 119 50 34
0.43691595865013344 0.3335762732023779 -12.844685308497072 121 49 34
0.32631258789227013 0.18480773522258698 -12.731618616249392 120 48 33
0.3112093160035583 0.1640874654540312 -12.74995413173415 121 49 34
0.28763946134283147 0.13201651717905794 -12.75651772595292 122 50 34
0.2614256935006516 0.09640212563140071 -12.759313197636299 123 50 33
0.23043758974710649 0.05438869158350812 -12.755333380759492 122 49 32
0.21579188825455242 0.03428443734749376 -12.774090472389657 122 49 32
0.19910803024817092 0.011448270139680083 -12.789969513627106 121 50 32
0.14887960221553254 -0.056351564202260285 -12.758568448796744 120 49 31
0.1568898018411229 -0.04608593144713247 -12.809128230663916 121 50 32
0.1378312092445011 -0.07210341889572458 -12.821509259385035 122 50 34
0.10630262034130489 -0.11483355670015882 -12.816120237294236 123 51 35
0.030415061034560598 -0.2170130431474293 -12.747366239427205 122 50 35
0.009993552117818716 -0.24485174817381328 -12.757355004865726 124 51 36
-0.030484327531343336 -0.2995678230877772 -12.738533072374487 123 54 38
-0.03459226921428726 -0.3055424695591329 -12.771757151552228 122 53 37
-0.055672519636402296 -0.33426136821055774 -12.78058468602853 120 51 35
-0.07172703741195363 -0.35624502796475443 -12.79660680487138 120 52 35
-0.1063841304525539 -0.4031544774051232 -12.785626542443728 120 52 33
-0.14709472227526854 -0.4581726503050243 -12.765657411112528 120 52 33
-0.18639228713121625 -0.5112947532285785 -12.747511072121156 120 52 33
-0.2000748699353494 -0.5300957450446342 -12.766602344328897 122 50 35
-0.20686787439089738 -0.5396664546509031 -12.79578888500431 121 49 34
-0.2243572581409108 -0.5635674214246933 -12.809287920797434 121 49 34
-0.2554687969647622 -0.6057164477131449 -12.802646299928423 119 47 32
-0.284898333166105 -0.6456103903968575 -12.798333679644713 120 48 33
-0.3020957581848034 -0.6691173979132952 -12.812026515611088 120 48 33
-0.3043201724144855 -0.6725680018530316 -12.847960955011612 119 47 32
-0.3733139597438133 -0.7654518071505221 -12.784328018365695 119 46 31
-0.3846102702159415 -0.7810516491092585 -12.806569977252874 119 45 31
-0.4037616490582945 -0.8071720063066579 -12.817028849856161 120 46 32
-0.44116518285782425 -0.8577360812287367 -12.799949272131666 115 42 27
-0.37910482921112854 -0.7750944510430742 -12.93282915690152 115 43 29
-0.403840244791966 -0.8086938670625008 -12.934928332706878 115 43 29
-0.41686177652469647 -0.8266058565328622 -12.954708142585993 116 41 27
-0.41205250302055907 -0.8206413863601112 -13.001638659209755 114 34 20
-0.42931580894147814 -0.8442339114553041 -13.015006183528367 126 43 22
-0.4359269602035494 -0.8535632487601506 -13.044647867409155 129 49 21
-0.4657473882915344 -0.8939679526793167 -13.038684898725517 131 56 28
-0.5056444278479297 -0.9478617712939714 -13.017041875773756 81 21 6
-0.5443336071916751 -1.0001355775292682 -12.99701985015589 96 38 22
-0.5784210775345722 -1.0462460947595833 -12.983893174569454 118 45 24
-0.5483192453559966 -1.0064253559020866 -13.070327869373635 116 39 14
-0.5639526884892074 -1.027831597760538 -13.085860205834951 106 38 16
-0.5768650045916774 -1.0455950560188754 -13.105615928079388 106 49 32
-0.6038603740347352 -1.0822088609400158 -13.10328938121622 100 49 34
-0.5819774317360165 -1.0533992494110587 -13.177673130172902 95 47 36
-0.5940268338881358 -1.0700087043898288 -13.198866719027446 95 47 37
-0.5929969546958733 -1.0691134809198424 -13.240744160310829 96 48 38
-0.5932324026704849 -1.069913107505795 -13.280736995347517 94 47 35
-0.5934139931374562 -1.0706419903896194 -13.320926353457175 95 49 36
-0.5896716165868225 -1.0661212055777982 -13.367486131133386 96 48 36
-0.5963929149370095 -1.075604000251329 -13.397456974125236 102 53 42
-0.6038462161917977 -1.0860669016637594 -13.426305986260058 102 53 40
-0.6036075195311073 -1.0862382846290668 -13.46757588795142 102 52 38
-0.6059697535044983 -1.0898910377593074 -13.504766798866257 106 54 38
-0.6163244149770111 -1.1042380752648056 -13.529118822554084 108 56 40
-0.6192606900734359 -1.1086606204765062 -13.565528828652052 109 58 41
-0.6220414063835116 -1.1128761287567306 -13.602281098674922 108 57 39
-0.6290026125139678 -1.122685148044745 -13.632301065120314 113 62 42
-0.6332976209329271 -1.1289282552732045 -13.666737207322285 111 65 42
-0.6237499246138807 -1.1166558818788657 -13.723974815993504 112 64 42
-0.6273252496606143 -1.121939008294821 -13.75981639553164 103 53 29
-0.6337589694516303 -1.1310463029444575 -13.791023577131 107 57 28
-0.6360605166948874 -1.1346276870480345 -13.82913116539313 112 57 34
-0.649247486580411 -1.152768422022973 -13.849260103710154 104 48 31
-0.6585343837111317 -1.1656933481956688 -13.875878295778636 98 43 29
-0.6644573608210194 -1.1741201294424117 -13.908146435324198 90 38 23
-0.6258615996297383 -1.1230159732943434 -14.015048943375731 74 21 11
-0.6314323767639274 -1.1309759256821188 -14.048252171008134 73 13 7
-0.6315944406014133 -1.131704646797008 -14.090636128885397 88 20 7
-0.6439353278204765 -1.1487185652970782 -14.11256459605028 103 36 19
-0.6528117869752412 -1.1611006001425395 -14.140366637111041 110 54 37
-0.6493511948831032 -1.1569892284530816 -14.189170594831342 109 57 43
-0.6434407318778663 -1.1496045793511822 -14.242307996065417 98 53 40
-0.6562598989090671 -1.1672602443770872 -14.26361672453879 100 51 38
-0.65038239073152 -1.1599229439128376 -14.316972227188703 106 51 32
-0.6490144950082293 -1.1586158519339333 -14.362759667539407 127 64 36
-0.6976305579800348 -1.2241210246041536 -14.322515696016142 101 58 39
-0.6629211522758829 -1.1782506991440451 -14.425981516711357 48 36 32
-0.6414568004527585 -1.1511459497161525 -14.595063995357581 46 38 36
-0.64858635706898 -1.1622706804038945 -14.715659528095447 110 64 49
-0.6766645280537871 -1.2003229525775652 -14.710729023242234 120 60 39
-0.6647376509116838 -1.1849227560162126 -14.776424298250507 103 49 35
-0.6410813626827951 -1.153854694808997 -14.86318574552373 104 50 36
-0.6502521210199039 -1.166647216550638 -14.891906254811378 102 50 36
-0.6489896228662495 -1.1655022943915077 -14.93928577058005 106 53 37
-0.6598248264880846 -1.1805198587164547 -14.965159932958159 119 63 46
-0.6618759870231945 -1.1838040715299423 -15.006823807390711 119 63 43
-0.6512737959436734 -1.1701882364682543 -15.071379406091092 116 59 45
-0.6496299435113864 -1.168540682474677 -15.120008019984109 101 53 40
-0.6560207554338056 -1.1776260801569105 -15.15424298642635 108 57 42
-0.642480039700978 -1.1600929980402563 -15.224739644924208 101 57 44
-0.6550787168301788 -1.178582330772147 -15.34043477922999 108 56 42
-0.6559530147178929 -1.180307544693413 -15.38529750682013 102 53 39
-0.6315112022725176 -1.1482317065451388 -15.476927769419266 105 55 38
-0.6527123152191701 -1.1771011940104161 -15.48463377741633 109 60 43
-0.5550852549125267 -1.047322910117697 -15.712424771651353 84 43 30
-0.5615182550101858 -1.0564821347838347 -15.748039656467926 89 42 31
-0.5639856055707471 -1.0603482584907153 -15.791119981418245 92 38 25
-0.5877239715749134 -1.092610486136385 -15.794563861244484 101 33 22
-0.625198013388296 -1.1432062452475504 -15.7721508455486 112 38 27
-0.6074819725752931 -1.1201327925335507 -15.853222936043592 96 44 35
-1.6573703696368196 -2.556823991873846 -16.823128704814422 202 202 202
-1.6679174869177533 -2.5714746268742674 -16.85101065588693 203 203 203
-1.685410788720826 -2.5953645648373245 -16.863147820441277 205 205 205
-1.7033276069748653 -2.619817069295528 -16.874261368079654 205 205 205
1.298569350942452 1.5580716583979664 -12.822744682290038 210 209 211
1.3359564081837307 1.6080295020798392 -12.910111706585564 186 175 174
1.3025630673596211 1.562629186867495 -12.907892212818822 115 81 76
1.11324696968035 1.3063649801044237 -12.786040429679051 115 53 40
1.0797812295516644 1.2608767202383637 -12.782795537029894 116 52 40
0.7672995199058348 0.8363492608716516 -12.731780627535228 118 52 37
0.7614729635731852 0.8280972636771526 -12.763551814440735 119 52 37
0.7315503702229709 0.7873970357540045 -12.763374060598267 121 53 38
0.7054727610271678 0.7518756402428934 -12.768187726138962 120 53 37
0.679228858196177 0.7161313669174518 -12.772678063004692 120 54 38
0.6548585215905005 0.6829108635498216 -12.779576043588804 124 57 41
0.6278090181656939 0.646083942449037 -12.78278500703405 120 52 37
0.6017765390821164 0.6106274687244104 -12.78725475723661 119 50 35
0.601805915699877 0.6102605690990455 -12.826851155574154 119 50 35
0.5597472943652719 0.5528220513041342 -12.849088637077408 119 50 35
0.5316376598552535 0.5145720019542361 -12.850457274437487 119 50 34
0.47831738364894294 0.4423848123548826 -12.817227298808596 119 50 34
0.444660504299931 0.39667084013603215 -12.810645833407204 119 50 34
0.41327392636746296 0.35360847757218394 -12.846550962112172 123 51 34
0.30449848444189165 0.20678648716148995 -12.735676942173825 121 50 32
0.28430147097280223 0.17919778782792584 -12.746948326677263 122 50 33
0.26387059167875515 0.151294933725036 -12.757834313342205 122 50 33
0.24075053542653002 0.11977334604522838 -12.764904725461832 122 49 32
0.20550031968506488 0.07192711281644648 -12.75491049713849 123 50 33
0.18173154481867604 0.039534708650625916 -12.760852002688633 123 50 33
0.16360793100553783 0.014740361387537426 -12.774651738418136 124 51 34
0.13550063158106562 -0.023488926457980952 -12.77430894456128 122 49 32
0.08978084464187175 -0.08541791247363584 -12.748896178668225 122 49 32
0.04594678131333518 -0.14480657572366784 -12.725889520102282 123 50 33
0.025071490258691487 -0.17329908086721257 -12.735329515449216 124 51 34
-0.016197652625541625 -0.22923214488361232 -12.715565696029175 123 50 33
-0.04552192068421412 -0.2690906588919084 -12.712678006554386 124 51 34
-0.0619284593947067 -0.2915671905473447 -12.72821270515716 126 54 39
-0.08595117084677817 -0.32429047074774964 -12.732739155688407 123 51 36
-0.042980974726271715 -0.2668809014011524 -12.833995064721158 121 50 34
-0.05535112372551998 -0.28392830345729525 -12.855500364431105 122 51 35
-0.1618598509120548 -0.42762107352309187 -12.74015602345899 121 52 33
-0.17747342159181745 -0.44902768822786054 -12.756538763256295 120 51 33
-0.21820779549435132 -0.5042270548064502 -12.73616369556595 121 52 33
-0.22167669371718013 -0.5092952876518524 -12.770195483655344 121 50 34
-0.23906462652121307 -0.5330872617205369 -12.7838329960753 123 51 36
-0.2574523957709034 -0.5582236703310244 -12.795953463984228 123 51 36
-0.2550461051532875 -0.5553905951648801 -12.838781960881857 120 48 33
-0.28638339368728394 -0.5979439921433771 -12.831678487362174 121 49 34
-0.3359513926755233 -0.6650152451525617 -12.79728836154893 122 50 35
-0.36085494284119735 -0.6989116659670627 -12.799380226700666 123 51 36
-0.3853815322848897 -0.7323000087727243 -12.801927645476383 122 49 33
-0.40981376184873275 -0.7655603677972724 -12.804510952989117 120 47 31
-0.4349391868687049 -0.7997518393427878 -12.805945562345922 121 48 32
-0.4385353612489835 -0.8049910364778512 -12.83976689596335 118 45 29
-0.4667286279718268 -0.843306467501268 -12.836427221973626 118 46 32
-0.46636591505033564 -0.843222826022962 -12.876303703409427 118 46 29
-0.47532423841032934 -0.8556733857081333 -12.902098572949974 123 45 27
-0.43917488306235697 -0.8074745386588686 -12.99680553431827 128 45 24
-0.4546202795470311 -0.8286496791514741 -13.012923935012648 130 46 21
-0.4640265122557796 -0.8417051069683854 -13.038290755792858 153 73 46
-0.4745862989416332 -0.8563116628885714 -13.061906966325154 135 62 38
-0.5197807312315592 -0.917480215016564 -13.032034615262521 85 21 5
-0.5516603839606589 -0.9607463528674458 -13.022497382506653 100 34 15
-0.5995453363183003 -1.025526285402763 -12.98791602706989 116 40 18
-0.593500497858181 -1.017808708861332 -13.037052429995917 108 35 10
-0.5928047549477511 -1.0172830116232054 -13.077994255961826 103 39 19
-0.6046725661209553 -1.0336457016102232 -13.099362369020463 99 48 36
-0.6237680377405841 -1.0597230858515427 -13.109373584110065 91 47 35
-0.62871960212461 -1.0667897547979903 -13.141619223280458 94 51 39
-0.6184535879031778 -1.0534046784708515 -13.197989867175586 99 56 42
-0.6171094255471683 -1.052012274899706 -13.24042100414972 106 63 49
-0.6211064010480776 -1.0577991480087707 -13.274484504707395 96 55 43
-0.6175364064170772 -1.0534178678189292 -13.320691774057693 93 53 41
-0.6202822303576769 -1.0575253674540983 -13.35694492868952 86 45 32
-0.6200342584681602 -1.0576108263017723 -13.398088975275012 75 33 24
-0.6158963997306026 -1.0524705836659312 -13.445607348991995 67 26 17
-0.6107696154902458 -1.046003133464624 -13.494874921658694 66 23 13
-0.6279005304587897 -1.0694432762562833 -13.508295981568057 63 18 8
-0.6323252419691427 -1.0758112593450972 -13.542289825088341 64 18 8
-0.6365242764268029 -1.0818768130074181 -13.576726156336083 64 18 10
-0.6407320526252342 -1.0879549093654415 -13.611225920958944 66 20 11
-0.646186304483483 -1.0957083569109178 -13.643763578819032 72 26 14
-0.6527597701576044 -1.1049660164385111 -13.674530666366937 77 34 17
-0.6482736052197628 -1.0993675122814555 -13.723559499856293 77 38 20
-0.6537696687869201 -1.1071796142473254 -13.756270416217493 82 43 24
-0.6570084544868817 -1.1119603557713038 -13.792785676952242 108 65 41
-0.6557943944765245 -1.110761021828199 -13.836783562361653 113 63 38
-0.65230609564605 -1.1065084364858215 -13.884700641243878 112 54 30
-0.6635463150835541 -1.1220390894337706 -13.908174942620455 102 44 24
-0.6610707074052398 -1.1191490359376344 -13.954634514381773 92 40 22
-0.6563838080875604 -1.113290748021786 -14.004954243925411 73 23 11
-0.6549989456225931 -1.111868609001899 -14.04987942337789 72 14 7
-0.6928274880106486 -1.1631069964077385 -14.028693006541854 83 17 5
-0.6695233337281477 -1.1322516964811005 -14.110838417099512 100 33 16
-0.669613760812044 -1.1328139114182587 -14.153583473434598 111 55 37
-0.6698828028418284 -1.133617228640678 -14.196147726589208 111 59 45
-0.6624178747961542 -1.1240375227087052 -14.252051931550167 100 55 43
-0.6709542572493294 -1.135943761200859 -14.280729655199664 100 53 42
-0.6587332919433688 -1.1199819714885821 -14.345129262046104 110 55 37
-0.6596819444724087 -1.1217033594056876 -14.387073961687555 123 68 42
-0.7075431712112188 -1.1864051756765202 -14.34803100684074 73 47 36
-0.6672369211568956 -1.1327447988749544 -14.461508004983912 41 37 38
-0.7235595881355277 -1.2097031401399887 -14.495154410350265 45 37 36
-0.6925762162343299 -1.1699389040676147 -14.726852865558488 121 63 43
-0.6986637493859278 -1.178567816405394 -14.760757622980348 105 50 36
-0.6642750134554509 -1.1328798987280218 -14.866759387889786 104 49 37
-0.7169534520034566 -1.2040330831916117 -14.817865532556274 104 49 37
-0.7048825069650504 -1.1882978069250374 -14.884449938673018 104 52 36
-0.694483424021429 -1.1748084981214681 -14.948292352332352 119 63 45
-0.6900271560210061 -1.1692954437468162 -15.001679527726434 122 65 43
-0.666797729455165 -1.1385964147215004 -15.089140957588612 117 60 45
-0.653000645701864 -1.123412883540694 -15.437932028727047 101 54 39
-0.6504335886684736 -1.1204509617765908 -15.489503471142251 104 55 37
-0.5952310269620851 -1.0468957350694659 -15.638773781946504 108 61 44
-0.6110986082000291 -1.0686638295263835 -15.656710093980001 84 44 30
-0.6151610367449889 -1.0745998137454444 -15.696620606911068 97 46 36
-0.6101091618462533 -1.0683141869707482 -15.753666981952252 93 39 26
-0.6406329562395534 -1.1097370264617004 -15.744227168481967 99 35 23
-0.6473823284450431 -1.1192781575745983 -15.779295469870496 108 39 26
-0.6584689649467874 -1.1346357514943488 -15.806258904351395 95 43 34
-1.670217984512845 -2.522137579896474 -16.903605736291937 204 204 204
-1.7011648181891825 -2.5640437763666553 -16.8852044945721 205 205 205
1.270775876444862 1.575037289331508 -12.820722953902596 206 204 204
1.310126110507062 1.627909201899044 -12.910737009855712 145 123 120
1.0856815058645002 1.3230377203969317 -12.78391425775096 116 51 39
0.7215993043699158 0.8274089536900897 -12.704893561703601 118 51 37
0.7043073182583521 0.8036962392864346 -12.721388312202606 119 51 38
0.6887920726630008 0.7823855832592983 -12.740216254415968 122 54 39
0.6672719119387991 0.7529579074428625 -12.751005843709763 120 55 39
0.6425833269833592 0.7192479642825598 -12.757485656355668 122 55 39
0.6185219062632403 0.6863865308176074 -12.764716809249231 120 52 36
0.5985453969497789 0.6590472302962675 -12.77736481319777 120 51 36
0.5023862132976533 0.5287382230065774 -12.687020197601562 120 51 36
0.5293655778809825 0.5648674349502469 -12.762889775781222 121 51 36
0.516711785974266 0.5474275808736326 -12.785209687688354 121 50 35
0.47769974564273143 0.4943639966282394 -12.771603363387 120 50 35
0.46337935484213677 0.47467260979283665 -12.791545069477031 120 50 34
0.3661873161757567 0.34298425447556813 -12.697852016374156 120 50 34
0.34615352013435974 0.31557469439836083 -12.709583194246997 121 50 35
0.3268142458901049 0.2891041936159091 -12.722214364662571 122 51 35
0.3168884789187292 0.2753550756938985 -12.74781324505545 123 51 35
0.30887642239157787 0.2641917828917917 -12.776090165332132 123 51 35
0.26295200026885057 0.20179793523384415 -12.751661369735707 122 51 34
0.2410005883587969 0.17179980151407293 -12.760413036097727 123 51 34
0.2202046177517789 0.1433635497611645 -12.770706950447728 124 52 34
0.18687664464736597 0.0979949205614874 -12.763347438234586 124 52 35
0.13026556459532346 0.02116897582586219 -12.723047794362344 125 52 35
0.10847674926715367 -0.008605334083110705 -12.731544490065746 127 52 37
0.0857908181453384 -0.03959107021857555 -12.738696114464226 125 51 35
0.03763054428878476 -0.10499283517953373 -12.709594550052064 124 50 34
0.005889381136115368 -0.148209873463097 -12.70358029640131 125 51 34
-0.02407144197374178 -0.18902037956461637 -12.699949917313292 125 51 34
-0.05673595292520117 -0.23348214090013997 -12.692302409020954 125 51 34
-0.08668864536986476 -0.27427909216459145 -12.688382710428446 125 51 34
-0.11316977054139965 -0.3103852057780472 -12.689318716687017 128 52 37
-0.08705428006398996 -0.2754416634959478 -12.766132734012835 127 51 36
-0.1023239287494655 -0.29640335575804677 -12.78330126873523 125 49 34
-0.11652956228481637 -0.315927633132258 -12.801993113923452 126 51 36
-0.1925799851808776 -0.4189863991047238 -12.730531205800748 124 50 34
-0.20458736640009478 -0.4355390659984719 -12.752145981969392 124 50 34
-0.2204565189207024 -0.4573076326683836 -12.768103148155294 123 50 34
-0.24193973499159682 -0.48665833203681785 -12.775777026680807 123 50 34
-0.26279459088880985 -0.5151597282943978 -12.784300212134735 121 49 33
-0.28297997397169405 -0.5427563638128596 -12.793741264175404 122 49 33
-0.3043582344828075 -0.5719634046488231 -12.801346437938918 122 49 33
-0.3159950964106133 -0.5880144329818116 -12.823363926167602 122 49 33
-0.36723715612032937 -0.6575492244914347 -12.786307305660241 125 53 37
-0.3691234227826721 -0.660431848395632 -12.822754043320113 126 54 38
-0.3918693206795014 -0.6914829954653303 -12.827993544245217 126 53 36
-0.4466711870390725 -0.7658188686035654 -12.784905778721123 123 50 33
-0.44901357414010734 -0.7693169655707877 -12.820615706930683 119 46 29
-0.46380345485843 -0.7896228533262235 -12.837573280786362 118 45 29
-0.5031313913613635 -0.8430597862917315 -12.81726259246597 119 47 32
-0.5162509768429593 -0.8611092109582312 -12.836611061187881 122 49 31
-0.5005275569437528 -0.8402169775415507 -12.899987190576535 126 46 27
-0.45563234353674176 -0.7799424659901373 -13.008277422497326 127 43 18
-0.4501877786904491 -0.7729325163669802 -13.05649551607035 140 59 32
-0.4646485184645508 -0.7927962593335982 -13.0742173387548 160 84 61
-0.48962461839229343 -0.8268552735822174 -13.075679789228841 123 53 34
-0.5642383714031034 -0.9282608989321854 -13.039955563188592 97 27 9
-0.6386247372912743 -1.0290127964137543 -12.963988249878465 102 28 9
-0.6194373764893002 -1.0034524878865465 -13.03366779541918 102 34 10
-0.6189933631324966 -1.0031939753109143 -13.074260743656982 103 43 26
-0.6301189260300859 -1.0185523650282198 -13.096786985984439 92 45 35
-0.6310789181452989 -1.020190365898916 -13.135345741059718 93 53 45
-0.6408348263088786 -1.033700762418138 -13.160104552785292 84 47 37
-0.5970017489550803 -0.9748864448762307 -13.26983802027738 77 41 30
-0.60726630486249 -0.9890858046414523 -13.294080909747422 55 22 11
-0.6141463903063982 -0.9987178388397435 -13.323739650092097 51 19 11
-0.6160054411753562 -1.001574397391364 -13.36147813013979 61 28 20
-0.6198919696508991 -1.0071677999645106 -13.396062763607997 101 70 59
-0.6332891965345939 -1.025595858645441 -13.415430341523493 86 57 45
-0.6286623487023739 -1.019702408882333 -13.463861193905952 89 61 50
-0.623926590382764 -1.0136633610061763 -13.512627413142447 93 66 54
-0.6165371051242214 -1.0040449978196415 -13.565859714488301 93 62 50
-0.6454340196331496 -1.0433882285492233 -13.560239973050436 76 42 31
-0.6496513798031329 -1.0494318525536555 -13.594736051999945 93 55 40
-0.6538759528866032 -1.055485874377947 -13.629298324632085 103 64 43
-0.6617910334484183 -1.0665195940169854 -13.657882075390226 95 54 33
-0.6687877295623292 -1.0763146892420545 -13.688020971102318 90 48 30
-0.6765228775979706 -1.0871064514350914 -13.716993395972388 75 36 26
-0.6841697539503846 -1.0977795231134637 -13.746157607947456 42 8 3
-0.6802646673562323 -1.0928696042502821 -13.79454771171319 61 25 15
-0.679082680156069 -1.0916343340971002 -13.838561565948138 111 67 46
-0.6830797714236287 -1.097386251956749 -13.874059327255756 111 56 27
-0.6838379678692723 -1.098770066689644 -13.915064129448746 107 49 23
-0.6764200245956542 -1.0891267429905218 -13.96991574839722 94 41 21
-0.6861712313153099 -1.1026424120190486 -13.996042057551918 74 23 11
-0.680755134006295 -1.0957016621123161 -14.047818253402495 69 12 4
-0.7073749636797584 -1.1319690259096413 -14.045496665893975 82 17 4
-0.693785449818368 -1.1140068739729996 -14.111356654232058 100 34 15
-0.697153000439843 -1.118915364373943 -14.148579947093019 107 49 31
-0.687417127751142 -1.106153803844788 -14.20828764009815 110 59 44
-0.6905573154665583 -1.1107578150097472 -14.246149380584605 101 56 44
-0.692347046932241 -1.1135415725242606 -14.286427352248179 100 54 44
-0.6767920133109926 -1.0929378984195157 -14.356712899977467 116 60 41
-0.6733627987649973 -1.0886870500868193 -14.406318022706902 120 70 47
-0.7259091290347159 -1.159912432960212 -14.359036396241379 55 37 30
-0.6912095433975338 -1.1134997780196292 -14.463058756243516 40 38 38
-0.6593575487018577 -1.0709305186593463 -14.562593005564377 42 38 36
-0.7145861995040033 -1.1457694124655209 -14.51028546783804 41 38 40
-0.7429770102942443 -1.1844223602339472 -14.504621175381175 44 38 38
-0.6856730374043707 -1.1086903069588345 -14.783551781309711 126 66 47
-0.6930042789983166 -1.118956412574546 -14.815443167968297 102 50 34
-0.7142057292178436 -1.1479189415026747 -14.822639723456561 103 48 36
-0.7488523538540082 -1.1950031661794958 -14.805687422997263 105 51 38
-0.7161741636535353 -1.1513429825588197 -14.909355973135291 103 52 36
-0.6715619483606994 -1.0916023276436038 -15.034981890396324 115 59 41
-0.6816965441455998 -1.1056513981920322 -15.062370099993027 121 63 42
-0.6914317639002632 -1.1191624947075294 -15.090512338602263 117 60 45
-0.6699995729826869 -1.0930519830108372 -15.454014019069186 100 53 40
-0.5950262795734451 -0.9924388449078823 -15.639888024066732 104 53 37
-0.6552232296021598 -1.07394726057018 -15.575512650468593 107 59 43
-0.6525389384645308 -1.0707350250902783 -15.627829042975753 84 45 32
