ply
format ascii 1.0
element vertex 826
property float x
property float y
property float z
property float nx
property float ny
property float nz
property uchar diffuse_red
property uchar diffuse_green
property uchar diffuse_blue
property uchar class
property uchar detection
end_header
0.3810 -0.4507 -13.6491 0.172 -0.283 0.943 75 35 27 0 0
0.5807 -1.3982 -13.8123 0.235 -0.537 0.810 184 122 87 0 0
0.6567 -1.8401 -14.4778 -0.072 -0.955 0.288 96 59 50 0 0
0.7174 -2.2736 -15.6126 0.507 -0.800 0.322 27 25 31 0 0
0.7209 -2.2931 -15.6355 0.419 -0.891 0.172 21 21 24 0 0
0.7255 -2.3166 -15.6527 0.127 -0.835 0.536 46 47 49 0 0
0.9374 -3.2598 -15.3608 -0.378 0.161 0.912 107 96 95 0 0
0.9449 -3.2941 -15.3601 -0.499 0.166 0.850 93 65 61 0 0
0.9811 -3.6047 -16.4222 0.082 -0.751 0.655 155 153 154 0 0
1.0596 -3.9984 -16.6445 0.163 0.110 0.980 177 177 177 0 0
1.1161 -4.2661 -16.6856 -0.344 -0.459 0.819 193 191 192 0 0
1.1269 -4.3247 -16.7510 -0.653 -0.351 0.671 198 198 198 0 0
1.1611 -4.4711 -16.6619 -0.089 0.127 0.988 201 201 201 0 0
-0.4223 3.2610 -12.6042 -0.673 -0.645 0.363 113 66 58 0 0
-0.3609 2.9901 -12.5159 0.009 0.106 0.994 106 51 38 0 0
0.0484 1.0939 -12.5738 0.319 -0.492 0.810 127 45 24 0 0
0.3211 -0.2409 -13.1262 0.795 -0.607 0.018 35 32 35 0 0
0.3204 -0.2429 -13.1645 0.795 -0.607 0.018 17 14 14 0 0
0.3188 -0.2462 -13.2423 0.815 -0.576 0.064 23 18 15 0 0
0.3552 -0.4689 -13.6358 0.044 0.015 0.999 22 6 3 0 0
0.5200 -1.2480 -13.7729 0.059 -0.564 0.824 163 94 81 0 0
0.6243 -1.8245 -14.4584 -0.069 -0.955 0.289 95 56 45 0 0
0.6258 -1.8354 -14.4901 -0.102 -0.954 0.281 95 56 47 0 0
0.6265 -1.8435 -14.5252 -0.121 -0.957 0.263 94 57 48 0 0
0.6950 -2.3171 -15.6597 0.233 -0.891 0.390 52 52 55 0 0
0.7397 -2.5133 -15.5883 -0.350 -0.559 0.751 80 80 81 0 0
0.7456 -2.5421 -15.5978 -0.100 -0.847 0.522 60 59 63 0 0
0.9154 -3.2934 -15.3691 -0.561 0.037 0.827 107 93 91 0 0
0.9279 -3.5426 -16.7471 0.133 0.179 0.975 162 160 163 0 0
1.0475 -4.0842 -16.6745 -0.536 -0.549 0.641 184 184 184 0 0
1.0514 -4.1048 -16.6948 -0.128 -0.460 0.878 185 185 185 0 0
1.1422 -4.5168 -16.6468 0.597 0.109 0.795 203 203 203 0 0
-0.3258 2.6800 -12.5151 -0.434 -0.484 0.759 115 51 35 0 0
-0.0042 1.2034 -12.5172 -0.208 -0.511 0.834 129 49 28 0 0
0.2996 -0.2746 -13.0983 0.739 -0.654 0.161 58 58 60 0 0
0.2961 -0.2757 -13.2184 0.815 -0.576 0.064 22 18 15 0 0
0.2842 -0.2332 -13.3012 0.818 -0.572 0.055 24 19 16 0 0
0.2800 -0.2575 -13.6070 -0.187 -0.761 0.621 19 13 13 0 0
0.3764 -0.7108 -13.6826 -0.433 -0.218 0.874 174 114 94 0 0
0.4655 -1.1335 -13.7774 -0.232 -0.013 0.973 175 114 96 0 0
0.5216 -1.3926 -13.7879 0.232 -0.733 0.639 153 76 53 0 0
0.5245 -1.4092 -13.8119 0.054 -0.477 0.877 183 112 88 0 0
0.5785 -1.8173 -14.9305 -0.480 -0.877 -0.003 60 17 8 0 0
0.5645 -1.7686 -15.0379 -0.650 -0.756 0.070 54 16 7 0 0
0.5670 -1.7838 -15.0657 -0.563 -0.824 0.064 50 14 6 0 0
0.5657 -1.7847 -15.1115 -0.599 -0.798 0.067 46 14 8 0 0
0.5628 -1.7789 -15.1660 -0.650 -0.756 0.070 42 13 8 0 0
0.6528 -2.2493 -15.5627 -0.306 -0.285 0.908 82 81 87 0 0
0.6567 -2.2701 -15.5836 -0.160 -0.630 0.760 77 78 83 0 0
0.7138 -2.5364 -15.6134 -0.313 -0.699 0.643 43 42 48 0 0
0.7177 -2.5572 -15.6340 -0.313 -0.699 0.643 51 51 55 0 0
0.7216 -2.5779 -15.6547 -0.313 -0.699 0.643 66 66 67 0 0
0.8860 -3.2933 -15.3771 -0.731 -0.195 0.654 119 117 113 0 0
0.8945 -3.3313 -15.3708 0.105 -0.962 0.251 110 96 88 0 0
0.8949 -3.3444 -15.4503 0.002 -0.997 0.074 114 84 81 0 0
1.0193 -4.0970 -16.7176 -0.172 -0.466 0.868 188 188 188 0 0
1.0290 -4.1394 -16.7008 -0.212 -0.935 0.286 189 189 189 0 0
1.0268 -4.1374 -16.7596 -0.206 -0.774 0.599 191 191 191 0 0
1.0433 -4.2175 -16.7890 -0.576 -0.313 0.755 196 196 196 0 0
1.0567 -4.2795 -16.7934 -0.429 -0.333 0.840 198 198 198 0 0
0.2738 -0.2857 -13.0524 0.602 -0.743 0.293 39 38 37 0 0
0.2752 -0.2964 -13.0821 0.633 -0.736 0.240 65 67 68 0 0
0.2762 -0.3057 -13.1132 0.633 -0.736 0.240 43 43 44 0 0
0.2491 -0.2558 -13.6142 -0.187 -0.761 0.621 19 13 13 0 0
0.3971 -0.9493 -13.7293 -0.092 -0.040 0.995 160 94 79 0 0
0.4287 -1.1006 -13.7768 0.116 -0.460 0.880 166 105 86 0 0
0.4639 -1.2605 -13.7707 -0.139 -0.149 0.979 156 85 69 0 0
0.4671 -1.2785 -13.7934 -0.156 -0.389 0.908 155 77 56 0 0
0.4718 -1.3021 -13.8097 -0.245 -0.495 0.833 149 67 46 0 0
0.4779 -1.3315 -13.8195 0.348 -0.453 0.821 155 76 55 0 0
0.4844 -1.3624 -13.8276 0.228 -0.623 0.748 154 81 58 0 0
0.4885 -1.3841 -13.8460 0.084 -0.521 0.850 162 96 78 0 0
0.4934 -1.4085 -13.8614 0.084 -0.521 0.850 168 95 77 0 0
0.5679 -1.7868 -14.1176 -0.109 -0.905 0.412 107 47 27 0 0
0.5331 -1.7363 -14.8526 -0.715 -0.694 0.083 68 27 16 0 0
0.5283 -1.7410 -15.0327 -0.537 -0.595 0.599 52 14 5 0 0
0.4999 -1.6728 -15.4509 -0.256 -0.478 0.840 12 7 7 0 0
0.5030 -1.6906 -15.4764 -0.125 -0.044 0.991 5 4 4 0 0
0.5111 -1.7279 -15.4770 -0.125 -0.044 0.991 4 3 3 0 0
0.5160 -1.7528 -15.4933 0.044 -0.365 0.930 5 5 7 0 0
0.5055 -1.7182 -15.5863 -0.040 -0.996 0.075 6 6 8 0 0
0.5411 -1.8909 -15.6547 0.911 -0.410 0.044 25 23 26 0 0
0.6253 -2.2672 -15.5951 -0.397 -0.446 0.802 77 78 83 0 0
0.6298 -2.2901 -15.6133 -0.012 -0.719 0.695 64 65 69 0 0
0.6358 -2.3193 -15.6228 0.324 -0.756 0.569 21 22 24 0 0
0.8658 -3.3336 -15.3754 -0.194 -0.950 0.244 127 124 121 0 0
0.2516 -0.3266 -13.0978 0.626 -0.754 0.200 62 62 64 0 0
0.4031 -1.1224 -13.8012 -0.335 0.275 0.901 171 109 93 0 0
0.4439 -1.3091 -13.8078 -0.021 -0.416 0.909 155 73 47 0 0
0.5350 -1.7737 -14.1394 -0.560 -0.698 0.447 107 54 36 0 0
0.4906 -1.7077 -15.0344 -0.456 -0.532 0.714 54 16 8 0 0
0.4956 -1.7328 -15.0499 -0.456 -0.532 0.714 53 15 8 0 0
0.6044 -2.3163 -15.6346 0.244 -0.578 0.779 36 37 40 0 0
0.6584 -2.5691 -15.6826 -0.452 -0.602 0.658 68 68 68 0 0
0.8088 -3.2183 -15.4527 -0.798 -0.055 0.600 116 115 116 0 0
0.2311 -0.3636 -13.0666 0.271 -0.663 0.698 67 64 66 0 0
0.3400 -0.9596 -13.7296 0.331 -0.544 0.771 168 110 95 0 0
0.3449 -0.9845 -13.7450 0.491 -0.421 0.763 171 112 98 0 0
0.3616 -1.0546 -13.7114 -0.497 -0.350 0.794 169 109 92 0 0
0.3722 -1.1185 -13.8114 -0.357 0.252 0.900 168 102 87 0 0
0.3890 -1.1889 -13.7766 -0.333 0.206 0.920 165 95 78 0 0
0.3952 -1.2184 -13.7866 -0.268 0.161 0.950 160 89 70 0 0
0.4035 -1.2562 -13.7873 -0.286 -0.015 0.958 155 86 64 0 0
0.4289 -1.3769 -13.8234 0.156 -0.528 0.835 142 72 54 0 0
0.4368 -1.4187 -13.8619 -0.164 -0.684 0.711 157 98 83 0 0
0.4623 -1.6800 -14.7972 0.108 -0.994 -0.002 85 41 29 0 0
0.4607 -1.6800 -14.8431 0.108 -0.994 -0.002 77 34 20 0 0
0.4587 -1.6785 -14.8912 0.047 -0.988 0.146 71 27 13 0 0
0.4561 -1.6931 -15.0595 -0.392 -0.518 0.760 54 16 3 0 0
0.4613 -1.7188 -15.0743 -0.392 -0.518 0.760 57 17 6 0 0
0.7886 -3.2528 -15.4106 -0.749 -0.350 0.563 120 120 120 0 0
0.7844 -3.2435 -15.4735 -0.845 -0.331 0.420 126 126 126 0 0
0.7915 -3.3268 -15.8014 -0.537 -0.842 0.044 120 108 107 0 0
0.7902 -3.3285 -15.8497 -0.537 -0.842 0.044 124 114 114 0 0
0.7881 -3.3274 -15.9025 -0.549 -0.833 0.063 133 124 125 0 0
0.7871 -3.3303 -15.9494 -0.549 -0.833 0.063 142 134 135 0 0
0.7858 -3.3385 -16.0399 -0.691 -0.710 0.135 167 164 166 0 0
0.8642 -3.7963 -16.6989 -0.346 0.135 0.929 181 181 183 0 0
0.8833 -3.8785 -16.6725 -0.619 -0.254 0.743 183 183 185 0 0
0.2034 -0.3718 -13.0637 0.271 -0.663 0.698 63 56 57 0 0
0.2054 -0.3849 -13.0910 0.493 -0.695 0.523 66 64 65 0 0
0.3272 -1.0373 -13.7361 -0.027 -0.170 0.985 168 115 96 0 0
0.3573 -1.1817 -13.7903 -0.390 0.070 0.918 176 102 86 0 0
0.3645 -1.2148 -13.7965 -0.323 0.137 0.936 158 81 62 0 0
0.3724 -1.2509 -13.7990 -0.300 -0.020 0.954 155 78 55 0 0
0.4164 -1.4595 -13.8647 0.336 -0.377 0.863 141 66 49 0 0
0.4117 -1.6227 -15.0134 0.601 -0.754 0.267 84 35 19 0 0
0.4129 -1.6335 -15.0467 0.601 -0.754 0.267 82 33 19 0 0
0.4087 -1.6492 -15.2631 0.042 -0.997 -0.060 58 28 18 0 0
0.7638 -3.2765 -15.4334 -0.721 -0.676 0.150 130 130 130 0 0
0.7540 -3.3122 -15.9337 -0.564 -0.819 0.103 172 170 174 0 0
0.7536 -3.3174 -15.9772 -0.564 -0.819 0.103 167 166 170 0 0
0.7485 -3.3192 -16.1297 -0.691 -0.710 0.135 180 181 183 0 0
0.7436 -3.3833 -16.6672 0.449 -0.622 0.642 181 181 183 0 0
0.8276 -3.7740 -16.7451 -0.365 0.103 0.925 182 182 184 0 0
0.1757 -0.3800 -13.0607 0.271 -0.663 0.698 32 21 22 0 0
0.1820 -0.4441 -13.2804 0.476 -0.725 0.497 19 13 13 0 0
0.3033 -1.0658 -13.7532 -0.442 -0.330 0.834 172 115 100 0 0
0.3100 -1.0974 -13.7612 -0.553 -0.468 0.689 166 103 82 0 0
0.3027 -1.0755 -13.8276 0.320 0.025 0.947 171 100 79 0 0
0.3129 -1.1202 -13.8213 -0.164 0.256 0.953 161 89 69 0 0
0.3678 -1.3641 -13.8069 0.100 -0.365 0.926 153 74 53 0 0
0.3776 -1.4131 -13.8374 -0.006 -0.877 0.481 153 98 88 0 0
0.4060 -1.6908 -14.7515 -0.133 -0.988 0.081 72 36 25 0 0
0.4052 -1.6941 -14.7933 -0.133 -0.988 0.081 54 21 12 0 0
0.3856 -1.6465 -15.0376 0.471 -0.841 0.267 54 17 7 0 0
0.7076 -3.2672 -16.1135 -0.729 -0.679 0.084 174 175 179 0 0
0.7070 -3.2722 -16.1580 -0.729 -0.679 0.084 179 179 183 0 0
0.7066 -3.2773 -16.2023 -0.727 -0.680 0.093 181 182 186 0 0
0.7016 -3.3363 -16.6964 -0.290 -0.767 0.573 185 185 187 0 0
0.7140 -3.4018 -16.7557 -0.133 -0.004 0.991 184 184 186 0 0
0.1480 -0.3882 -13.0578 0.271 -0.663 0.698 24 11 10 0 0
0.1549 -0.4496 -13.2394 0.760 -0.614 0.214 18 12 13 0 0
0.2829 -1.1078 -13.7557 0.050 -0.128 0.991 169 101 86 0 0
0.3528 -1.4434 -13.8949 -0.286 -0.816 0.503 137 60 39 0 0
0.3590 -1.6553 -14.9869 0.601 -0.754 0.267 58 31 18 0 0
0.6395 -3.1831 -16.6213 -0.467 -0.745 0.476 187 187 189 0 0
0.6617 -3.2976 -16.7124 -0.402 -0.391 0.828 186 186 188 0 0
0.6700 -3.3340 -16.7093 -0.290 -0.767 0.573 186 186 188 0 0
0.6773 -3.3670 -16.7112 -0.491 -0.748 0.447 186 186 188 0 0
0.1204 -0.3965 -13.0549 0.271 -0.663 0.698 42 15 10 0 0
0.1171 -0.4807 -13.6262 0.774 -0.156 0.613 16 10 10 0 0
0.2546 -1.1137 -13.7550 0.215 -0.202 0.955 166 91 68 0 0
0.3178 -1.4114 -13.8513 0.157 -0.786 0.597 162 99 84 0 0
0.3156 -1.4218 -13.9685 0.030 -0.436 0.899 110 23 4 0 0
0.3771 -1.9750 -15.5891 0.549 -0.835 0.042 67 66 70 0 0
-0.1983 0.9654 -12.5815 0.004 -0.108 0.994 130 48 26 0 0
0.0978 -0.4298 -13.0673 0.426 -0.722 0.546 42 14 7 0 0
0.1192 -0.5407 -13.1587 0.722 -0.196 0.663 18 13 14 0 0
0.1324 -0.6641 -13.5254 -0.110 -0.557 0.823 19 13 13 0 0
0.2229 -1.1010 -13.7323 -0.122 -0.090 0.988 158 83 61 0 0
0.2892 -1.4092 -13.8170 -0.378 -0.874 0.304 169 106 90 0 0
0.2878 -1.4103 -13.8586 -0.165 -0.884 0.438 159 90 74 0 0
0.2461 -1.5454 -15.6648 0.857 -0.071 0.511 27 30 31 0 0
0.3461 -1.9895 -15.6756 0.671 -0.741 -0.000 22 22 24 0 0
0.4346 -2.3761 -15.6487 0.428 -0.639 0.639 31 30 33 0 0
0.4397 -2.4013 -15.6637 0.123 -0.789 0.602 11 11 11 0 0
0.6125 -3.3570 -16.7455 -0.409 -0.618 0.672 188 188 190 0 0
0.5973 -3.3121 -16.8716 -0.208 -0.954 0.217 189 189 191 0 0
-0.7619 3.3271 -12.4995 0.196 0.145 0.970 109 51 39 0 0
-0.2544 1.0865 -12.5354 0.283 -0.348 0.894 128 46 24 0 0
0.0957 -0.5644 -13.1402 0.722 -0.196 0.663 16 12 13 0 0
0.2232 -1.2440 -13.7937 0.081 0.114 0.990 150 72 48 0 0
0.2247 -1.2881 -14.0021 -0.175 -0.901 0.396 144 72 55 0 0
0.2593 -1.6284 -15.0409 -0.545 -0.813 0.206 8 7 8 0 0
0.2101 -1.5226 -15.6523 0.682 0.117 0.722 25 27 34 0 0
0.2187 -1.5607 -15.6526 0.808 -0.042 0.588 37 41 44 0 0
0.2231 -1.5836 -15.6721 0.866 -0.314 0.390 25 26 28 0 0
0.2953 -1.8911 -15.6164 -0.256 -0.251 0.933 37 36 43 0 0
0.3941 -2.3273 -15.6241 0.364 -0.583 0.726 73 75 80 0 0
0.4001 -2.3559 -15.6346 0.275 -0.566 0.777 48 49 53 0 0
0.5739 -3.3159 -16.7109 0.017 -0.034 0.999 190 190 192 0 0
0.5781 -3.3380 -16.7304 -0.472 -0.368 0.801 189 189 191 0 0
0.5835 -3.3638 -16.7439 -0.369 -0.519 0.771 190 190 192 0 0
0.5696 -3.3242 -16.8617 -0.178 -0.933 0.312 190 190 192 0 0
0.6524 -3.6678 -16.7467 0.225 0.483 0.846 189 189 191 0 0
-0.8304 3.4825 -12.5018 0.221 -0.002 0.975 105 54 44 0 0
-0.3804 1.5028 -12.5431 0.540 -0.299 0.787 125 45 23 0 0
0.2469 -1.5773 -14.3335 -0.367 -0.888 0.279 100 61 51 0 0
0.2490 -1.5983 -14.3978 -0.367 -0.888 0.279 114 72 57 0 0
0.2064 -1.5360 -15.0682 -0.763 -0.477 0.436 7 7 9 0 0
0.1856 -1.5480 -15.6273 0.391 0.204 0.898 32 35 41 0 0
0.1996 -1.6122 -15.6428 0.866 -0.314 0.390 34 35 39 0 0
0.3728 -2.3683 -15.6255 0.355 -0.610 0.709 17 16 21 0 0
0.3766 -2.3889 -15.6467 0.185 -0.460 0.869 16 15 19 0 0
-0.8843 3.5742 -12.4953 0.098 -0.147 0.984 106 60 52 0 0
0.2197 -1.5470 -14.1106 -0.216 -0.580 0.785 94 20 1 0 0
0.2158 -1.5739 -14.3438 -0.378 -0.907 0.186 103 63 49 0 0
0.2163 -1.6173 -14.5616 -0.359 -0.917 0.177 115 67 55 0 0
0.1504 -1.5283 -15.6110 0.119 -0.381 0.917 15 15 20 0 0
0.2768 -2.0897 -15.6636 0.525 -0.784 0.332 26 29 30 0 0
0.2800 -2.1083 -15.6881 0.333 -0.755 0.564 47 48 51 0 0
0.3501 -2.4036 -15.6343 0.201 -0.341 0.918 43 42 46 0 0
0.3532 -2.4218 -15.6588 0.131 -0.400 0.907 72 72 74 0 0
0.3583 -2.4469 -15.6739 0.209 -0.498 0.842 88 88 88 0 0
0.4638 -3.0991 -16.6885 -0.397 -0.217 0.892 193 193 195 0 0
0.4626 -3.1027 -16.7370 -0.376 -0.284 0.882 193 193 195 0 0
0.4690 -3.1324 -16.7452 -0.181 -0.302 0.936 193 193 195 0 0
0.5591 -3.5380 -16.8117 0.126 0.480 0.868 191 191 193 0 0
-0.9156 3.5661 -12.4934 0.098 -0.147 0.984 104 53 44 0 0
-0.9060 3.5230 -12.5008 0.098 -0.147 0.984 105 50 41 0 0
-0.9117 3.5380 -12.5511 -0.368 -0.533 0.762 107 48 39 0 0
0.0366 -0.7877 -13.6274 0.056 -0.654 0.754 78 74 71 0 0
0.2088 -1.6283 -14.1099 -0.503 -0.553 0.664 107 62 42 0 0
0.2135 -1.6520 -14.1261 -0.503 -0.553 0.664 104 72 61 0 0
0.2131 -1.6575 -14.1636 -0.274 -0.850 0.450 100 67 58 0 0
0.2009 -1.6419 -14.3591 0.370 -0.803 0.467 80 52 48 0 0
0.1789 -1.5856 -14.5608 -0.433 -0.901 0.031 118 71 60 0 0
0.1213 -1.5147 -15.4898 -0.160 -0.183 0.970 3 3 5 0 0
0.1253 -1.5362 -15.5110 0.411 -0.911 0.039 5 5 7 0 0
0.2507 -2.1146 -15.6874 0.305 -0.809 0.502 43 45 48 0 0
0.3138 -2.3771 -15.6288 0.046 -0.469 0.882 59 58 63 0 0
0.3190 -2.4028 -15.6431 0.044 -0.380 0.924 83 82 86 0 0
0.3244 -2.4289 -15.6568 0.046 -0.469 0.882 89 89 91 0 0
0.3298 -2.4549 -15.6707 0.113 -0.545 0.831 89 89 90 0 0
0.4138 -3.0366 -16.7943 -0.794 -0.355 0.493 194 194 196 0 0
0.4409 -3.1431 -16.7375 -0.483 0.053 0.874 194 194 196 0 0
0.4287 -3.1105 -16.8429 -0.578 0.166 0.799 194 194 196 0 0
-1.0409 3.9543 -12.5451 0.374 0.244 0.895 212 212 211 0 0
-0.9491 3.5666 -12.4978 0.127 -0.403 0.906 106 52 43 0 0
-0.5814 1.9800 -12.4826 0.214 -0.428 0.878 121 48 31 0 0
-0.5718 1.9377 -12.4871 0.123 -0.260 0.958 123 49 32 0 0
0.1783 -1.6333 -14.1542 -0.625 -0.728 0.282 103 71 61 0 0
0.0876 -1.5224 -15.5843 -0.546 -0.808 0.221 8 7 11 0 0
0.2276 -2.1424 -15.6576 0.449 -0.181 0.875 17 19 21 0 0
0.3979 -3.1128 -16.8484 -0.593 0.272 0.758 195 195 197 0 0
0.5016 -3.5366 -16.7228 0.282 0.519 0.807 194 194 196 0 0
0.5206 -3.6150 -16.7055 0.169 0.478 0.862 193 193 195 0 0
-0.9802 3.5579 -12.4954 0.214 -0.408 0.887 106 50 40 0 0
-0.6107 1.9709 -12.4796 0.223 -0.506 0.833 122 49 32 0 0
-0.6032 1.9363 -12.4904 -0.117 -0.564 0.817 124 51 33 0 0
-0.1568 -0.0189 -12.6598 0.358 -0.379 0.853 136 52 26 0 0
-0.0140 -0.8225 -13.6019 0.349 -0.763 0.544 96 95 91 0 0
-0.0114 -0.8387 -13.6268 0.109 -0.777 0.620 85 84 80 0 0
0.1339 -1.5330 -13.9711 0.316 -0.604 0.731 68 10 5 0 0
0.1257 -1.5544 -14.2527 -0.435 -0.892 0.119 105 70 62 0 0
0.0554 -1.5208 -15.5938 -0.704 -0.204 0.680 8 8 11 0 0
0.3513 -3.0552 -16.8927 -0.905 -0.300 0.300 196 196 198 0 0
-1.0948 3.9021 -12.5154 0.236 0.216 0.948 202 195 193 0 0
-0.7194 2.3088 -12.4435 0.075 -0.583 0.809 122 49 32 0 0
-0.7075 2.2580 -12.4421 -0.401 -0.385 0.831 122 49 32 0 0
-0.3933 0.8968 -12.5153 0.238 -0.586 0.775 130 48 24 0 0
-0.3612 0.7532 -12.5451 0.162 -0.436 0.885 131 46 24 0 0
-0.1795 -0.0515 -12.6733 0.331 -0.452 0.828 144 60 34 0 0
0.0278 -1.1673 -13.7858 0.470 0.011 0.882 151 96 80 0 0
0.1059 -1.5394 -13.9699 -0.083 -0.730 0.679 69 11 4 0 0
0.0886 -1.5229 -14.2516 -0.615 -0.741 0.272 102 70 64 0 0
0.0897 -1.5340 -14.2829 -0.536 -0.834 0.135 103 66 58 0 0
0.0870 -1.5320 -14.3296 -0.486 -0.871 0.069 100 58 48 0 0
0.0029 -1.4502 -15.6908 -0.628 -0.361 0.689 9 8 11 0 0
0.1652 -2.1028 -15.4804 -0.399 -0.560 0.726 72 73 78 0 0
-0.0711 -0.7211 -13.0597 0.146 -0.415 0.898 51 44 43 0 0
-0.0672 -0.7417 -13.0792 0.113 -0.431 0.895 70 68 68 0 0
-0.0585 -0.8851 -13.5889 0.475 -0.734 0.486 91 90 82 0 0
-0.0841 -1.1836 -15.5448 0.709 0.137 0.692 57 56 60 0 0
-0.0681 -1.2460 -15.5160 0.766 0.074 0.638 64 63 68 0 0
-0.0405 -1.4035 -15.7084 -0.111 -0.579 0.807 7 7 9 0 0
0.1350 -2.1055 -15.4844 -0.503 -0.406 0.763 58 59 64 0 0
0.1553 -2.2292 -15.6627 0.361 -0.566 0.741 14 12 15 0 0
0.1004 -2.2050 -16.6699 -0.245 -0.158 0.956 128 127 125 0 0
0.1124 -2.2614 -16.6953 -0.484 -0.497 0.720 139 139 139 0 0
0.0978 -2.2222 -16.8053 0.020 0.274 0.961 142 142 142 0 0
-1.0807 3.5581 -12.5079 0.178 -0.593 0.786 107 48 36 0 0
-0.7789 2.2914 -12.4383 -0.024 -0.472 0.881 123 52 34 0 0
-0.7729 2.2624 -12.4541 -0.180 -0.455 0.872 122 51 33 0 0
-0.3636 0.5012 -12.5643 0.021 -0.277 0.961 130 46 22 0 0
-0.3512 0.4430 -12.5899 0.150 -0.520 0.841 132 48 24 0 0
-0.3365 0.3767 -12.6080 0.061 -0.620 0.782 130 46 20 0 0
-0.1003 -0.7229 -13.0631 0.214 -0.356 0.910 33 21 17 0 0
-0.0676 -1.3956 -15.5791 -0.139 -0.378 0.915 2 3 5 0 0
0.0173 -1.7771 -15.6780 0.609 -0.773 0.176 25 23 26 0 0
0.0437 -1.8893 -15.6789 -0.063 0.296 0.953 13 11 16 0 0
0.0646 -1.9750 -15.6644 -0.097 0.176 0.980 43 47 50 0 0
0.0752 -2.2628 -16.8087 0.050 0.211 0.976 147 147 149 0 0
0.2525 -2.9998 -16.7333 -0.506 -0.825 -0.253 196 196 198 0 0
-0.5740 1.2757 -12.5045 0.447 -0.567 0.692 127 46 25 0 0
-0.5185 1.0352 -12.5322 0.207 -0.223 0.953 129 47 25 0 0
-0.3975 0.5134 -12.5799 0.318 -0.473 0.822 136 52 28 0 0
-0.3953 0.4986 -12.6056 0.499 -0.675 0.544 130 46 22 0 0
-0.3892 0.4700 -12.6189 0.298 -0.642 0.707 138 54 30 0 0
-0.3657 0.3725 -12.6090 0.061 -0.620 0.782 130 46 20 0 0
-0.1259 -0.7302 -13.0208 0.543 -0.156 0.825 75 28 20 0 0
-0.1270 -0.7335 -13.0577 0.052 -0.446 0.893 49 26 20 0 0
-0.1117 -1.3302 -15.5226 0.746 -0.441 0.499 68 63 66 0 0
-0.0145 -1.7601 -15.6094 0.537 -0.606 0.586 69 68 73 0 0
-0.0117 -1.7775 -15.6358 0.404 -0.797 0.450 24 22 25 0 0
-0.0020 -1.8262 -15.6706 0.228 -0.736 0.638 36 34 37 0 0
0.0122 -1.8896 -15.6861 0.179 0.222 0.958 12 10 15 0 0
0.0265 -1.9447 -15.6628 -0.081 0.216 0.973 22 23 27 0 0
0.0437 -2.2220 -16.6096 -0.491 -0.503 0.711 129 129 129 0 0
-1.1027 3.3949 -12.3957 -0.191 -0.782 0.594 111 48 38 0 0
-0.6137 1.3276 -12.4366 0.301 -0.486 0.821 126 45 24 0 0
-0.6087 1.3028 -12.4544 0.448 -0.443 0.776 128 47 26 0 0
-0.1433 -0.7723 -12.9836 0.728 -0.304 0.614 73 16 7 0 0
-0.1475 -0.7653 -13.0309 0.274 -0.840 0.469 68 31 20 0 0
-0.0499 -1.7393 -15.5947 -0.134 -0.252 0.958 66 66 70 0 0
-0.0427 -1.7796 -15.6406 0.009 -0.685 0.729 39 37 40 0 0
-0.0389 -1.8002 -15.6628 0.349 -0.916 0.197 14 12 15 0 0
-0.0317 -1.8324 -15.6700 0.104 -0.677 0.728 37 35 38 0 0
-0.0262 -1.8587 -15.6848 -0.032 -0.386 0.922 22 20 23 0 0
-0.0034 -2.1568 -16.6051 -0.304 0.334 0.892 124 124 122 0 0
-0.0061 -2.1571 -16.6576 -0.301 0.249 0.920 128 128 128 0 0
-0.0088 -2.1571 -16.7107 -0.554 -0.446 0.703 131 131 132 0 0
0.0157 -2.2892 -16.8416 -0.251 -0.207 0.946 156 156 158 0 0
-0.6323 1.2689 -12.4690 0.420 -0.449 0.788 126 45 24 0 0
-0.5241 0.7939 -12.5650 -0.026 -0.604 0.796 133 53 29 0 0
-0.5058 0.7078 -12.6061 -0.015 -0.432 0.902 130 47 23 0 0
-0.3014 -0.1704 -12.7034 0.120 -0.672 0.731 147 63 37 0 0
-0.1678 -0.7972 -13.0039 0.592 -0.774 0.225 73 22 9 0 0
-0.1707 -0.8167 -13.1456 0.453 -0.834 0.314 61 55 53 0 0
-0.0804 -1.3865 -14.0013 -0.149 -0.818 0.555 62 10 1 0 0
-0.0888 -1.4366 -14.3841 -0.452 -0.885 0.113 101 56 44 0 0
-0.1246 -1.4065 -14.9212 -0.481 -0.864 -0.148 65 59 59 0 0
-0.1653 -1.3305 -15.3439 0.558 -0.767 -0.316 72 62 64 0 0
-0.1086 -1.6343 -15.6396 -0.423 0.142 0.895 28 27 36 0 0
-0.0683 -1.8076 -15.6608 0.136 -0.959 0.250 17 16 20 0 0
-0.7542 1.6461 -12.4779 0.021 -0.807 0.590 126 49 29 0 0
-0.7486 1.6191 -12.4945 0.120 -0.547 0.828 126 49 29 0 0
-0.6597 1.2554 -12.4621 0.420 -0.449 0.788 134 52 31 0 0
-0.5418 0.7334 -12.5944 -0.015 -0.432 0.902 130 47 25 0 0
-0.3876 0.0820 -12.6310 0.295 -0.372 0.880 136 51 25 0 0
-0.1991 -0.8140 -13.1132 0.357 -0.865 0.352 43 35 35 0 0
-0.1103 -1.3874 -14.0064 -0.209 -0.786 0.582 69 10 1 0 0
-0.1541 -1.4122 -14.9210 -0.494 -0.869 -0.008 64 59 58 0 0
-0.1573 -1.4099 -14.9703 -0.494 -0.869 -0.008 65 60 59 0 0
-0.1015 -1.8029 -15.6744 0.212 -0.906 0.367 19 18 23 0 0
-0.9545 2.3733 -12.3690 0.552 -0.322 0.769 123 51 36 0 0
-0.7785 1.6133 -12.4940 0.120 -0.547 0.828 129 51 31 0 0
-0.6567 1.1068 -12.4953 -0.341 -0.469 0.815 130 48 26 0 0
-0.6492 1.0733 -12.5054 -0.389 -0.298 0.872 128 46 24 0 0
-0.6466 1.0571 -12.5304 -0.214 -0.778 0.591 126 44 22 0 0
-0.1411 -1.4092 -14.1186 -0.092 -0.770 0.631 95 52 43 0 0
-0.1727 -1.4116 -14.6980 -0.353 -0.934 0.044 110 71 61 0 0
-0.1751 -1.4122 -14.7431 -0.343 -0.937 0.067 88 64 61 0 0
-0.2069 -1.3846 -15.1962 -0.503 -0.849 -0.164 72 63 64 0 0
-0.2548 -1.2991 -15.6880 -0.441 -0.765 0.470 54 46 46 0 0
-0.2457 -1.3460 -15.7272 -0.250 -0.574 0.779 68 37 26 0 0
-0.0883 -2.2046 -16.6154 -0.150 0.301 0.942 140 140 140 0 0
-0.1054 -2.2163 -16.9739 0.249 0.596 0.764 163 163 165 0 0
-0.8203 1.6792 -12.3978 0.234 -0.923 0.306 126 51 31 0 0
-0.8085 1.6076 -12.4937 0.369 -0.509 0.778 126 49 29 0 0
-0.6818 1.0788 -12.5147 -0.095 -0.632 0.769 128 46 24 0 0
-0.6785 1.0599 -12.5373 -0.048 -0.855 0.516 130 48 26 0 0
-0.1719 -1.4079 -14.1263 -0.171 -0.815 0.554 94 56 49 0 0
-0.2063 -1.3950 -14.6786 -0.448 -0.894 0.023 109 72 64 0 0
-0.2089 -1.3948 -14.7246 -0.448 -0.894 0.023 91 67 64 0 0
-0.2312 -1.3736 -15.0280 -0.500 -0.866 0.001 66 61 61 0 0
-0.3096 -1.1915 -15.6340 -0.362 -0.580 0.730 76 67 68 0 0
-0.2904 -1.2883 -15.7088 -0.300 -0.664 0.685 70 51 45 0 0
-0.2855 -1.3128 -15.7272 -0.381 -0.510 0.772 80 46 35 0 0
-0.1081 -2.2810 -16.7270 -0.135 -0.964 0.228 156 156 158 0 0
-0.0268 -2.6435 -16.8399 0.501 -0.426 0.753 193 193 195 0 0
-0.0015 -2.7303 -16.7637 -0.084 -0.807 0.584 193 194 196 0 0
-0.8490 1.6690 -12.3938 0.311 -0.909 0.276 126 51 32 0 0
-0.7094 1.0592 -12.5413 -0.048 -0.855 0.516 129 47 25 0 0
-0.6957 1.0047 -12.5333 0.163 -0.409 0.898 127 45 23 0 0
-0.2480 -1.3692 -14.7617 -0.493 -0.869 -0.051 66 55 56 0 0
-0.3437 -1.1858 -15.6483 -0.366 -0.643 0.672 74 68 69 0 0
-0.3388 -1.2105 -15.6664 -0.335 -0.556 0.761 76 68 68 0 0
-0.3359 -1.2287 -15.6927 -0.308 -0.675 0.671 71 57 54 0 0
-0.3279 -1.2631 -15.6988 -0.114 -0.728 0.676 66 43 40 0 0
-0.3252 -1.2806 -15.7259 -0.204 -0.585 0.785 81 47 40 0 0
-0.2552 -1.5648 -15.7095 -0.402 0.083 0.912 13 11 13 0 0
-0.2233 -1.9319 -16.6997 -0.692 -0.068 0.718 130 128 130 0 0
-0.1392 -2.2570 -16.6105 0.354 0.430 0.830 148 148 150 0 0
-0.1412 -2.2792 -16.7383 -0.179 -0.967 0.180 157 158 160 0 0
-0.0655 -2.6145 -16.8379 -0.332 -0.168 0.928 190 191 193 0 0
-0.0321 -2.7349 -16.7657 0.092 -0.594 0.799 194 195 197 0 0
-0.0352 -2.7349 -16.8198 0.070 -0.620 0.782 196 196 198 0 0
-1.5128 4.2330 -12.5170 0.104 0.106 0.989 197 193 191 0 0
-0.7245 0.9971 -12.5313 0.220 -0.368 0.904 127 45 23 0 0
-0.7182 0.9677 -12.5448 0.220 -0.368 0.904 129 47 25 0 0
-0.4943 0.0270 -12.6385 0.373 -0.427 0.824 131 45 21 0 0
-0.3797 -1.1653 -15.6321 -0.117 -0.972 -0.206 78 70 68 0 0
-0.3777 -1.1808 -15.6618 -0.335 -0.556 0.761 80 70 70 0 0
-0.3724 -1.2067 -15.6784 -0.335 -0.556 0.761 80 63 63 0 0
-0.3694 -1.2252 -15.7045 -0.308 -0.675 0.671 70 45 42 0 0
-0.3600 -1.2639 -15.7051 -0.114 -0.728 0.676 82 44 37 0 0
-0.3577 -1.2801 -15.7339 -0.204 -0.585 0.785 107 54 42 0 0
-0.2893 -1.5584 -15.7251 -0.402 0.083 0.912 13 11 14 0 0
-0.2543 -1.9375 -16.7003 -0.536 0.087 0.840 133 131 134 0 0
-0.1758 -2.2729 -16.7560 -0.147 -0.980 0.131 159 160 162 0 0
-0.1761 -2.2817 -16.7970 -0.273 -0.959 0.081 162 163 165 0 0
-0.1948 -2.2441 -16.9596 0.314 0.562 0.765 171 172 174 0 0
-0.0838 -2.6665 -16.8232 -0.637 -0.484 0.599 193 194 196 0 0
-0.3463 -1.2909 -15.0549 -0.567 -0.809 0.158 72 60 61 0 0
-0.4139 -1.1598 -15.6461 -0.117 -0.976 -0.184 95 79 75 0 0
-0.4114 -1.1769 -15.6738 -0.335 -0.556 0.761 73 53 50 0 0
-0.4060 -1.2029 -15.6905 -0.335 -0.556 0.761 70 40 36 0 0
-0.3341 -1.5099 -15.7454 -0.247 0.187 0.951 43 41 45 0 0
-0.3209 -1.5600 -15.7305 -0.111 -0.280 0.953 14 12 14 0 0
-0.2878 -1.9357 -16.7112 -0.327 0.264 0.907 136 134 137 0 0
-0.1804 -2.3379 -16.5643 0.360 0.351 0.864 157 158 160 0 0
-0.2069 -2.2678 -16.7185 -0.359 -0.918 0.167 159 160 162 0 0
-0.2061 -2.2797 -16.7547 -0.078 -0.976 0.203 162 163 165 0 0
-0.1314 -2.6107 -16.8614 -0.189 -0.133 0.973 192 193 195 0 0
-1.6063 4.3348 -12.5181 0.104 0.106 0.989 207 205 204 0 0
-0.8060 1.0698 -12.5641 0.104 -0.647 0.755 127 45 23 0 0
-0.7079 0.6783 -12.5348 0.316 -0.510 0.800 126 43 21 0 0
-0.3463 -1.5809 -15.7112 0.226 -0.819 0.527 18 16 18 0 0
-0.2057 -2.1786 -15.8164 -0.548 -0.809 0.212 134 134 135 0 0
-0.2165 -2.3365 -16.6279 -0.228 -0.811 0.538 162 162 164 0 0
-0.2414 -2.3111 -16.9336 0.267 0.565 0.780 178 179 181 0 0
-1.6504 4.3762 -12.5117 -0.031 0.008 0.999 209 209 212 0 0
-0.8963 1.3313 -12.4798 0.039 -0.374 0.927 129 47 26 0 0
-0.6492 0.3103 -12.5612 0.271 -0.571 0.775 133 49 23 0 0
-0.6473 0.2962 -12.5873 0.152 -0.529 0.835 135 51 25 0 0
-0.5605 -0.0689 -12.6420 -0.074 -0.377 0.923 134 48 25 0 0
-0.3760 -1.3062 -14.5885 -0.488 -0.870 0.062 119 74 63 0 0
-0.2528 -2.1322 -15.8873 0.468 -0.370 0.803 137 137 137 0 0
-0.3819 -1.8412 -16.8073 -0.627 -0.171 0.760 140 140 142 0 0
-0.3727 -1.8787 -16.8081 -0.627 -0.171 0.760 143 143 145 0 0
-0.2795 -2.2655 -16.8464 -0.367 -0.920 0.137 171 171 173 0 0
-0.2706 -2.3117 -16.8873 0.478 0.518 0.709 177 178 180 0 0
-0.2196 -2.4923 -16.7843 0.223 0.472 0.853 185 186 188 0 0
-0.1955 -2.5833 -16.7575 0.331 0.499 0.801 190 191 193 0 0
-1.6838 4.3720 -12.5127 -0.031 0.008 0.999 206 202 203 0 0
-1.6699 4.3161 -12.5128 0.042 0.107 0.993 178 165 162 0 0
-1.0104 1.6798 -12.4245 0.024 -0.449 0.893 124 49 32 0 0
-0.8704 1.0923 -12.5147 -0.307 -0.683 0.663 130 48 26 0 0
-0.8662 1.0703 -12.5347 -0.262 -0.699 0.666 130 48 26 0 0
-0.4000 -1.6132 -15.6845 0.570 -0.037 0.821 50 49 52 0 0
-0.2985 -1.9863 -15.5434 0.028 -0.645 0.764 68 69 73 0 0
-0.2860 -2.1279 -15.9009 0.437 -0.648 0.624 140 140 141 0 0
-0.4125 -1.8588 -16.8445 -0.798 -0.590 0.123 146 146 148 0 0
-0.3106 -2.2303 -16.6912 0.305 0.421 0.854 161 161 163 0 0
-0.2966 -2.2815 -16.6710 0.305 0.421 0.854 163 163 165 0 0
-0.2950 -2.3263 -16.8207 -0.324 -0.903 0.282 176 176 178 0 0
-0.8885 1.0412 -12.5143 -0.081 -0.340 0.937 129 47 25 0 0
-0.7879 0.6296 -12.5446 0.118 -0.827 0.549 131 46 25 0 0
-0.3961 -1.1502 -13.3444 0.162 -0.821 0.547 95 45 30 0 0
-0.4268 -1.6291 -15.6715 0.678 0.108 0.727 73 72 74 0 0
-0.4249 -1.6538 -15.7384 0.408 0.099 0.908 17 15 18 0 0
-0.4069 -1.7177 -15.7050 -0.043 0.422 0.906 25 23 26 0 0
-0.3896 -1.7793 -15.6743 -0.196 0.152 0.969 41 40 45 0 0
-0.3288 -2.0760 -15.8783 0.665 -0.666 0.340 145 144 148 0 0
-0.3251 -2.0967 -15.9007 0.665 -0.641 0.383 144 143 147 0 0
-0.3201 -2.1212 -15.9179 -0.013 -0.919 0.394 143 142 146 0 0
-0.4124 -1.9568 -16.7153 -0.806 -0.584 0.094 150 150 152 0 0
-1.7476 4.3534 -12.5075 0.138 0.213 0.967 172 163 158 0 0
-1.0751 1.7006 -12.3729 0.244 -0.908 0.341 121 48 30 0 0
-1.0698 1.6749 -12.3905 -0.105 -0.679 0.726 120 46 30 0 0
-0.9727 1.2726 -12.4439 0.305 -0.388 0.870 129 47 26 0 0
-0.9575 1.2061 -12.4652 0.278 -0.641 0.716 128 46 25 0 0
-0.9513 1.1776 -12.4798 0.146 -0.432 0.890 128 46 24 0 0
-0.9241 1.0554 -12.5310 0.129 -0.360 0.924 128 46 24 0 0
-0.6620 -0.0007 -12.5637 0.624 -0.300 0.722 134 48 23 0 0
-0.4441 -1.1278 -13.5409 0.466 -0.818 0.338 79 42 32 0 0
-0.4436 -1.1380 -13.5719 0.287 -0.916 0.281 77 39 31 0 0
-0.4481 -1.2815 -14.1885 0.132 -0.990 0.043 85 47 32 0 0
-0.4183 -1.7887 -15.6695 0.009 0.372 0.928 41 40 46 0 0
-0.3617 -2.0440 -15.7789 0.724 -0.412 0.553 56 57 59 0 0
-0.3581 -2.0641 -15.8019 0.717 -0.484 0.502 121 122 124 0 0
-0.3547 -2.0937 -15.8623 0.665 -0.666 0.340 146 147 149 0 0
-0.3531 -2.1080 -15.8933 0.665 -0.666 0.340 146 146 149 0 0
-0.3568 -2.1069 -15.9452 0.659 -0.751 -0.047 145 145 147 0 0
-0.3865 -2.2408 -16.9086 -0.183 0.249 0.951 177 177 179 0 0
-0.2743 -2.6361 -16.7055 -0.169 -0.931 0.323 193 194 196 0 0
-1.7946 4.4037 -12.5074 0.128 0.207 0.970 193 188 185 0 0
-1.7269 4.1417 -12.4800 0.016 0.131 0.991 101 55 43 0 0
-1.0983 1.6642 -12.3862 0.551 -0.512 0.659 123 49 32 0 0
-1.0914 1.6331 -12.3994 0.028 -0.660 0.751 110 45 28 0 0
-1.0347 1.3976 -12.4368 0.001 -0.889 0.458 128 47 26 0 0
-1.0007 1.2615 -12.4390 0.305 -0.388 0.870 128 46 25 0 0
-0.9883 1.2046 -12.4684 0.366 -0.463 0.807 128 46 25 0 0
-0.6808 -0.0456 -12.5659 0.162 -0.880 0.446 138 52 27 0 0
-0.4726 -1.1329 -13.5411 0.250 -0.882 0.399 79 40 32 0 0
-0.4656 -1.2243 -13.7807 0.345 -0.936 0.074 103 64 47 0 0
-0.4775 -1.6889 -15.7080 0.669 -0.217 0.711 17 15 17 0 0
-0.3867 -2.0640 -15.7598 0.541 -0.594 0.595 102 103 105 0 0
-0.3908 -2.0716 -15.8497 0.185 -0.979 0.086 147 148 150 0 0
-0.3841 -2.1010 -15.8602 0.301 -0.917 0.263 148 149 151 0 0
-0.3907 -2.0915 -15.9235 0.028 -0.979 0.201 148 148 150 0 0
-1.8443 4.4626 -12.5131 0.168 0.128 0.977 202 198 198 0 0
-1.1237 1.6437 -12.3737 0.290 -0.501 0.816 124 50 33 0 0
-1.0658 1.3878 -12.4718 0.045 -0.870 0.491 128 47 26 0 0
-1.0305 1.2649 -12.4076 0.225 -0.756 0.614 128 46 25 0 0
-1.0276 1.2473 -12.4315 0.204 -0.428 0.880 129 47 26 0 0
-0.7180 -0.0065 -12.5290 0.135 -0.523 0.842 136 50 25 0 0
-0.4852 -1.0411 -12.9448 0.111 -0.706 0.700 109 32 7 0 0
-0.5058 -1.2572 -14.0528 -0.083 -0.909 0.408 103 66 43 0 0
-0.5000 -1.7072 -15.6424 0.910 -0.367 0.194 85 85 85 0 0
-0.5042 -1.7048 -15.6948 0.833 -0.128 0.539 21 20 20 0 0
-0.4138 -2.0777 -15.7491 0.503 -0.591 0.631 143 143 145 0 0
-0.4119 -2.0930 -15.7785 0.540 -0.689 0.484 151 151 153 0 0
-0.4089 -2.1118 -15.8033 0.627 -0.677 0.385 151 151 153 0 0
-0.4070 -2.1269 -15.8330 0.627 -0.677 0.385 151 151 153 0 0
-0.4111 -2.1249 -15.8860 -0.031 -0.875 0.483 150 150 152 0 0
-0.7437 -0.0290 -12.5520 0.041 -0.785 0.618 133 48 22 0 0
-0.5124 -1.0484 -12.9427 0.211 -0.752 0.625 86 18 4 0 0
-0.5189 -1.1148 -13.2804 -0.005 -0.912 0.410 83 42 32 0 0
-0.5165 -1.1306 -13.3049 0.214 -0.728 0.651 85 43 33 0 0
-0.5176 -1.1361 -13.3405 0.373 -0.623 0.687 87 42 32 0 0
-0.4680 -1.9532 -15.6246 -0.020 -0.473 0.881 38 36 43 0 0
-0.4411 -2.0907 -15.7395 0.503 -0.591 0.631 152 152 154 0 0
-0.4703 -2.2522 -16.7563 0.175 0.456 0.873 175 174 177 0 0
-1.8044 4.0566 -12.4313 0.295 0.139 0.945 102 51 40 0 0
-1.0980 1.2889 -12.3980 0.120 -0.279 0.953 127 45 24 0 0
-0.8385 0.2338 -12.5250 0.097 -0.189 0.977 139 55 29 0 0
-0.5619 -0.9530 -12.8850 0.213 -0.368 0.905 121 37 14 0 0
-0.5499 -1.1114 -13.2895 0.126 -0.799 0.588 88 45 36 0 0
-0.5484 -1.1246 -13.3168 0.007 -0.907 0.422 89 45 36 0 0
-0.5442 -1.1463 -13.3352 -0.288 -0.932 0.219 89 44 36 0 0
-0.5789 -1.1124 -13.7076 -0.626 -0.716 0.310 94 51 42 0 0
-0.7352 -1.0275 -15.6300 -0.431 -0.895 0.118 100 60 56 0 0
-0.5029 -1.9343 -15.6078 -0.029 -0.490 0.871 42 40 45 0 0
-0.4710 -2.0662 -15.6308 0.166 -0.056 0.985 121 122 124 0 0
-0.4630 -2.0991 -15.6366 0.127 -0.108 0.986 146 147 149 0 0
-0.5585 -2.0429 -16.7964 0.072 -0.360 0.930 168 170 169 0 0
-0.5491 -2.0803 -16.7969 0.571 0.066 0.818 170 172 171 0 0
-0.9379 0.5016 -12.5369 0.175 -0.583 0.794 138 54 30 0 0
-0.8665 0.2260 -12.5227 0.036 -0.722 0.691 135 51 25 0 0
-0.7444 -0.2835 -12.6359 0.326 -0.479 0.815 144 62 38 0 0
-0.5747 -1.0303 -12.9317 -0.044 -0.885 0.464 61 7 1 0 0
-0.5716 -1.1186 -13.2052 -0.623 -0.764 0.166 93 54 45 0 0
-0.5988 -1.0991 -13.5164 -0.290 -0.951 0.107 91 57 49 0 0
-0.7805 -0.9808 -15.6455 -0.489 -0.812 0.318 102 59 54 0 0
-0.5362 -1.9303 -15.6206 -0.231 -0.350 0.908 55 54 59 0 0
-0.5080 -2.0410 -15.6225 0.281 -0.072 0.957 136 138 140 0 0
-0.5002 -2.0733 -15.6291 0.198 -0.117 0.973 149 150 152 0 0
-1.1959 1.4260 -12.4052 0.015 -0.584 0.812 128 49 28 0 0
-1.1325 1.1642 -12.4567 0.244 -0.579 0.778 129 47 26 0 0
-1.0530 0.8530 -12.4616 0.182 -0.414 0.892 130 48 26 0 0
-0.7829 -0.2489 -12.6344 0.168 -0.390 0.906 136 53 27 0 0
-0.6288 -1.0907 -13.4891 -0.280 -0.955 -0.099 87 53 43 0 0
-0.6321 -1.0899 -13.5319 -0.272 -0.962 -0.006 80 44 37 0 0
-0.8156 -0.9743 -15.6607 -0.356 -0.801 0.482 91 49 44 0 0
-0.8070 -1.0299 -15.7396 -0.194 -0.695 0.692 91 51 40 0 0
-0.5924 -1.8304 -15.6110 0.365 0.213 0.906 133 133 138 0 0
-0.5258 -2.0907 -15.6135 0.407 -0.020 0.913 153 154 156 0 0
-0.6765 -1.8448 -16.8250 0.222 -0.663 0.715 166 167 169 0 0
-0.6834 -1.8363 -16.8906 0.234 -0.667 0.708 168 169 171 0 0
-1.2265 1.4228 -12.4070 0.015 -0.584 0.812 128 48 27 0 0
-1.0816 0.8451 -12.4594 0.182 -0.414 0.892 129 47 25 0 0
-1.0748 0.8151 -12.4721 0.222 -0.611 0.760 127 45 23 0 0
-0.6672 -1.0756 -13.5530 -0.224 -0.972 -0.075 55 16 9 0 0
-0.8628 -0.9124 -15.6455 -0.153 -0.376 0.914 107 66 62 0 0
-0.8559 -0.9427 -15.6575 -0.199 -0.579 0.791 93 51 44 0 0
-0.8505 -0.9686 -15.6748 -0.264 -0.802 0.535 79 39 31 0 0
-0.5378 -2.1463 -15.5471 0.213 0.134 0.968 154 155 157 0 0
-2.0975 4.6422 -12.5035 0.189 0.205 0.960 210 210 214 0 0
-1.2656 1.4550 -12.3994 0.314 -0.562 0.766 128 47 28 0 0
-1.2613 1.4327 -12.4196 0.342 -0.596 0.727 128 47 27 0 0
-0.9645 0.2548 -12.5240 -0.000 -0.663 0.749 131 47 23 0 0
-0.7809 -1.0808 -14.6952 -0.466 -0.883 -0.054 72 62 64 0 0
-0.8955 -0.9135 -15.6514 -0.153 -0.376 0.914 95 56 50 0 0
-0.8891 -0.9421 -15.6654 -0.199 -0.579 0.791 82 44 37 0 0
-0.8845 -0.9656 -15.6858 -0.301 -0.765 0.569 76 30 19 0 0
-0.6062 -1.9922 -15.5127 0.534 -0.114 0.838 147 148 152 0 0
-0.5782 -2.1116 -15.5516 0.402 -0.139 0.905 153 154 157 0 0
-1.1343 0.8158 -12.4431 -0.020 -0.371 0.929 129 47 25 0 0
-1.1321 0.8002 -12.4683 0.215 -0.723 0.657 135 53 31 0 0
-1.2166 0.9999 -12.4900 0.211 -0.722 0.659 130 48 26 0 0
-1.1613 0.7943 -12.4678 0.136 -0.744 0.654 129 47 25 0 0
-1.0357 0.2940 -12.5301 0.323 -0.566 0.758 133 49 25 0 0
-0.9713 -0.8753 -15.6633 -0.429 -0.658 0.619 93 52 45 0 0
-1.0690 -0.6977 -16.3324 -0.479 -0.827 -0.295 66 64 65 0 0
-1.0660 -0.7836 -16.5853 -0.508 -0.659 0.554 111 111 115 0 0
-1.1928 0.7956 -12.4735 0.364 -0.570 0.737 129 47 25 0 0
-1.0558 0.2532 -12.5368 -0.042 -0.552 0.833 136 54 30 0 0
-1.0444 0.2008 -12.5673 -0.024 -0.539 0.842 135 53 26 0 0
-0.8296 -1.0743 -14.0939 -0.447 -0.884 0.137 97 40 27 0 0
-1.0800 0.2156 -12.5856 0.219 -0.749 0.625 137 55 28 0 0
-1.0108 -0.0461 -12.5795 0.378 -0.694 0.612 144 60 34 0 0
-1.0075 -0.0651 -12.6009 0.360 -0.522 0.773 140 56 30 0 0
-0.8642 -1.0543 -14.0784 -0.441 -0.881 0.172 81 29 17 0 0
-1.3581 1.1895 -12.4708 0.207 -0.406 0.890 130 48 26 0 0
-1.0392 -0.0612 -12.6095 0.474 -0.437 0.765 134 48 23 0 0
-1.0017 -0.1998 -12.5974 0.217 -0.203 0.955 138 54 30 0 0
-1.0020 -0.5520 -13.7611 -0.120 -0.950 0.288 62 47 40 0 0
-1.0025 -0.5605 -13.7950 -0.124 -0.911 0.394 64 45 35 0 0
-0.9903 -0.6152 -13.8230 0.102 -0.099 0.990 57 19 10 0 0
-0.8844 -1.0459 -13.9195 -0.327 -0.650 0.686 85 34 19 0 0
-1.0609 -0.0868 -12.5905 -0.162 -0.623 0.765 138 53 28 0 0
-1.0190 -0.2472 -12.5968 0.107 -0.382 0.918 142 59 35 0 0
-1.0340 -0.3102 -12.6207 0.264 -0.506 0.821 141 57 33 0 0
-1.1217 -0.0872 -12.5998 -0.026 -0.514 0.857 137 55 31 0 0
-1.1053 -0.1536 -12.6162 -0.032 -0.514 0.857 134 52 28 0 0
-1.0400 -0.7801 -13.8370 -0.171 -0.516 0.840 112 53 20 0 0
-1.1986 -0.7660 -15.6915 -0.052 -0.343 0.938 76 34 25 0 0
-1.6393 1.8024 -12.3747 0.593 -0.491 0.639 123 47 31 0 0
-1.1411 -0.1382 -12.6355 -0.163 -0.617 0.770 141 61 38 0 0
-1.0736 -0.9277 -14.3391 -0.489 -0.872 0.018 97 56 46 0 0
-1.2393 -0.7350 -15.6870 0.122 -0.267 0.956 83 36 28 0 0
-1.6655 1.7846 -12.3647 0.573 -0.418 0.705 123 50 33 0 0
-1.0272 -0.7028 -12.7297 0.154 -0.430 0.889 162 95 79 0 0
-1.0217 -0.7280 -12.7445 0.266 -0.584 0.767 159 84 58 0 0
-1.2699 -0.6754 -15.4729 -0.492 -0.843 -0.220 111 79 72 0 0
-1.7088 1.8371 -12.3339 -0.404 -0.865 0.298 120 47 29 0 0
-1.0400 -0.7707 -12.7470 0.082 -0.325 0.942 154 72 38 0 0
-1.0189 -0.9075 -12.9298 -0.105 -0.641 0.760 92 54 44 0 0
-1.1465 -0.8911 -14.3478 -0.497 -0.866 -0.047 112 71 59 0 0
-1.3061 -0.6676 -15.4891 -0.637 -0.771 -0.006 117 78 70 0 0
-1.5218 1.0220 -12.3603 -0.343 -0.448 0.825 128 46 25 0 0
-1.4974 0.9021 -12.4515 -0.199 -0.555 0.808 127 45 23 0 0
-1.3340 0.2671 -12.5532 0.437 -0.519 0.734 136 52 28 0 0
-1.0741 -0.7493 -12.7337 0.265 -0.366 0.892 153 70 38 0 0
-1.1489 -0.5660 -12.6807 0.159 -0.593 0.790 124 46 27 0 0
-1.1008 -0.7587 -12.7296 0.265 -0.366 0.892 138 63 22 0 0
-1.0877 -0.8737 -12.9344 -0.247 -0.332 0.910 55 33 24 0 0
-1.4188 -0.5230 -15.5767 -0.481 -0.874 -0.068 108 76 70 0 0
-1.4039 -0.5741 -15.5651 -0.593 -0.766 0.247 115 77 65 0 0
-1.5675 0.9329 -12.4482 -0.209 -0.838 0.504 124 42 20 0 0
-1.4497 -0.5419 -15.6102 -0.632 -0.232 0.740 113 76 64 0 0
-1.2847 -0.6689 -13.8241 -0.187 -0.539 0.821 131 78 47 0 0
-1.4895 -0.5144 -15.6009 -0.415 -0.813 0.408 110 74 65 0 0
-1.4966 -0.5076 -15.6578 -0.372 -0.127 0.919 104 67 57 0 0
-1.5596 0.6628 -12.4953 0.183 -0.530 0.828 131 46 25 0 0
-1.5243 -0.5117 -15.6111 -0.486 -0.795 0.362 103 66 57 0 0
-1.5213 -0.5312 -15.6370 -0.457 -0.756 0.468 93 57 48 0 0
-1.5883 0.6555 -12.4936 0.183 -0.530 0.828 131 47 25 0 0
-1.4519 0.1657 -12.4849 0.272 -0.564 0.780 135 53 29 0 0
-1.5633 -0.4983 -15.6340 -0.486 -0.795 0.362 96 60 52 0 0
-1.6644 0.8414 -12.4266 -0.205 -0.694 0.690 128 46 24 0 0
-1.6561 0.8080 -12.4365 -0.152 -0.409 0.900 128 46 24 0 0
-1.6157 0.6448 -12.4888 0.032 -0.410 0.911 131 47 26 0 0
-1.6239 -0.4776 -15.8628 -0.188 -0.791 0.583 74 59 55 0 0
-1.6239 -0.4896 -15.8981 -0.109 -0.914 0.390 65 59 60 0 0
-1.3119 -0.7183 -12.9611 -0.442 -0.327 0.835 52 28 27 0 0
-1.4814 -0.3957 -13.7902 -0.146 -0.437 0.888 36 8 4 0 0
-1.7578 0.9566 -12.4181 0.304 -0.462 0.833 127 45 23 0 0
-1.5662 0.2353 -12.5233 -0.087 -0.184 0.979 134 52 28 0 0
-1.6817 -0.4317 -15.6357 -0.404 -0.864 0.301 86 52 43 0 0
-1.6919 -0.4665 -15.8408 0.046 -0.638 0.769 67 59 60 0 0
-1.7014 -0.4196 -15.4622 -0.384 -0.897 -0.217 108 74 68 0 0
-1.7212 -0.3935 -15.5897 -0.420 -0.844 0.334 92 58 49 0 0
-1.5165 -0.1783 -12.5830 0.006 -0.534 0.846 133 49 24 0 0
-1.5105 -0.2048 -12.5975 0.206 -0.783 0.587 133 50 28 0 0
-1.5071 -0.2244 -12.6184 0.088 -0.445 0.891 129 49 26 0 0
-1.4165 -0.6629 -12.9513 -0.127 -0.983 0.135 47 25 23 0 0
-1.7636 -0.3481 -15.5522 -0.531 -0.806 0.260 107 73 64 0 0
-1.7624 -0.3633 -15.5831 -0.527 -0.789 0.317 93 58 50 0 0
-1.7618 -0.3769 -15.6160 -0.527 -0.789 0.317 86 55 46 0 0
-1.9441 1.3005 -12.3729 0.156 -0.502 0.851 126 46 27 0 0
-1.7581 0.6165 -12.4482 0.033 -0.536 0.844 126 44 22 0 0
-1.5827 -0.4740 -13.7746 -0.395 -0.694 0.602 80 22 3 0 0
-1.8001 -0.3298 -15.5317 -0.612 -0.765 0.202 109 75 66 0 0
-1.5177 -0.4104 -12.6489 -0.028 -0.616 0.787 133 57 42 0 0
-1.8419 -0.2983 -15.5265 -0.669 -0.718 0.192 111 76 67 0 0
-1.8432 -0.3073 -15.5647 -0.669 -0.718 0.192 97 65 57 0 0
-2.8106 4.0893 -12.4523 0.178 0.409 0.895 104 57 49 0 0
-1.8659 0.7796 -12.4440 0.237 -0.347 0.907 128 46 24 0 0
-1.8061 0.5560 -12.4822 0.120 -0.405 0.906 129 47 25 0 0
-1.5185 -0.6152 -12.9337 -0.643 -0.498 0.582 38 17 15 0 0
-1.6320 -0.6353 -14.0934 -0.405 -0.882 0.239 104 63 48 0 0
-1.8894 -0.2774 -15.6063 -0.626 -0.692 0.359 87 58 49 0 0
-1.6743 -0.5750 -14.0324 -0.315 -0.655 0.687 66 22 13 0 0
-1.6695 -0.5986 -14.0509 -0.321 -0.833 0.450 84 38 25 0 0
-1.7973 0.3035 -12.5009 0.018 -0.240 0.971 129 47 24 0 0
-1.7885 0.2696 -12.5094 0.018 -0.240 0.971 135 53 30 0 0
-1.5952 -0.5543 -12.9237 -0.485 -0.496 0.720 73 41 37 0 0
-1.7097 -0.5666 -14.0474 -0.377 -0.719 0.583 81 33 20 0 0
-1.7095 -0.5788 -14.0783 -0.486 -0.805 0.340 103 57 44 0 0
-2.0554 1.1166 -12.4351 0.208 -0.499 0.842 125 44 23 0 0
-1.9877 0.9050 -12.3714 0.156 -0.513 0.844 124 43 22 0 0
-1.7593 0.0590 -12.5183 0.039 -0.529 0.848 131 48 25 0 0
-1.7543 0.0354 -12.5357 -0.000 -0.726 0.688 133 51 28 0 0
-1.7508 0.0155 -12.5567 -0.000 -0.726 0.688 126 44 21 0 0
-1.6377 -0.5138 -12.9285 -0.540 -0.721 0.434 91 54 49 0 0
-1.6381 -0.5236 -12.9592 -0.579 -0.746 0.328 41 17 13 0 0
-1.8582 -0.0554 -13.7608 -0.053 -0.421 0.906 29 10 7 0 0
-1.7831 -0.3135 -13.7548 0.006 -0.467 0.884 45 8 6 0 0
-1.7455 -0.5576 -14.0630 -0.388 -0.802 0.454 96 47 34 0 0
-2.0428 -0.1166 -15.6661 -0.222 -0.780 0.585 100 66 57 0 0
-2.0349 -0.1484 -15.6784 -0.093 -0.097 0.991 91 58 52 0 0
-3.0239 4.3242 -12.5157 -0.314 0.386 0.867 166 155 148 0 0
-2.1706 1.4460 -12.3262 0.521 -0.617 0.590 122 50 31 0 0
-2.0845 1.1199 -12.4035 -0.212 -0.572 0.793 122 41 20 0 0
-2.0776 1.0909 -12.4178 -0.179 -0.475 0.861 124 43 22 0 0
-2.0516 1.0005 -12.4188 0.084 -0.270 0.959 125 44 23 0 0
-2.0319 0.9379 -12.4042 0.362 -0.570 0.738 126 45 24 0 0
-1.7838 -0.5423 -14.0853 -0.498 -0.795 0.345 104 63 51 0 0
-2.0747 -0.1104 -15.6312 -0.499 -0.848 0.180 97 65 57 0 0
-2.0797 -0.1109 -15.6795 -0.300 -0.759 0.578 92 59 51 0 0
-2.0658 -0.1573 -15.6751 -0.160 -0.118 0.980 84 50 43 0 0
-2.2012 1.4308 -12.3569 -0.238 -0.678 0.695 123 50 31 0 0
-2.0594 0.9269 -12.3992 0.362 -0.570 0.738 125 44 23 0 0
-2.1094 -0.0971 -15.6045 -0.570 -0.810 0.140 101 68 59 0 0
-2.1164 -0.1060 -15.6921 -0.300 -0.759 0.578 83 51 43 0 0
-2.0901 -0.2204 -15.7566 -0.374 -0.218 0.901 68 57 57 0 0
-2.2233 1.4044 -12.3395 0.254 -0.693 0.675 121 46 29 0 0
-2.2198 1.3841 -12.3615 0.254 -0.693 0.675 121 45 28 0 0
-2.2163 1.3639 -12.3836 0.254 -0.693 0.675 122 45 27 0 0
-2.1633 1.1810 -12.3862 -0.194 -0.502 0.843 126 45 26 0 0
-2.1527 1.1423 -12.3925 -0.149 -0.628 0.764 126 45 25 0 0
-1.9506 0.4316 -12.4391 0.078 -0.556 0.828 128 46 23 0 0
-1.9445 0.4051 -12.4544 0.047 -0.511 0.858 125 43 21 0 0
-2.1546 -0.0716 -15.6405 -0.531 -0.817 0.225 91 60 53 0 0
-2.1608 -0.0697 -15.6917 -0.432 -0.867 0.250 83 56 49 0 0
-2.1538 -0.0994 -15.7067 -0.399 -0.688 0.607 82 47 38 0 0
-2.1498 -0.1347 -15.7645 -0.524 -0.499 0.690 82 58 52 0 0
-2.1413 -0.1680 -15.7753 -0.538 -0.254 0.804 70 56 54 0 0
-2.2439 1.3519 -12.3781 0.150 -0.633 0.760 121 44 27 0 0
-1.9212 0.1885 -12.5381 0.193 -0.644 0.741 131 49 28 0 0
-2.2187 0.0115 -15.6935 -0.496 -0.804 0.328 93 60 52 0 0
-2.2085 -0.0518 -15.7686 -0.606 -0.617 0.503 87 51 42 0 0
-2.1916 -0.1181 -15.7908 -0.582 -0.468 0.665 69 55 52 0 0
-2.0815 0.6614 -12.4559 -0.026 -0.478 0.878 128 46 25 0 0
-2.0751 0.6337 -12.4708 -0.026 -0.478 0.878 129 47 26 0 0
-1.7970 -0.3902 -12.6737 0.152 -0.362 0.920 145 71 27 0 0
-2.2588 0.0370 -15.6805 -0.432 -0.871 0.236 92 60 55 0 0
-2.2579 0.0087 -15.7465 -0.497 -0.759 0.421 84 49 43 0 0
-2.2526 -0.0168 -15.7664 -0.552 -0.711 0.436 89 52 42 0 0
-1.6092 -2.6000 -16.7971 -0.129 -0.983 0.129 204 204 206 0 0
-1.6135 -2.6040 -16.8459 -0.019 -0.995 0.100 204 204 206 0 0
-2.1758 0.9106 -12.3646 0.428 -0.717 0.551 127 46 24 0 0
-1.9667 0.1349 -12.5382 0.151 -0.742 0.653 130 48 27 0 0
-2.0877 0.0781 -13.7571 -0.261 -0.287 0.922 48 16 12 0 0
-1.6404 -2.5916 -16.7639 -0.017 -1.000 0.025 201 201 203 0 0
-2.2000 0.8689 -12.4112 0.065 -0.702 0.709 125 44 23 0 0
-1.8669 -0.3584 -12.6744 -0.222 -0.666 0.712 128 57 25 0 0
-2.3459 0.0775 -15.7405 -0.650 -0.699 0.297 84 52 45 0 0
-2.3458 0.0641 -15.7745 -0.654 -0.618 0.436 87 54 46 0 0
-1.6723 -2.5952 -16.7674 -0.207 -0.978 -0.033 203 203 205 0 0
-2.1788 0.1650 -13.7692 -0.263 -0.453 0.852 43 15 9 0 0
-2.1378 0.0294 -13.7624 -0.107 -0.276 0.955 36 5 1 0 0
-2.0537 -0.3416 -13.9885 -0.470 -0.770 0.432 75 30 23 0 0
-2.2008 -0.1769 -14.8410 -0.358 -0.801 0.480 116 75 65 0 0
-2.3843 0.0457 -15.8594 -0.687 -0.623 0.375 63 51 49 0 0
-2.1043 0.3005 -12.5064 0.071 -0.332 0.941 132 50 28 0 0
-2.0724 0.1761 -12.5508 -0.237 -0.703 0.671 127 45 24 0 0
-2.1228 -0.1211 -13.7449 -0.299 -0.687 0.662 58 9 4 0 0
-2.0926 -0.3262 -14.0105 -0.389 -0.818 0.423 77 29 16 0 0
-2.2385 -0.1676 -14.8577 -0.541 -0.630 0.557 109 71 61 0 0
-2.4383 0.1428 -15.7794 -0.645 -0.658 0.388 84 54 48 0 0
-2.4338 0.1055 -15.8359 -0.678 -0.652 0.339 71 51 47 0 0
-2.2951 0.8678 -12.4240 0.063 -0.486 0.872 123 40 20 0 0
-2.2880 0.8387 -12.4380 -0.144 -0.470 0.871 123 41 20 0 0
-2.2641 0.7677 -12.4155 0.056 -0.857 0.512 123 41 20 0 0
-2.1051 0.1795 -12.5588 -0.237 -0.703 0.671 126 45 22 0 0
-2.4488 0.0589 -15.7896 -0.597 -0.653 0.466 57 47 45 0 0
-2.2947 0.7645 -12.4174 0.056 -0.857 0.512 124 42 21 0 0
-2.2774 0.1900 -13.7248 -0.242 -0.301 0.923 41 10 5 0 0
-2.2021 -0.0627 -13.7294 -0.366 -0.593 0.718 43 5 3 0 0
-2.4953 0.0849 -15.8263 -0.685 -0.623 0.377 53 47 49 0 0
-2.0589 -0.3031 -12.8730 -0.201 -0.563 0.801 23 9 8 0 0
-2.3114 0.2051 -13.7025 0.382 0.159 0.910 44 12 6 0 0
-2.5688 0.2129 -15.8304 -0.586 -0.746 0.318 72 52 46 0 0
-2.3458 0.7338 -12.3999 0.434 -0.754 0.493 128 46 25 0 0
-2.1047 -0.2449 -12.8535 -0.260 -0.489 0.833 105 70 62 0 0
-2.0982 -0.2723 -12.8675 -0.260 -0.489 0.833 40 18 16 0 0
-2.2589 -0.2053 -14.0287 -0.569 -0.799 0.193 79 33 25 0 0
-2.3961 0.7907 -12.4148 0.458 -0.691 0.559 126 45 24 0 0
-2.3082 0.4718 -12.4873 0.186 -0.787 0.588 126 44 23 0 0
-2.2397 0.2364 -12.5116 -0.016 -0.559 0.829 134 52 31 0 0
-2.3771 0.2300 -13.6526 0.742 -0.320 0.590 24 4 1 0 0
-2.3384 -0.1607 -14.0429 -0.560 -0.827 0.052 89 44 30 0 0
-2.3822 -0.1101 -14.2731 0.060 -0.954 0.295 102 65 56 0 0
-2.6910 0.2623 -15.8578 -0.584 -0.803 0.122 42 35 35 0 0
-2.6866 1.5800 -12.3080 -0.200 -0.168 0.965 119 44 25 0 0
-2.2132 -0.1991 -12.8725 -0.402 -0.791 0.461 42 16 12 0 0
-2.2116 -0.2148 -12.8979 -0.402 -0.791 0.461 27 6 1 0 0
-2.3785 -0.1317 -14.0350 -0.509 -0.856 0.089 85 38 25 0 0
-2.7339 1.6278 -12.3124 0.286 -0.189 0.939 119 44 25 0 0
-2.7131 1.5650 -12.3001 -0.426 -0.626 0.654 119 44 25 0 0
-2.6883 1.4449 -12.3963 0.506 -0.487 0.712 119 44 25 0 0
-2.6835 1.4212 -12.4157 0.411 -0.534 0.739 118 43 22 0 0
-2.5237 0.9029 -12.4082 0.400 -0.262 0.878 123 44 22 0 0
-2.2810 -0.1261 -12.9884 -0.545 -0.820 -0.176 25 6 1 0 0
-2.4608 0.2080 -13.6048 0.469 -0.737 0.487 23 4 1 0 0
-2.4437 0.1310 -13.6568 0.141 -0.764 0.630 26 3 1 0 0
-2.4349 0.0855 -13.6971 0.048 -0.743 0.667 44 5 2 0 0
-2.4112 -0.1196 -14.0094 -0.316 -0.938 0.141 78 34 21 0 0
-2.7637 1.6207 -12.3110 0.265 -0.221 0.939 120 45 26 0 0
-2.7543 1.5859 -12.3216 -0.443 -0.532 0.722 119 45 26 0 0
-2.3178 -0.1021 -12.9758 -0.572 -0.802 -0.172 29 8 4 0 0
-2.3297 -0.0864 -13.0317 -0.507 -0.837 -0.209 27 7 3 0 0
-2.4898 0.2117 -13.5713 0.469 -0.737 0.487 30 11 6 0 0
-2.4645 0.0906 -13.6650 -0.030 -0.960 0.279 35 3 1 0 0
-2.4675 0.0852 -13.7024 0.021 -0.831 0.555 54 8 2 0 0
-2.4415 -0.1130 -13.9782 -0.207 -0.959 0.194 71 30 18 0 0
-2.4484 -0.1099 -14.0253 -0.157 -0.985 0.069 91 49 38 0 0
-2.7580 1.4556 -12.4140 -0.027 -0.389 0.921 118 43 24 0 0
-2.6296 1.0507 -12.3873 -0.120 -0.376 0.919 121 44 25 0 0
-2.5933 0.9040 -12.4575 0.066 -0.606 0.793 123 45 23 0 0
-2.4893 0.1475 -13.4715 0.024 -0.971 0.238 36 13 8 0 0
-2.4970 0.0902 -13.6701 -0.030 -0.960 0.279 50 6 1 0 0
-2.4787 -0.1033 -13.9940 -0.056 -0.989 0.134 81 39 25 0 0
-2.5112 0.5377 -12.4563 0.261 -0.455 0.851 121 43 22 0 0
-2.4094 -0.0373 -13.0483 -0.523 -0.835 -0.170 29 10 3 0 0
-2.5129 0.1392 -13.4267 0.207 -0.967 0.147 36 9 5 0 0
-2.5414 0.1670 -13.5809 0.416 -0.877 0.241 38 10 6 0 0
-2.5358 0.1038 -13.6893 -0.074 -0.940 0.333 75 23 7 0 0
-2.5352 0.0898 -13.7182 -0.119 -0.877 0.465 95 46 19 0 0
-2.8267 1.4633 -12.4294 -0.252 -0.568 0.784 118 45 26 0 0
-2.3839 -0.0605 -12.6680 -0.497 -0.642 0.584 67 18 5 0 0
-2.5364 0.1435 -13.3523 0.023 -0.997 0.072 42 14 8 0 0
-2.5681 0.1658 -13.5426 0.510 -0.838 0.192 38 9 5 0 0
-2.5691 0.1555 -13.5750 0.416 -0.877 0.241 40 10 4 0 0
-2.7518 0.2283 -14.8043 -0.604 -0.794 0.075 91 44 31 0 0
-2.7580 0.2286 -14.8511 -0.604 -0.794 0.075 81 31 19 0 0
-2.5739 0.1423 -13.3985 -0.054 -0.991 0.119 39 8 2 0 0
-2.5995 0.1516 -13.3289 -0.050 -0.989 0.137 60 28 15 0 0
-2.6035 0.1481 -13.3674 0.031 -0.991 0.132 71 36 21 0 0
-2.6071 0.1437 -13.4052 0.043 -0.994 0.104 73 38 24 0 0
-2.7460 0.8846 -12.4638 -0.108 -0.733 0.671 120 44 23 0 0
-2.7422 0.8636 -12.4850 -0.015 -0.440 0.898 120 44 23 0 0
-2.8891 0.3301 -14.8383 -0.240 -0.968 0.071 107 65 47 0 0
-2.9415 1.2356 -12.3840 -0.080 -0.720 0.689 119 44 25 0 0
-2.6702 0.1450 -12.9311 -0.325 -0.944 -0.054 87 50 44 0 0
-2.7174 0.1875 -13.1765 -0.151 -0.941 0.302 78 46 38 0 0
-2.7199 0.1805 -13.2112 -0.110 -0.970 0.219 79 47 38 0 0
-2.9678 1.2212 -12.3764 0.079 -0.905 0.418 119 44 25 0 0
-2.6901 0.1303 -12.8817 0.157 -0.974 -0.163 98 60 50 0 0
-2.7072 0.1432 -12.9752 0.157 -0.974 -0.163 77 40 29 0 0
-2.7918 0.2036 -13.4482 -0.491 -0.865 0.104 89 54 40 0 0
