ply
format ascii 1.0
element vertex 714
property float x
property float y
property float z
property uchar diffuse_red
property uchar diffuse_green
property uchar diffuse_blue
end_header
-2.2441343294023386 4.86804644208748 -13.781108224348253 87 52 49
-2.2319680500847654 4.874608212522455 -13.806984233861696 80 40 37
-2.2204065379036915 4.88100845832915 -13.83345081934653 83 38 32
-2.210175973097326 4.887050001949678 -13.861180356898448 100 51 38
-2.2213388403677903 4.8872792014144695 -13.908678927036954 121 75 58
-2.2406627417011205 4.885305097101171 -13.963877917037735 130 93 81
-2.2984701781202643 4.872902845820511 -14.054950465194914 126 97 89
-2.3104453893695225 4.872965270654447 -14.103814435025452 115 82 76
-2.317122686725986 4.87447754672683 -14.147902109818077 114 75 72
-2.364588806887957 4.864958111847736 -14.230252978333176 114 75 72
-2.3807600658561583 4.863935150041225 -14.283617112967711 112 76 71
-2.4209966842127133 4.85642376758477 -14.359787615955916 111 77 73
-2.440868975874384 4.85443952126059 -14.417076079486751 113 83 79
-2.448640339767596 4.855738746007692 -14.463134460610704 112 87 83
-2.4740298133769114 4.852300678125694 -14.526035640265466 114 91 87
-2.4824963004784095 4.8534421513889825 -14.57309092922063 117 96 93
-2.5206994165726067 4.846593231398023 -14.648636023096866 122 105 102
-2.54372484037527 4.84385278188412 -14.709983397096831 130 115 113
-2.5419005074095926 4.847809059908506 -14.74774479682709 141 131 128
-2.5581433421364963 4.846923726519867 -14.802965544901788 155 148 144
-2.5706753687361923 4.847050690910475 -14.854804149956667 165 160 157
-2.522375016676312 4.863495012744872 -14.848034637092795 172 169 165
-2.514431481782723 4.869120707955041 -14.88022013873966 183 181 179
-2.5247385652270666 4.869869907521553 -14.930205004490169 195 195 193
-2.599115120681963 4.853509247478353 -15.0427807402724 197 198 198
-2.5706959325185013 4.86464396021267 -15.055430026168114 197 197 199
-2.57896650207137 4.865985941041137 -15.103983086841092 196 196 198
-2.5359773427641494 4.895303336195992 -15.265308255201301 172 169 167
-2.4516309455142364 4.921284968752305 -15.22231182962198 151 141 138
-2.3635630494528233 4.948222372828752 -15.17524593888073 133 118 114
-2.264198295875532 4.978119278547431 -15.116490255443164 127 106 101
-2.044147841268883 5.043434702431127 -14.976187307456328 108 79 72
-1.9281566378060555 5.077602424053087 -14.899258993518067 108 74 66
-1.9605435706680368 5.0725655092042015 -14.97207196929927 107 69 60
-1.895935386519536 5.093127795257072 -14.946668655310678 104 64 55
-1.8200699298399892 5.116633323556558 -14.909549381541321 103 60 47
-1.783312220389278 5.129819401226467 -14.912052640973783 98 54 40
-1.6659080976851222 5.167694358553457 -14.871701225693815 98 55 46
-1.7059102007437712 5.160700976367666 -14.952833353069831 96 57 49
-1.7135493970403095 5.162221929818392 -15.000887741616463 92 57 50
-1.7410160461295723 5.158563465704283 -15.069628991146221 62 31 27
-1.7537747553992675 5.158777313570589 -15.123369461063572 72 41 39
-1.7414648500001304 5.1655608601379575 -15.151195943995369 70 43 42
-1.7387175978290585 5.169850848513513 -15.189050197039798 64 46 45
-1.717042054915332 5.1790880420966445 -15.207186169400348 61 50 48
-1.769970244477312 5.168878717665082 -15.303636099057147 42 34 32
-1.7794256218394136 5.170026739009634 -15.354742362475587 18 10 10
-1.7762308264837579 5.17448066443005 -15.392665736820298 15 6 7
-1.8074563675550435 5.169997919071658 -15.467125648742279 14 5 6
-1.8527688910697169 5.161884200594736 -15.556840454415353 13 4 5
-1.8583674041672742 5.164104856909818 -15.604665057300613 14 5 6
-1.8318765719826162 5.189470269904956 -15.787282014505049 20 11 12
-1.849251086643859 5.188721785521141 -15.84861317700135 29 23 23
-1.9155412377441854 5.175395311481006 -15.96325968843383 41 37 36
-1.9091654143259005 5.180810033667112 -15.999344115880447 39 31 31
-1.9463756363671516 5.175030041847659 -16.083081337754535 23 10 10
-1.9410084522325395 5.180212422774321 -16.120573084791314 21 8 7
-1.923115581453211 5.188615566620129 -16.144411990011882 21 8 7
-1.9073531730610425 5.196474345895094 -16.17061236280402 29 13 12
-1.8618284219708725 5.211953360240383 -16.164000154909374 41 22 21
-1.8473481784026236 5.219481614818013 -16.191588516043215 49 27 26
-1.8205768936270328 5.230152448370431 -16.20557633837894 44 23 24
-1.8045080252237016 5.238089378768266 -16.23143526718329 37 18 18
-1.7858235209262716 5.246695441261541 -16.25440405013613 34 15 14
-1.7685827820473898 5.254935004484743 -16.279000549346215 31 14 14
-1.740121712409917 5.266030038947503 -16.29102914257067 25 12 11
-1.7390195011165703 5.270170277974424 -16.33379114343616 29 19 17
-1.7445269646484123 5.272643861287564 -16.38413271454593 45 38 36
-1.750055461941173 5.2751265199124635 -16.434662310733053 64 51 50
-1.7543764226509788 5.277929440845214 -16.483987019667033 73 53 54
-1.766550917401883 5.278759693293066 -16.542404668082995 80 57 56
-1.7815736179609623 5.278888580506756 -16.604280206412625 86 67 63
-1.826413412497308 5.271511777594391 -16.700494162282475 115 102 97
-3.399980136033771 4.341095138449492 -12.76408986369401 212 214 216
-3.2479599269239547 4.393546179990354 -12.74865714932871 184 178 175
-3.1553701301119887 4.422969503568028 -12.710149118803042 129 116 112
-3.107616723625702 4.439576222674052 -12.706807323406476 101 80 75
-3.050418420819382 4.458864029362039 -12.695841182460079 98 69 62
-3.0032161971021423 4.4752898726739865 -12.692662619521684 95 61 54
-2.952188631865466 4.492793700245266 -12.686304897088561 93 54 47
-2.898964357293962 4.51090997838954 -12.678045565828391 96 52 44
-2.6833173462548103 4.592927060656612 -12.744000651368665 99 46 34
-2.4376995364578966 4.665390915642702 -12.577357925937653 101 44 33
-2.4171638489022502 4.67413811386764 -12.594449031237676 101 43 31
-2.41726533595593 4.677054894051066 -12.628519944247087 103 41 29
-2.335744538298078 4.70301974912682 -12.595296929666993 106 41 30
-2.255209639838464 4.731616659841123 -12.596470251902193 134 66 30
-2.2160665962885138 4.7455852893030706 -12.597841751405412 138 76 42
-2.2351306974299225 4.7431614318930935 -12.647707189016565 106 47 23
-2.3377771737475443 4.720224753650216 -12.802123294383051 95 38 24
-2.332321134155286 4.724746700559029 -12.832026077042507 97 35 22
-2.313256828780634 4.733093453107301 -12.850503765565303 91 30 17
-2.2942374472292006 4.741427459199389 -12.86901778672817 90 32 19
-2.275016691326859 4.749817773431638 -12.887359380792589 92 36 23
-2.2962105577419236 4.74688955598998 -12.940100361326085 91 40 25
-2.232513745162383 4.767734354357708 -12.920568390351217 93 46 35
-2.1855973875788317 4.783868077846289 -12.91518619638893 95 53 47
-2.1335468382273994 4.801424813285001 -12.905262373885453 99 59 52
-2.1499771304389186 4.799845859207075 -12.954123888450301 98 61 53
-2.1344026453151517 4.807211487593271 -12.975528546178161 99 61 54
-2.142195546456689 4.808063271058073 -13.017173791948135 99 61 54
-2.1462689549531753 4.809962373940632 -13.055718194109033 99 61 54
-2.155920179375143 4.810318180551587 -13.099227482676556 101 62 55
-2.1333251747525512 4.8196563147830505 -13.114729663733904 102 62 56
-2.126382519565826 4.824641886616993 -13.143912690623175 101 62 56
-2.13727188513768 4.82467936720678 -13.188803868883108 100 64 58
-2.1414568827250813 4.826590210386588 -13.227939333425056 99 64 58
-2.1215095905131025 4.83520364950535 -13.245889278142164 99 64 58
-2.1683434469829574 4.825309772833833 -13.322935887554035 100 64 58
-2.1164546863526805 4.842781539228238 -13.312692156839695 100 65 59
-2.1052480274697922 4.848982483939865 -13.338490390494712 101 66 60
-2.1944176613424653 4.827434141436925 -13.453903680337412 100 66 59
-2.1734919176208893 4.836348353172031 -13.471329438679883 99 64 58
-2.185283375644573 4.836230004118649 -13.51810553639255 97 63 57
-2.2100288025445254 4.832551766028227 -13.576692247513945 97 63 56
-2.192186222997692 4.840630717982189 -13.597067815980925 97 63 56
-2.2121586436667404 4.838295784902177 -13.651667799297474 97 62 57
-2.204338703103665 4.8436259905979515 -13.681245789582228 94 60 55
-2.205794479035255 4.846410624417775 -13.719321112644119 90 58 54
-2.1966559511110613 4.85211508848284 -13.747834170750544 91 56 53
-2.2008190348272807 4.85417228143681 -13.788568888127642 86 50 44
-2.1885002409240024 4.860760928970203 -13.814300220243513 80 38 31
-2.1773566233858315 4.867030541049221 -13.841148185688272 90 41 32
-2.173039081088817 4.87143430556393 -13.87433548212347 116 62 46
-2.2141370875597706 4.86341689079104 -13.949616369337804 126 77 65
-2.238369084517109 4.860037927681005 -14.009560185492932 130 97 87
-2.2647739175644475 4.856084799695549 -14.071749918240217 123 92 83
-2.27239418854823 4.857279947635181 -14.116652419817436 114 77 69
-2.308707335310166 4.8506611749311785 -14.188536715555081 115 75 70
-2.3255499849465533 4.849373789262908 -14.242446179270262 110 72 67
-2.3472477329389623 4.846780782048182 -14.301112360838097 108 71 65
-2.36507220941394 4.845260303780561 -14.356340747573206 107 73 68
-2.382986703156288 4.8437323732558255 -14.411850662235292 107 77 72
-2.3997836775164636 4.8425251159414024 -14.4664982413031 110 82 77
-2.402038464633758 4.845281235259215 -14.507506709889245 110 84 79
-2.437234874111211 4.839114774841622 -14.580050839182324 111 87 84
-2.441805939804862 4.841271135920442 -14.623595545534613 110 88 85
-2.4628090075692413 4.838990491503757 -14.683029849899711 110 91 88
-2.4563420061257135 4.844158796639636 -14.716263407466215 113 97 93
-2.4695230266355166 4.844023558582227 -14.76851787729925 117 100 97
-2.4478257625054836 4.853321414869919 -14.787220554473052 122 107 105
-2.448703311111094 4.856528230638745 -14.827806646975908 132 121 120
-2.5393413122693316 4.835549829522017 -14.955791453678696 161 156 155
-2.5651140967829065 4.832092486517947 -15.021121517992714 196 193 195
-2.5522008128070346 4.839066490721536 -15.04887229776104 197 196 199
-2.560166612801697 4.840430686589953 -15.097136146892018 196 196 198
-2.599595520534812 4.833356823975555 -15.176490096875083 196 196 198
-2.6488738649819963 4.8272254224083735 -15.306931962257782 186 184 185
-2.5155037489798535 4.866523042358158 -15.215866540433957 167 160 158
-2.4802329296543317 4.879509240663365 -15.221711192349751 146 134 132
-2.3728975113652293 4.911760361793725 -15.155630093411322 134 118 112
-2.288422104552825 4.937862000022097 -15.111922445053063 121 101 94
-2.1937645554974257 4.966650952035579 -15.057652295060187 112 86 81
-2.0457956313984407 5.009622595101668 -14.949377759020035 106 77 71
-1.9554253396580936 5.037184511417359 -14.89845276462394 105 73 65
-1.92589039901394 5.048516560932068 -14.908628514520698 104 68 59
-1.9345371184714244 5.049688328786738 -14.957451979774113 103 64 54
-1.859532958776465 5.073103144464932 -14.921410085527771 103 61 51
-1.8270256913655292 5.085208416849051 -14.92837270759739 101 58 45
-1.749874998946142 5.109149100316764 -14.889634989742056 99 55 41
-1.573925498036755 5.166120797268467 -14.828668256864528 96 56 48
-1.6306028822681924 5.15459606629183 -14.92708531306165 93 56 48
-1.6908621765284853 5.142163482316591 -15.029650791052035 62 29 25
-1.7518122943431758 5.1295884504592335 -15.13339303919629 69 38 36
-1.7060307529580356 5.145179313536468 -15.126379993773707 69 42 42
-1.6931071579687638 5.152106810712498 -15.153552034101565 66 45 46
-1.7179975704976824 5.149092096969232 -15.22038705789613 63 50 50
-1.7712303578145283 5.138652538537132 -15.317262389563284 37 30 28
-1.6965762930079702 5.161821733884389 -15.279815650110422 16 10 8
-1.7250950239329725 5.157905293257174 -15.351059258931592 14 6 6
-1.819797796109147 5.136672890108627 -15.492708644299132 13 4 5
-1.8629214056967962 5.128999759972197 -15.580232269070752 13 4 5
-1.8387548953875905 5.157259513302529 -15.807653883903171 19 10 11
-1.8624225511739843 5.154799607818848 -15.875898584376337 27 21 21
-1.8989932414949422 5.1490118888421295 -15.95842385233373 41 36 35
-1.9516384861661074 5.13908378502121 -16.058802033524927 40 30 29
-1.9449970480007934 5.144559079120809 -16.09486573611278 21 8 8
-1.9457037937705381 5.1481392735602345 -16.139062877091636 20 7 7
-1.9268952965038597 5.1567781461943625 -16.161955726868587 18 8 8
-1.9104704327546322 5.164802153991358 -16.18748549442767 21 9 8
-1.8675240491128662 5.17967391223276 -16.183750013308796 30 13 13
-1.8319817110431105 5.192624768196567 -16.188078305391528 38 18 18
-1.8175139855745872 5.200139351063061 -16.215720377297224 43 23 22
-1.70902517357431 5.231849891188828 -16.138692511572746 41 20 19
-1.684412041036583 5.241953721003565 -16.154790475012526 38 18 16
-1.7606575207153234 5.226157501261439 -16.283810941604152 36 17 14
-1.7434786232660482 5.234377231437704 -16.308520598487473 34 14 13
-1.7204642246448465 5.244094111816999 -16.326680824403688 28 12 12
-1.7140655547901371 5.249556724266652 -16.363589359452078 26 18 18
-1.7130404109809962 5.2536531486756655 -16.406672355974425 43 37 35
-1.7194494975368606 5.255861476017617 -16.458320900547836 62 48 47
-1.731204770273587 5.256720608517878 -16.516228368009312 74 53 53
-1.7514625241409902 5.255430568256028 -16.584050259501403 80 58 57
-1.7613444312381894 5.2568047780135165 -16.640252668287864 88 69 65
-1.8280137167335981 5.243753879947508 -16.761853925022116 117 105 99
-3.268889679447169 4.355436669081332 -12.738973598853406 178 171 166
-3.1764237907284327 4.384977849284586 -12.700718488933584 123 107 103
-3.1087572569147044 4.407366871406064 -12.681728260627336 99 77 72
-3.0552674315391077 4.425667451285552 -12.673752492580999 96 66 59
-3.0120792007365034 4.440999400076372 -12.67380686891467 95 59 52
-2.965200266093844 4.457380314957064 -12.670813856519135 95 55 49
-2.9184911462747714 4.473701928397551 -12.667832118135216 97 54 47
-2.87070544143564 4.490321176943233 -12.663863898138118 99 53 45
-2.78941827215031 4.5194419421123655 -12.66704557748914 98 51 41
-2.7313567044921676 4.5389669194531415 -12.65441903320612 98 50 39
-2.5115160829538685 4.607568168790627 -12.54437847618336 98 49 36
-2.5472451446493305 4.6061210052452815 -12.67560886969489 99 42 31
-2.46342295879465 4.632905821528851 -12.64098992699899 98 39 28
-2.39810955138754 4.654401473483634 -12.621319101422078 101 39 28
-2.223950754067529 4.715500181570915 -12.613031328368123 133 65 33
-2.228802561403347 4.717036348790041 -12.651094064952993 119 54 30
-2.2303896653553847 4.7195063751488915 -12.686530906758453 92 33 19
-2.2571800291179085 4.7148521863322514 -12.743233717991663 90 32 21
-2.309741559189267 4.70292839908625 -12.821858644527964 89 29 17
-2.2557879127456966 4.7211331579228535 -12.810840370700108 86 27 14
-2.251074948298293 4.725418803910779 -12.841367636817548 85 26 14
-2.206533338348374 4.740949080593284 -12.838127734916359 89 31 18
-2.2869320693420865 4.721238087433669 -12.941193773940078 89 35 21
-2.303111281210177 4.719662984779424 -12.989873388206837 91 41 30
-2.2819678383406865 4.72861119879462 -13.006749107546526 98 54 46
-2.1279026391491387 4.774958516221972 -12.909436210359086 100 60 53
-2.116036451495667 4.781269137802681 -12.933962452237747 100 60 53
-2.071491783100769 4.7967638356828 -12.93029421411189 100 60 52
-2.099579448614416 4.79185614778603 -12.98941425274143 100 60 52
-2.1346301404444836 4.785014298910612 -13.054807693139411 99 59 51
-2.144470666625934 4.785262085772333 -13.098502551358255 96 55 47
-2.163896388943432 4.7828366241548474 -13.150708135534519 97 55 47
-2.1686394964062505 4.784537066310269 -13.190239359372555 98 56 48
-2.165544007864636 4.78843991077178 -13.223000736483716 98 58 50
-2.1359973786904902 4.799742577026598 -13.232542097232773 98 59 50
-2.15672755804757 4.79699868454615 -13.286435998703077 100 61 52
-2.1633418828921194 4.798210967548199 -13.328022518491347 99 61 54
-2.118211293908712 4.813864331749321 -13.323778627568558 98 62 53
-2.097927071132626 4.8225828652633265 -13.341533497956952 100 65 57
-2.0843495199120254 4.829433336688209 -13.365271103141652 101 67 60
-2.150756975128365 4.8140311907554425 -13.460666428249304 101 66 60
-2.155393263689922 4.815839339611236 -13.501013069852991 99 66 59
-2.2008958035680797 4.806304487231317 -13.578279691293634 100 65 59
-2.1992909730104664 4.809874166499254 -13.613329261594824 102 66 60
-2.202240599759893 4.812188050976794 -13.652591137730461 100 65 59
-2.219047444349498 4.8106706940625585 -13.704547619932807 98 63 58
-2.1564723368993377 4.8311538038518815 -13.684400926970469 95 61 56
-2.1547004254520328 4.834791798140871 -13.719555861211994 93 60 55
-2.155499988228426 4.837726291816912 -13.757153679386278 90 55 50
-2.1551626459535833 4.84098361887153 -13.793809304797769 83 44 37
-2.151046926707297 4.8452923318633525 -13.82708230806142 85 39 30
-2.1457930411975425 4.849921647281117 -13.85938182592835 103 49 38
-2.1849236463108106 4.842322814356364 -13.932847496649792 120 68 55
-2.214949972460218 4.837257216495399 -13.998160652795084 125 86 75
-2.2639483867729444 4.826992230135546 -14.081391687461526 128 97 87
-2.276040439925485 4.826906093326011 -14.130520535257862 122 85 77
-2.268616420890809 4.832196218690916 -14.161542436526112 116 74 70
-2.2875620288255414 4.830252282573179 -14.217382911960227 115 72 68
-2.291385775152191 4.832473678417813 -14.259188482059919 109 68 62
-2.310695338216182 4.830461031851023 -14.315735238976107 106 69 61
-2.3301089004549347 4.828437374716359 -14.372584556533692 107 71 65
-2.351775817320371 4.8258146923453324 -14.431778346329125 105 74 69
-2.368872902383131 4.824460156427241 -14.486840386159958 106 78 73
-2.3534369640574884 4.8320100485359845 -14.511043990798825 107 81 77
-2.370786867745417 4.830612571484336 -14.566652580844956 104 80 76
-2.3754599958431393 4.832689445576285 -14.610291392939303 100 79 75
-2.352226180628058 4.842382449423475 -14.62720130502267 99 81 77
-2.3666330616701323 4.841825095259473 -14.680422638602554 102 83 79
-2.3911657115038247 4.838528742896129 -14.743627847077622 100 81 79
-2.5062806263337465 4.8140589043128985 -14.935035463968118 125 115 113
-2.5368125469300438 4.8092114529596035 -15.004993411983133 182 175 177
-2.526008539205073 4.815594951436861 -15.034774980914868 197 195 198
-2.5322388780758924 4.8173683113727055 -15.081324325728094 196 195 198
-2.5451599813545913 4.81734309594824 -15.134602243090253 195 192 195
-2.572851623012998 4.813339012889331 -15.20263683785572 187 183 184
-2.5112972149303814 4.833471554315054 -15.182626515667103 159 152 151
-2.4430559349423056 4.855390039555038 -15.155756189500494 142 130 128
-2.4094905045601176 4.867932993221404 -15.163124973566653 133 115 112
-2.344938341814155 4.888820398012205 -15.139504409997208 121 98 93
-2.247504327042232 4.918540499201409 -15.082741107133728 109 83 78
-2.1009853570998085 4.961428723434242 -14.976304358421556 105 74 68
-2.0365815383853834 4.982185934976383 -14.951777842438696 103 71 63
-1.9940596247173517 4.997045776715411 -14.949079379930115 101 68 59
-1.954041945306348 5.011222934860447 -14.948788214526745 102 66 56
-1.9618041562342219 5.012582486457148 -14.996854503662925 101 62 51
-1.9207121814819015 5.027039548609281 -14.995379203309454 102 59 47
-1.7715560022084489 5.077261842595709 -14.963689799062994 98 52 40
-1.7364037565945862 5.096986782925605 -15.048384255062679 93 55 47
-1.6998186436310787 5.1101874336354935 -15.050916719464302 61 26 23
-1.6649530936141836 5.1229226544786055 -15.055141240503936 69 37 35
-1.6392027282477821 5.133229220373705 -15.068785267798843 70 43 44
-1.6363844962251548 5.137447156908557 -15.10637730272696 67 47 48
-1.7240641295305563 5.117679853684256 -15.238973016015414 62 49 49
-1.768898309435344 5.109314978926589 -15.327137000448074 51 42 40
-1.629784122652774 5.14966089841143 -15.22170048721705 19 11 9
-1.8320176419092435 5.099701434006024 -15.476525695380897 14 6 6
-1.8838017877627902 5.089591630134147 -15.573119665759865 12 3 4
-1.8656429663925493 5.09797447698652 -15.595764997007597 12 3 4
-1.8337924699736474 5.109967878212419 -15.603823868809632 13 4 5
-1.838124143413399 5.126929890630338 -15.819945178358317 21 11 10
-1.8747395016808293 5.1209852036436665 -15.902307169786454 29 21 21
-1.9157083236625452 5.11392999677321 -15.989745321920175 39 34 33
-1.9634635578920188 5.105131359765532 -16.084952858076726 34 26 24
-1.9444241597837237 5.113822975851668 -16.107554458810775 18 8 7
-1.9432379566344382 5.117854678196936 -16.14973737516086 18 8 7
-1.9280226216363747 5.125555357199859 -16.176617222679297 17 7 7
-1.9172325736601064 5.1321059570538115 -16.208408861288802 18 8 8
-1.8709015826046542 5.147912273419397 -16.2009748443024 21 9 8
-1.832645053019454 5.161605668354213 -16.202333977444024 27 12 11
-1.8176970737615115 5.169235398747372 -16.229493445664204 35 16 14
-1.6993255825485098 5.203705181271206 -16.141409738117442 40 20 19
-1.6722896289704998 5.214447040360998 -16.154808945090387 43 20 19
-1.7562467631555432 5.196443173683464 -16.29257236753041 41 18 17
-1.7375916690848934 5.205039690174166 -16.315656323070193 39 18 17
-1.7150030099409515 5.2146538182067115 -16.33431965206086 35 16 16
-1.6807638108753231 5.2272745588889755 -16.339803667690852 26 13 13
-1.6824865877488184 5.2306139905112845 -16.38596000412369 31 22 21
-1.6874667918232653 5.233126352337338 -16.435959652409167 44 35 34
-1.6982766880763913 5.234152386370713 -16.492765647087886 62 48 47
-1.7185449358006792 5.232764073618324 -16.560581117920954 74 54 53
-1.7299404070610898 5.233676649386115 -16.618489483524456 79 58 54
-1.7515839250367033 5.231977937721772 -16.688380706694204 87 70 64
-1.8226967258924374 5.217625870760283 -16.81555270969359 119 109 104
-1.638917879839239 5.288001311822089 -16.875756060740216 172 170 171
-3.2924535144197677 4.31650351816409 -12.731305389819315 169 164 157
-3.2091067045703356 4.343558007131863 -12.700378714331048 116 103 95
-3.1388222086074564 4.366809120677464 -12.679464826174577 97 74 68
-3.0203497435378788 4.406868786451138 -12.654472246576283 96 59 52
-2.979967467797657 4.421431429253061 -12.656695012151474 97 56 49
-2.933665659494669 4.437694323453451 -12.654103999907573 99 55 49
-2.8924897788002006 4.452468598995876 -12.655488426791473 100 54 47
-2.8553231632794667 4.466078965716655 -12.65998723217405 100 53 45
-2.782777034785072 4.489872321983405 -12.635964091234424 101 53 44
-2.7328170168546264 4.507144364128364 -12.629906199644452 100 52 42
-2.5839241924135536 4.552861089525068 -12.543732836283404 99 50 38
-2.5781248547986793 4.566042342795527 -12.675247636226409 101 45 34
-2.478035901088068 4.597631436324712 -12.627462415515783 99 42 31
-2.4052665828381903 4.6213624967814 -12.601762416604469 99 39 29
-2.218683126395502 4.689091835218137 -12.617281302807296 130 62 36
-2.2064353232755747 4.695463360355808 -12.64108024267985 118 53 30
-2.2485129950614255 4.692151713681327 -12.779098460421142 85 27 14
-2.2365983488850527 4.698454076220047 -12.803482169424534 85 25 12
-2.210993588411959 4.7086513614843035 -12.816292347760735 87 26 13
-2.1780837814155105 4.7209212986926135 -12.822859702131321 88 30 16
-2.2267147154185003 4.710035293573823 -12.898868637313758 88 32 18
-2.2251125808991388 4.71342789082992 -12.93225686516216 90 39 27
-2.2137665213289597 4.719589853078839 -12.95737401891341 98 52 43
-2.196993151454984 4.727292379913951 -12.977861094246466 102 59 51
-2.0861044250202325 4.7616399703464065 -12.917229889059326 101 58 51
-2.0894918147879524 4.763621502800042 -12.95493661716809 99 56 48
-2.1214662342643456 4.757530576688234 -13.017529067410798 98 54 45
-2.1475748472486518 4.753117363269107 -13.075267351535608 96 54 43
-2.1312782509687738 4.760692916342604 -13.096260071099055 95 52 41
-2.1639758218815985 4.7544491529350905 -13.160089730512007 94 51 40
-2.1613419789102846 4.758185627480888 -13.193201406760354 94 51 41
-2.1551825621648297 4.7629218326642375 -13.223293345358876 94 51 42
-2.144889827377776 4.768826663309093 -13.249804298270394 94 51 42
-2.135601780486743 4.774452479843916 -13.27724535866933 94 51 42
-2.134039248645226 4.777911056921896 -13.311580913296385 95 55 45
-2.1247842730378883 4.783537193887641 -13.339165032774735 92 54 42
-2.115903256748805 4.789062427166198 -13.367130243470049 93 55 45
-2.104624054524595 4.795264371353062 -13.393001937776187 97 59 50
-2.1560486513317274 4.783899346145143 -13.475108523661625 99 60 53
-2.160050003763021 4.78584242301854 -13.51494580730274 100 62 55
-2.155763011913125 4.790114211860333 -13.547428685526524 100 62 55
-2.1468076928727067 4.79569741600543 -13.575766802063221 103 64 56
-2.1292035120082384 4.803701100903678 -13.596317959754028 105 66 58
-2.11788550307281 4.809950639935225 -13.622589288953165 107 68 61
-2.1019994394316854 4.817477704897035 -13.644737201823393 104 68 60
-2.08120137133707 4.826375242133948 -13.662412845256899 100 65 59
-2.174157992087165 4.803590458174905 -13.784319345389035 96 62 55
-2.1800778355918364 4.805075630188487 -13.826818592554998 95 57 49
-2.1138240986849706 4.826641496709135 -13.802942067679536 91 49 42
-2.1166555128748374 4.828990993288376 -13.842660581152359 95 47 37
-2.1686204917027854 4.817708431539621 -13.928018358083781 110 59 46
-2.189376538731106 4.815115038553589 -13.98474497322121 118 73 60
-2.2119671971611674 4.812030575287542 -14.043387968357687 128 96 86
-2.2292066220019224 4.810446720271329 -14.09724856496006 122 90 83
-2.221817778543854 4.815695341138284 -14.128225170596393 121 84 76
-2.2403852766406587 4.8137710555584174 -14.183651132519099 114 72 65
-2.2555860295277506 4.812793903143478 -14.23610397056444 110 69 62
-2.2792719257163108 4.809489303982081 -14.296754933135276 107 67 60
-2.302510686901159 4.806327265886116 -14.357209464936068 107 68 60
-2.295214545081016 4.81160172466139 -14.38888211892295 104 69 62
-2.3125922420204676 4.810085509221835 -14.444125189799054 105 72 66
-2.327822774238127 4.8091768333846705 -14.497513524072511 105 75 71
-2.2856938866388816 4.824057425638292 -14.496142437355005 103 74 70
-2.298034010809743 4.823961537128617 -14.546974241054116 98 73 70
-2.331528231218611 4.821395459974248 -14.657666437645894 95 74 71
-2.3679411533396966 4.814747043235013 -14.73235489380534 92 72 71
-2.3596536255500133 4.820366170704245 -14.763930162900948 98 80 77
-2.480525595795339 4.790647671216805 -14.921365380244783 109 96 95
-2.5107337610529306 4.785781921610125 -14.991013928359958 156 150 151
-2.50219756844012 4.7915235082612115 -15.02299074642044 194 193 196
-2.511446452843021 4.792416048686778 -15.07249815927639 193 194 196
-2.520525655671798 4.793368492565045 -15.121999685770037 188 186 185
-2.5207663923616344 4.796742940117495 -15.162933816590762 151 144 141
-2.4722348205125275 4.813405660942106 -15.155682947524987 134 124 120
-2.4012484902238707 4.836163652299987 -15.125979797313166 125 109 104
-2.3660823004521685 4.849162400528959 -15.131667144621947 118 97 92
-2.2824287924078304 4.875321493397875 -15.088856210542726 109 81 77
-2.1956006410463766 4.902312316035921 -15.042515879600538 103 74 67
-2.296475559794854 4.8783870537953185 -15.184275491364094 102 69 60
-2.1853065273543484 4.911952312488616 -15.113208741906632 101 66 57
-2.1426212851615802 4.926941551571566 -15.110780071921807 100 64 54
-2.0389669471977223 4.95840523192828 -15.04649680189915 100 61 51
-2.105906755289369 4.943743795506745 -15.154943189930911 99 59 47
-1.998426964786339 4.976201182808252 -15.086306084699562 100 56 45
-1.7562663406683026 5.051712312961156 -14.95984093478536 98 51 39
-1.718625270181767 5.072053104831027 -15.041963935753937 95 56 49
-1.6713963082345566 5.088142952713846 -15.033421364676657 62 28 23
-1.627527824130743 5.103318917487942 -15.028218879059859 79 49 47
-1.606705887230322 5.112312707860715 -15.04693269999461 77 53 52
-1.5690564943943492 5.125807193482531 -15.048027559725647 67 47 48
-1.7270823807052897 5.086999229097987 -15.25439361378674 63 50 50
-1.7926865201823938 5.079962721742747 -15.44741964283153 14 6 6
-1.8197523160622016 5.076274818156756 -15.517769325217436 12 3 4
-1.808537102155948 5.082793539313846 -15.547658015606796 12 3 4
-1.803801791497187 5.08759465772546 -15.584515022246997 13 4 5
-1.8164232472962905 5.08779514711565 -15.640037763674094 16 7 8
-1.8086893947760592 5.093411565425139 -15.673912595603753 29 16 16
-1.8237882987920884 5.096570776081678 -15.77487048770271 23 12 10
-1.8790548414392942 5.0855503324277285 -15.877232570073124 22 11 9
-1.9580262272155187 5.068304385216391 -16.005770553470178 29 20 19
-1.9343205099011538 5.078215089931123 -16.02318759604937 40 34 34
-1.9384091884838694 5.080793824656448 -16.070912576011644 32 25 23
-1.9493408044418095 5.081582250360007 -16.126274536455213 20 10 9
-1.9456468912334355 5.0862367102230905 -16.16578203149045 18 8 7
-1.9274898335862067 5.094703268284949 -16.189480815878596 17 7 7
-1.917406356356504 5.101050175845327 -16.222102838234342 18 8 8
-1.8946969516793173 5.110716274985366 -16.2408217782474 19 8 7
-1.8791975789906408 5.118490978512482 -16.26752771782958 21 9 8
-1.8588463361582725 5.127539271908559 -16.288868485767416 27 12 9
-1.6604880400461681 5.186848472314263 -16.155189868659793 42 19 18
-1.718861275309087 5.182747061111645 -16.35248817623345 41 18 18
-1.6976163765147083 5.192019231694566 -16.37271412922985 38 18 17
-1.6571548126660733 5.2062890343399655 -16.371138645945706 30 15 15
-1.6599593265437758 5.209307123656689 -16.41865345623885 26 18 16
-1.665029742923763 5.21174968383079 -16.468901716180554 46 38 37
-1.6694923517720328 5.214363688209891 -16.518618621328244 66 49 51
-1.6959929788788504 5.211283217120333 -16.59377433110779 74 54 52
-1.7063116391943574 5.212415213371577 -16.650619544369206 78 57 53
-1.7331034936321288 5.209306299087861 -16.72666516939791 91 75 71
-1.8078158024631232 5.193850377644646 -16.858443859658003 123 112 109
-3.313908336612306 4.27811445682504 -12.72192965020652 166 157 152
-3.2286973344958008 4.305846709090746 -12.689681468188654 114 95 88
-3.1508641220932776 4.331404833003951 -12.662945274418536 97 71 64
-3.094516551082617 4.350684496922485 -12.652896738766927 97 63 56
-3.0415146161900823 4.368976732050301 -12.645329558327559 97 59 53
-2.9855323130196307 4.388123193149367 -12.635247621853027 97 56 49
-2.9503354407131415 4.4012145980940875 -12.641534641654923 99 56 47
-2.8860489808722747 4.4227494855900655 -12.624545432937584 100 55 47
-2.841245102236235 4.43861207355072 -12.62293774284095 101 54 46
-2.7867792292289493 4.457267823627838 -12.61346345395453 101 54 44
-2.7308657641253835 4.476329874362911 -12.602664626668147 101 53 43
-2.6200564613754165 4.511282053691591 -12.547415468627108 101 53 42
-2.5543357007474796 4.533145222394881 -12.528223779585977 100 50 39
-2.4220552506063577 4.577060657476858 -12.488517229038997 101 48 36
-2.5918575541662645 4.530814476390963 -12.660813211949023 101 46 34
-2.5111607775910065 4.556975366799507 -12.629049043704793 102 45 34
-2.4715821376759144 4.571246989680566 -12.630732148161187 102 44 32
-2.376311154737561 4.601571219416882 -12.586504289613114 100 40 29
-2.2737146892468982 4.642477028995319 -12.637723281989347 108 44 27
-2.253090530647056 4.651252384256839 -12.654637885830383 131 65 41
-2.2324730786224367 4.66002500916918 -12.671548465817079 126 62 35
-2.218774124789583 4.6668110521658726 -12.694253334574919 104 40 20
-2.1450569256494734 4.69366545406731 -12.700656666916512 84 26 11
-2.076369649148023 4.7161987170328175 -12.67680328115556 84 24 9
-2.1548318114176084 4.696592387813521 -12.777542346745705 88 25 11
-2.1403388850927265 4.703613309757271 -12.799664897826801 88 29 14
-2.1699233624261605 4.698036669646099 -12.859407706299416 93 35 21
-2.1570962614963665 4.7045937654076155 -12.883099130776348 95 42 29
-2.155804754869925 4.707860411839791 -12.91671395280369 99 53 41
-2.154561709933055 4.711120171458408 -12.95045357486914 101 56 48
-2.065683508140304 4.739366781232533 -12.908680242821804 97 53 45
-2.0807300634130472 4.73798295233552 -12.956467704028377 95 51 41
-2.103827088868706 4.734321176070534 -13.01140090640471 94 50 39
-2.1270578788083787 4.730638207058318 -13.066652419023296 94 50 39
-2.167383374782961 4.72211325840706 -13.137018900038395 94 50 39
-2.1677717205397364 4.724955814970203 -13.172738708111261 94 50 39
-2.1471713266596537 4.733763446821516 -13.190141702132578 92 48 37
-2.139824083764984 4.738811415655685 -13.219193718395303 93 49 38
-2.1401719715634053 4.741683118236681 -13.255089667590383 94 49 38
-2.1418547126332736 4.744184648017624 -13.292260738240369 95 50 39
-2.1351655059339802 4.749063998459563 -13.322107457423101 95 51 38
-2.1414366606310855 4.75028312741509 -13.363542140369232 94 52 38
-2.1380516597350607 4.754241495492398 -13.39648911635502 94 50 38
-2.1575660152859784 4.751739731363401 -13.449994783096376 94 48 39
-2.157951725126045 4.754651764486939 -13.486535758188895 96 51 41
-2.1569850859640463 4.7579532198655725 -13.521957406517101 97 53 43
-2.15608895020901 4.761242369396715 -13.557533218727109 99 54 45
-2.1448377267252825 4.767454690704029 -13.58383516138269 100 55 46
-2.1336551560771566 4.7736509978367625 -13.610238919471138 102 57 48
-2.1182010821756534 4.78105152594593 -13.632798060456809 103 58 49
-2.084225532270309 4.793656771560865 -13.638484816336259 107 64 55
-2.079670822699259 4.79799688459744 -13.671001800187604 107 64 57
-2.0806092232609013 4.800802348579499 -13.708630270287873 101 63 55
-2.138135315200897 4.787755420944185 -13.798398841919818 98 61 52
-2.145100007752404 4.788902253292608 -13.841934194284471 97 57 49
-2.141931181912405 4.792896295689756 -13.876233387420942 96 52 42
-2.136723940815457 4.7974672956340845 -13.90872529595952 105 57 44
-2.1351200080827906 4.801037483143247 -13.94464050368024 110 63 48
-2.1558939178534002 4.798367039431108 -14.001513387911176 118 79 67
-2.1575408176195516 4.801050405630522 -14.040709831080079 127 96 90
-2.1758686717678115 4.799092515068022 -14.095656234608718 119 88 78
-2.189410271394587 4.798484336163287 -14.146299172037319 118 78 67
-2.1887071604862838 4.801855558783883 -14.183684100030092 114 71 63
-2.1657322711634936 4.811429476939786 -14.200110553702666 110 67 60
-2.3206301797296724 4.771569003986418 -14.385157952022904 109 66 59
-2.2477511705903974 4.795036970986864 -14.354571946219933 106 67 59
-2.323875691986524 4.777137310585445 -14.465759459004872 105 68 61
-2.3230907660946896 4.780603188512407 -14.503928514791436 105 71 65
-2.2791767329134904 4.796025537177614 -14.500852725357694 104 72 67
-2.2771900160530536 4.799831430220708 -14.537954551393458 99 71 68
-2.2791044781112646 4.802566272163631 -14.578912369347549 93 69 67
-2.2801937714013776 4.805538887818964 -14.619189098402611 93 68 67
-2.2985362085188616 4.803756665116856 -14.67630267614862 91 66 65
-2.4597125391285566 4.76592306964951 -14.912494000212497 105 84 82
-2.4544729684360553 4.770716658615047 -14.947514587179917 132 120 122
-2.467789252028796 4.770409811927578 -15.000804094709219 194 191 193
-2.4802797280473787 4.770345318500686 -15.053464651082699 191 189 189
-2.495106295758351 4.769653846865934 -15.108606599252486 151 144 142
-2.3960648631577066 4.803623189341705 -15.091923483296128 120 104 99
-2.3503378737062994 4.819547985995162 -15.08711215857482 115 93 88
-2.2787898880099156 4.8425325553690985 -15.056428271188917 108 81 76
-2.2421022971137567 4.855954492288632 -15.060298427546945 103 72 65
-2.1765415689979073 4.877262802243506 -15.035143226418741 101 68 59
-2.2695959754060397 4.855221094799776 -15.169126957708897 100 64 55
-2.22091094156561 4.87191811601153 -15.16091386526164 100 62 52
-2.1863541636994004 4.884749054774392 -15.166818347212354 99 61 50
-2.1472034391630226 4.898825021131705 -15.167987754265148 99 58 47
-2.1171330338576047 4.910420126752834 -15.1782772820068 99 56 45
-2.0296647073302045 4.937622872314256 -15.130028080453224 99 55 44
-1.9562792368340771 4.960966655935843 -15.095787551231314 99 55 42
-1.5113144255011761 5.095096182673668 -14.799354350162888 98 55 46
-1.6843002391680812 5.051614660169145 -15.01839429303418 95 57 48
-1.6461520846434272 5.065302486415306 -15.01920206148462 63 29 22
-1.5970930354411195 5.081928456250106 -15.008537647995752 79 50 46
-1.5018819706082072 5.110994573998541 -14.949491867155864 85 62 59
-1.5189646799680814 5.109748467643472 -15.007639980761862 65 47 46
-1.7842777617772052 5.05202623370904 -15.451021754294954 15 7 7
-1.7912278640830097 5.0536377935834125 -15.500062889517247 13 4 5
-1.8240340793773004 5.048329503965245 -15.576803324138496 12 3 4
-1.8667472410146866 5.040393324646716 -15.664438478109947 13 4 6
-1.8210667321124694 5.056146976709632 -15.657775400395344 17 7 9
-1.8011610518594612 5.064995801977785 -15.678643890527866 32 17 18
-1.822267947925071 5.062888174655097 -15.7436847289013 25 12 11
-1.8123134147445752 5.069091660441684 -15.77542794866713 24 11 10
-1.8293180445169233 5.068111611063166 -15.836429843238879 23 10 9
-1.926386414174619 5.045821160381818 -15.984604647473535 28 18 18
-1.9136857537323966 5.052805015213225 -16.013950248968456 43 34 36
-1.8876377449102248 5.063341910315504 -16.02876817927247 36 28 26
-1.8627209197615624 5.073575572309809 -16.04479199561261 29 20 18
-1.9407209256721014 5.056493866545925 -16.173803126139354 20 10 9
-1.9235019657859729 5.064708401707335 -16.198565361953634 17 7 7
-1.908766630428822 5.072266886555861 -16.226091792113724 17 7 8
-1.7715754258876037 5.11223327595227 -16.1180613615011 19 7 7
-1.875990086988641 5.088267118271361 -16.277585312983618 21 8 7
-1.85794044866498 5.096709414664041 -16.301522923994092 25 10 7
-1.8422804214626476 5.104522628777917 -16.328145668567476 30 12 10
-1.6595578066486203 5.156374852723986 -16.167747188246285 37 17 16
-1.730802707775294 5.144945769422353 -16.33558819948033 45 19 20
-1.7194526605399147 5.151620139684262 -16.367003486865823 45 20 18
-1.6887424267400624 5.163382396938999 -16.376558628651868 45 20 17
-1.6713494199503058 5.171646514859047 -16.4011703880888 40 18 17
-1.6355551645973145 5.184733896042233 -16.40485363799998 33 16 15
-1.6365717229079246 5.188177870611903 -16.450466866144914 31 20 19
-1.643365974712795 5.190122572358963 -16.5028328715641 51 40 41
-1.657574300914856 5.190145205216182 -16.563886174531554 68 52 52
-1.6712398652848695 5.190328165333045 -16.62453856803713 76 54 53
-1.6875463730512843 5.18984114272186 -16.688461220666213 80 58 56
-1.7331815036898464 5.181736328412551 -16.786575808697116 98 81 78
-1.8015025271269147 5.167765629957417 -16.911455973920773 127 118 114
-3.334765005133647 4.2398386218750606 -12.712036175651367 156 147 143
-3.251780963892696 4.2670547114995045 -12.681673242763782 110 91 85
-3.169780577137665 4.293959022981577 -12.651801649413915 100 70 62
-3.0623742384264108 4.331112180834831 -12.635895395123253 99 59 51
-3.0093037895295174 4.349484484741998 -12.628213060058048 100 57 50
-2.9528279464450096 4.368841135114508 -12.617676393248377 100 56 47
-2.9199836522416325 4.381271049999555 -12.625783051397475 99 54 44
-2.8881265710865662 4.393407258481062 -12.634615856547995 102 54 47
-2.8177335961806986 4.416797440810434 -12.612544177323166 101 53 44
-2.705323665057798 4.452436536253085 -12.556513356909278 98 51 40
-2.6549820243090005 4.469929928762096 -12.550024260316983 100 52 42
-2.593154437844603 4.490760926374582 -12.53412069528712 102 52 42
-2.543646371036959 4.50798571458564 -12.527994622914587 100 49 38
-2.448955466064124 4.538357592065699 -12.485050251098897 101 48 36
-2.422390948114467 4.548873241708465 -12.497218129625566 101 47 35
-2.531309675864073 4.519979967930617 -12.619949785931873 101 45 34
-2.4893344401948467 4.534994531234899 -12.619739213360244 102 45 34
-2.457090715654391 4.547173525970864 -12.62741077931408 105 47 35
-2.3597247108435497 4.578251548505557 -12.58140971355121 99 39 27
-2.3129893416479055 4.597412559758652 -12.610835475343286 99 37 23
-2.209005563871166 4.63314104247295 -12.592513813871935 106 39 26
-2.183819372961297 4.643230292690882 -12.605497294282348 121 53 30
-2.1609805384750485 4.65263825313993 -12.62041460634792 131 64 35
-2.145893170499757 4.659804775286345 -12.641818873144047 115 47 24
-2.2295818803655933 4.638450736638962 -12.746393490557915 97 30 12
-2.103497393307327 4.677668253115411 -12.674358243884532 87 27 11
-2.177869534222178 4.6618785638788065 -12.805974007600037 89 26 11
-2.1493335695239235 4.672942594190719 -12.816228801255594 88 26 11
-2.1649716220365014 4.671290430684628 -12.864146918617891 93 35 20
-2.1024528596500742 4.69212817386012 -12.84532103187087 95 43 29
-2.095362242236929 4.6970194470795965 -12.87386801365992 102 55 42
-2.109463092058985 4.6958293515471246 -12.920712892698404 99 54 45
-2.087316949852872 4.705054695667826 -12.936424539888694 97 51 42
-2.090291212275528 4.707074360836925 -12.973865228061422 96 50 38
-2.114920309266201 4.70289654346586 -13.030208542634343 95 50 39
-2.1279235631606035 4.702065555084879 -13.076641277348273 94 50 41
-2.1388170806219273 4.701851053612231 -13.1213864700988 94 50 39
-2.145396368269999 4.702882284635654 -13.162499572712969 94 50 38
-2.1319782059994177 4.709638800704655 -13.18618271379566 94 50 37
-2.1391229922379345 4.71052496345445 -13.227993032562505 95 49 35
-2.1453789651596162 4.711675291268569 -13.269146349505492 97 50 35
-2.152789640985264 4.712506507426744 -13.311445459113813 99 51 38
-2.148196460761658 4.71676928761511 -13.343219402324404 101 55 39
-2.152154788228862 4.718602648283463 -13.382676112342889 101 54 38
-2.157509937703564 4.72004787915021 -13.423493298369296 100 53 38
-2.1605848144199093 4.722151521955455 -13.462390559030588 98 51 38
-2.153227395272407 4.727228708643468 -13.492034355606837 99 51 39
-2.145857753065793 4.732314185237979 -13.521725640891969 98 49 38
-2.1412561688181158 4.736619058565299 -13.553973948594322 96 47 36
-2.127412353564854 4.7435504996798725 -13.57793008941399 95 47 33
-2.1079689101279016 4.752070699981271 -13.596830541403353 96 49 36
-2.096101434599176 4.758445800507273 -13.622624423319238 98 51 39
-2.083974554280893 4.7648973162894634 -13.648218269872668 100 52 41
-2.072189057272911 4.771255247990724 -13.67416008982374 102 55 44
-2.066981989500288 4.775757857184216 -13.706176623724804 103 60 49
-2.045602204786782 4.784831718552786 -13.72338066587463 99 57 46
-2.1036120175914363 4.771510524520447 -13.813838226123885 100 55 45
-2.104384618046397 4.774355261739716 -13.851723456435689 100 53 44
-2.1056113950665147 4.777080571677665 -13.890133251750662 100 53 42
-2.0981654763882394 4.7822554712355325 -13.920578345370545 104 57 46
-2.1006464832833998 4.784643683372908 -13.960348225699594 111 66 55
-2.10089074631659 4.787669778852142 -13.998138219330043 123 87 80
-2.1382236167963646 4.7802897249377905 -14.070832281187283 124 90 82
-2.1766550503931406 4.772625798097536 -14.14485582357755 121 83 73
-2.139654682288805 4.786135752648267 -14.14800676987717 116 71 64
-2.173492937732988 4.779792322594204 -14.218093202698482 115 68 62
-2.215315826567063 4.771236790996361 -14.296036115245172 110 65 57
-2.218392444492213 4.773546114754579 -14.337437333506285 106 65 57
-2.270903420513937 4.762048231116898 -14.426124087723107 105 66 58
-2.307681868454247 4.754975753381346 -14.500141465271447 106 68 61
-2.2368779477240808 4.777950741542556 -14.471244319556265 105 71 63
-2.363393842804491 4.745881227243001 -14.631911362444882 100 70 66
-2.280316101478279 4.772274664721924 -14.591156474501567 91 67 64
-2.264509884416682 4.779911417373441 -14.61514354449826 90 66 62
-2.2925810978803245 4.775343929258218 -14.681718498165282 91 62 59
-2.372182718226965 4.756474168964612 -14.79868076022623 92 58 54
-2.4003939750221663 4.7519219432601325 -14.866049654608844 107 77 71
-2.4334294957581397 4.746052469262672 -14.93839949978335 112 94 93
-2.4505127242841582 4.744630291913375 -14.995390456424456 189 182 183
-2.46340257642588 4.744386731868026 -15.048460021922555 184 177 178
-2.46898580792887 4.746180913927496 -15.094503853755427 118 101 99
-2.426964154791049 4.761155233078993 -15.093603076752963 112 93 89
-2.34561025308033 4.786990933480581 -15.053571489541778 106 82 75
-2.305785270583488 4.8013300817748785 -15.054509343062087 104 75 67
-2.2416565626243683 4.822366683986591 -15.031099423591758 102 69 64
-2.211047371930634 4.834141583659768 -15.040970905839004 101 66 58
-2.182328196260627 4.845391056502569 -15.052680125400947 100 63 54
-2.169621834610642 4.852229044530836 -15.08044594648847 99 60 50
-2.1841165891478638 4.851589542154693 -15.135685586555155 99 58 48
-2.1011565710660696 4.877745836268186 -15.092564127497834 98 57 46
-2.1336669463878435 4.87216946947896 -15.16618892860451 98 55 43
-2.076922070309979 4.891102821985346 -15.149345262819942 99 55 42
-2.057492622034811 4.899791162134662 -15.170347290535384 98 54 41
-1.9607332920433809 4.929657651800248 -15.112278526551503 99 54 41
-1.9146504685978627 4.945621741183237 -15.105738918308841 102 55 41
-1.6624713871695294 5.027856758676011 -15.007745639667858 95 57 48
-1.6108416128310523 5.045254480868719 -14.994496505476857 65 32 24
-1.56235502958482 5.061781438677739 -14.984340605777959 68 38 34
-1.491618542022053 5.087664741227956 -14.99103533141679 69 49 48
-1.4998230630706493 5.088765340818329 -15.040054445460711 63 50 49
-1.4922389874452486 5.094162064373988 -15.072591361048568 68 59 58
-1.8192099281392595 5.019232805357664 -15.584338616285024 11 5 5
-1.9255373780904783 4.993985377540165 -15.740057628392218 14 5 6
-1.8474479550456344 5.018554921163723 -15.698847497884167 20 7 9
-1.8354023349636277 5.025294012696348 -15.728284904204076 34 19 18
-1.820367605781935 5.032842191680285 -15.754550208078527 27 12 12
-1.8106754303806447 5.03895556144058 -15.786622348147322 24 11 10
-1.8139985440314454 5.0415755884862 -15.832866025078953 23 11 10
-1.9264257260380395 5.014906164016079 -15.997838454961226 28 18 18
-1.9255425791383791 5.018705578150551 -16.040114082791135 45 35 36
-1.8991395492208918 5.029355815688444 -16.054617387800132 40 30 29
-1.8692665748721344 5.0409324826943855 -16.065282843859226 38 27 27
-1.840560159888124 5.052192399569186 -16.077174288934753 31 20 20
-1.8143773540190793 5.062773674206207 -16.091797781016655 23 13 12
-1.742997879697854 5.092589774770184 -16.143430895663407 21 8 8
-1.716355140199461 5.103284087153035 -16.15742724865519 25 9 7
-1.7894481482599032 5.087441629077961 -16.282842799959163 27 11 8
-1.7622879252751504 5.098292874312774 -16.29649463697161 35 16 14
-1.7196458945827873 5.113251655467437 -16.292708803259593 40 18 17
-1.7149505137128918 5.118133082441837 -16.331547167187757 44 19 19
-1.6940370639971896 5.127320744125415 -16.352159349299903 45 21 18
-1.6811267513210266 5.134389474217343 -16.381839258890288 46 22 18
-1.6623477065427936 5.143014498432079 -16.40489978558557 45 21 18
-1.6332308549473034 5.154372105009992 -16.416192948041598 42 19 15
-1.6232832506101103 5.160665258665999 -16.449336938920517 35 17 15
-1.6207979334708549 5.164996224691056 -16.49110028690088 35 23 23
-1.6282589877734255 5.166716506860821 -16.54440913225027 53 42 41
-1.6406710653241916 5.167148694090778 -16.60360372718957 68 52 50
-1.6527848022976546 5.167676916265408 -16.662667180438003 74 54 52
-1.670110764049256 5.1668536737939625 -16.72798256452346 80 61 57
-1.7146784981914314 5.158903054255134 -16.82519787282024 103 91 85
-1.7857084962177439 5.144051302928848 -16.953670956765503 128 121 117
-1.4604408728175846 5.255510478898263 -16.892697820322436 175 175 175
-3.355167057462457 4.201637293029458 -12.701739803264793 146 135 128
-3.2570466209470865 4.2334617865331765 -12.659692732336055 107 84 76
-3.024828046691595 4.313205601167007 -12.614605097437721 100 58 49
-3.031786463884872 4.313942087920266 -12.654396674356235 101 57 48
-3.012767124369391 4.322340968463405 -12.673670298482168 102 56 48
-2.8941704837182245 4.360056866911483 -12.613627496802334 101 53 45
-2.894547309195297 4.362730695081382 -12.648172010509771 100 51 44
-2.7888331975513507 4.396607568353268 -12.597822180857083 100 51 42
-2.7004838861958063 4.425349751915946 -12.56103049742391 99 51 41
-2.6406768300539514 4.445684071021591 -12.546916971507434 100 52 41
-2.5813606890833825 4.465859216646832 -12.533014436095536 101 51 40
-2.5509186158953274 4.47755023358385 -12.542317836155682 98 48 37
-2.4975852023362473 4.495947023546662 -12.532972258890712 100 47 35
