ply
format ascii 1.0
element vertex 702
property float x
property float y
property float z
property uchar diffuse_red
property uchar diffuse_green
property uchar diffuse_blue
end_header
-2.5282401301120263 5.229007577495439 -15.10951904026424 57 17 9
-2.428265764448665 5.223642190232 -15.26442216276729 57 17 9
-2.230510548504842 5.20610810342942 -15.532555370732187 57 17 10
-2.2725720302598154 5.21884710887714 -15.525349284353565 59 20 13
-2.30939959114738 5.23090673431721 -15.524049086434772 63 25 18
-2.3676898710680154 5.245608966249028 -15.497738028919382 69 32 25
-2.3605365351100733 5.252180594694839 -15.547286731861584 71 35 29
-2.3533561152571725 5.258777262260948 -15.597023907647452 69 38 30
-2.4242108803463553 5.274955066956803 -15.555676203429188 71 41 33
-2.413243451433461 5.281103143167757 -15.609924248063002 72 41 36
-2.392575873649162 5.286107754779907 -15.675757356607676 74 43 38
-2.3922409229576385 5.293610794119005 -15.717868672062849 74 46 39
-2.439354383739131 5.306835045522453 -15.704019011419145 75 49 42
-2.4143299226387 5.311401172283617 -15.775470991611856 77 52 47
-2.2794909008517035 5.302950684510335 -15.977680818645052 78 53 49
-2.3786386653782197 5.322382408087219 -15.90209271399165 79 57 53
-2.530037163902568 5.347877163490724 -15.763567811218874 81 61 58
-2.3649678131846175 5.336112151470887 -16.003259615332986 88 70 66
-2.3176798702596573 5.338301305445722 -16.102669832003908 94 76 73
-2.1086877299786844 5.321795995687906 -16.397238146324142 104 89 86
-2.0827319579107595 5.32669693107264 -16.472261071425716 131 123 118
-1.9805188829853257 5.322887506862614 -16.639902047202412 155 151 150
-2.059412434363338 5.339924843997611 -16.58846633015139 155 154 151
-2.1356232246397786 5.356586263755236 -16.539904696969934 157 152 151
-1.8197747583791157 5.328822241154217 -16.969490768598355 156 152 151
-1.8765413158187974 5.343391797999534 -16.945259122583032 156 152 151
-1.8980023047553205 5.3539641449901225 -16.96410410132133 159 155 154
-1.966741624661406 5.369798398987316 -16.92476208444014 159 155 154
-1.8640565456385607 5.366586978442305 -17.096581532056803 160 156 155
-1.921318935649901 5.381140897017444 -17.071347988871917 164 159 158
-1.977881033336316 5.3955723472962065 -17.04673007036114 168 163 162
-2.02090521487124 5.40848373229216 -17.038699914485587 173 168 165
-2.167537920713925 5.432591766991802 -16.901304934069906 174 171 170
-2.1361398967446377 5.437364178891832 -16.985664690706784 175 173 173
-2.071644114159114 5.4386520729857235 -17.111860236164148 177 175 174
-2.0994205628241414 5.449870731333725 -17.122619694959187 178 177 175
-2.108271291397454 5.459074407450139 -17.157177014754776 178 177 175
-2.1315486898686586 5.469809720873176 -17.173569733420983 179 179 177
-2.2228970535316863 5.487665507062868 -17.10366585792681 179 179 177
-2.2469114635552385 5.498425246510161 -17.118832971861316 180 180 178
-2.241856477911977 5.506171783299152 -17.171005079733085 181 181 179
-2.266978801509964 5.517051078270384 -17.184787903083595 183 182 180
-2.6344498438940764 5.56291056539478 -16.759965892121546 185 184 182
-2.6033639679581153 5.567851603159475 -16.84468188142845 187 186 184
-2.5855699437526276 5.57419657396999 -16.91262216821753 188 188 186
-2.573818186340186 5.581193422292413 -16.973012090545684 188 188 188
-2.3409975343096576 5.5661899738897755 -17.31987855799366 189 189 189
-2.3109968331540243 5.571595468965587 -17.405159595670106 190 190 190
-2.8811405161768926 5.636133029303492 -16.709452151838157 191 191 191
-2.9328987223037117 5.649277171479137 -16.68658426099926 191 191 191
-2.7872071517484196 5.643195709236071 -16.921931326580008 192 192 192
-2.705904360581317 5.643538263036102 -17.073928407877638 193 193 193
-2.5828664033506463 5.640007412313146 -17.28155721705177 194 194 194
-2.469224520833775 5.63755348820475 -17.47779438466757 195 195 195
-4.824138754731804 5.8757330637552325 -14.447276902599086 196 196 196
-4.832451676500927 5.883497487757652 -14.47486785298127 197 197 197
-4.828768748983598 5.890160185506601 -14.518513050844726 198 198 198
-4.796137917441667 5.894185232326021 -14.601015799450716 199 199 199
-4.369394399256923 5.8622765608971825 -15.212417830424874 200 200 200
-4.33084987970596 5.866150613021133 -15.30500351543849 201 201 201
-4.292037896091734 5.870072940707274 -15.398349968561176 202 202 202
-4.254002505606312 5.874137693134791 -15.491050291171385 202 202 202
-5.399002461303924 5.996778632400931 -14.055352953819556 205 205 205
-4.9949310174370005 5.968556900938166 -14.645286710652837 205 205 205
-4.556208751131045 5.937915207722134 -15.285810704573679 206 206 206
-11.526103882430261 7.198932107684985 -9.39147315241698 215 215 215
-11.50366640427548 7.205723483400933 -9.470454954771684 215 215 215
-11.443318921566556 7.215569089001255 -9.636317249985508 215 215 215
-11.380913567749083 7.225750402215404 -9.807835337702755 196 196 196
-11.281864177499642 7.239079668112391 -10.064414965669682 0 0 0
-11.198885389325653 7.251357147974397 -10.285508219433817 0 0 0
-11.244894812387775 7.253085680352751 -10.210123817776335 0 0 0
-8.23474936715148 4.932510815240134 -2.8735439258071316 0 0 0
-0.707103548429306 2.945798826149336 -5.721947136557541 164 164 164
-1.38384686682684 3.1283665282179363 -5.48765346750662 182 182 182
-2.0514863572004822 3.308204577327069 -5.255006405250451 182 182 182
-2.4259990178380533 3.410364284755242 -5.131539965121163 182 182 182
2.4603592241479078 2.1928352070608472 -7.376983627140351 187 187 187
2.3780040631793136 2.2187891150121675 -7.36902286830674 188 188 188
-1.2665778708636095 4.457072162642139 -13.010038551327177 206 206 208
-1.2948389788105494 4.468213833988168 -13.019600685574357 205 205 207
-1.4098379591293826 4.493976708810317 -12.950852845995978 205 205 207
-1.4779135701417765 4.511758234959425 -12.924075350567819 205 205 207
-1.5354770836044596 4.527730386934144 -12.906582988225193 205 205 207
-1.5927107988342435 4.543611035069988 -12.889190873895917 205 205 207
-1.6554104172882145 4.560367743213565 -12.86661472385003 205 205 207
-1.6915640215830354 4.572664902487331 -12.868089123367124 204 204 206
-1.7443272212254746 4.587701688807938 -12.854236627419358 204 204 205
-1.7787869801705094 4.599676084567912 -12.857035494654458 203 204 204
-1.8358199955902732 4.615360959027737 -12.838933908353244 201 202 204
-1.880203559044836 4.628926776203559 -12.832325461613118 202 202 202
-1.9244090891620678 4.642438174017216 -12.825743503452356 202 201 200
-1.9684369908028918 4.655895370493875 -12.819188492120851 200 197 197
-2.009091120032169 4.668776717568901 -12.815640168645889 195 192 190
-2.0570776096016345 4.682829729872079 -12.805118102866468 187 181 177
-2.106535797836778 4.697092784706417 -12.79305812808541 179 170 163
-2.1389394184366064 4.708564728137908 -12.796856163422227 166 154 145
-2.166623627669263 4.719260203087235 -12.805019941540147 153 137 133
-2.211905357817473 4.732777695082211 -12.796502113505483 136 118 114
-2.2498365748717744 4.745088767010525 -12.79480009711497 116 96 92
-2.2894013616572706 4.757641247369943 -12.79143646677096 106 82 77
-2.3390544093588628 4.7717817671197755 -12.778345975277233 101 73 69
-2.3770429537769378 4.784035486346712 -12.776223617037015 94 60 55
-2.4037876400667373 4.794485432543466 -12.784756279797929 97 54 45
-2.4122822571324405 4.802039381280939 -12.810757789415636 100 47 34
-2.4398213976762197 4.812603586711133 -12.818465062046592 101 43 28
-2.467423358333486 4.823167076184586 -12.826053439578246 104 46 29
-2.4805407779181214 4.831449719522585 -12.847603242297122 104 46 27
-2.4937412098789182 4.839748367019631 -12.869089158657479 99 40 24
-2.5345811279122765 4.8523556076772 -12.863693285426757 91 36 23
-2.5403068179151838 4.8594861672461445 -12.892433169601468 85 33 24
-2.552902830252968 4.867690514353623 -12.914506495328421 83 36 27
-2.553100301864731 4.873984799340632 -12.948763265675446 83 44 34
-2.558338357343936 4.881070131171165 -12.978146745036373 90 59 51
-2.5496749788178588 4.8860339721922905 -13.021301038691071 97 72 65
-2.5652454873622226 4.894727236063428 -13.040620206769375 97 77 71
-2.4584234322740035 4.88476735741076 -13.181320105785819 103 85 80
-2.459227426267103 4.89127825105881 -13.21565830587753 107 91 88
-2.462800572027427 4.8982238158207885 -13.247319770135746 109 97 92
-2.4696563864731322 4.905677567364744 -13.275769121660872 117 106 101
-2.4827846598455894 4.914084574200736 -13.29798305318749 127 115 111
-2.4847751337466972 4.920824643557137 -13.33141051022487 140 129 126
-2.4812110360397357 4.926748792392614 -13.370515024316004 157 150 145
-2.4889773099698784 4.934380868570965 -13.398279057736563 174 168 163
-1.2916698963653177 4.7701798677382286 -14.686192260810703 114 103 101
-1.5425852107144609 4.814304662768631 -14.469714224309769 85 67 63
-1.7373052876526929 4.849936948903587 -14.309362199758981 89 56 50
-1.885557221477912 4.8785850687883485 -14.195631914658644 95 47 41
-2.348932535356716 4.953109312510636 -13.757558516853525 91 42 37
-2.312954480958151 4.954532600851757 -13.831224384710803 89 42 35
-2.385322146522755 4.9717183198883035 -13.79331576522106 89 44 35
-2.3842781662273733 4.978241186673321 -13.831101509052028 89 44 34
-2.3923164959370267 4.986089924432109 -13.859559318937627 90 47 38
-2.4060214656986565 4.994760723390407 -13.882168765928064 91 54 49
-2.4351743148164102 5.005643334731197 -13.88867425026018 102 70 67
-2.473778901404656 5.0178599617391555 -13.8852205637541 107 77 76
-2.421572413419966 5.017164497821833 -13.976930590258071 103 72 72
-2.4269133244440733 5.024678844964619 -14.008485404155643 95 65 59
-2.4279428515143824 5.031597656455197 -14.04465441095435 91 60 51
-2.418372818851741 5.037044780373581 -14.092125854856938 90 56 49
-2.323627507006985 5.030604762585381 -14.230084963015425 91 55 49
-2.255825170150154 5.0280355399003716 -14.340028999864023 92 61 53
-2.202100074254436 5.027509223077434 -14.435448293481588 100 71 63
-2.2173884197593408 5.036603269047864 -14.457488078417951 103 73 65
-2.130947528728263 5.031680877131962 -14.588597386186024 100 70 62
-2.0797559295112125 5.031706272973895 -14.682414900394502 90 60 52
-1.9303528467934798 5.018372868369552 -14.882481601439139 82 49 45
-1.948840393290765 5.02808693681519 -14.902077103562778 81 45 39
-1.9779487931209223 5.039241641975365 -14.910160424882022 74 36 27
-2.0360150093566816 5.054298791993396 -14.886715696283433 70 30 22
-2.057467766201567 5.064383572795961 -14.902923917302761 65 24 16
-2.058125549526732 5.071675652960289 -14.941826146832689 64 20 14
-2.052921069370095 5.078202955866785 -14.987249777203576 63 18 12
-1.8947115678922586 5.064398580797417 -15.200841439984304 61 18 11
-1.8903869567850755 5.07117383348182 -15.246018664560676 61 18 11
-1.8610035219648147 5.074666168677545 -15.318996352490398 60 17 10
-2.6230483518444005 5.2676360261180655 -14.985816698685564 56 16 8
-2.393812522284848 5.246385242128799 -15.28842793929382 57 17 9
-2.337585891927132 5.246817864672781 -15.393699005029177 57 17 10
-2.2501540396565565 5.2434898404587 -15.535390630127907 60 21 14
-2.1667205593699768 5.240770552955604 -15.673113462095994 63 25 18
-2.2872552256120056 5.263059755541541 -15.575130661383504 69 32 26
-2.31083709124914 5.273455093764061 -15.589150773615266 70 35 29
-2.3556194922825764 5.286407657123075 -15.578439622194102 70 38 31
-2.3913385264044313 5.298239069920507 -15.578147688014575 71 41 33
-2.4476163660767254 5.312512783740419 -15.553666746164893 72 41 36
-2.4129642267274747 5.315903315958023 -15.635725967117931 73 43 37
-2.4079870355838056 5.322874559544523 -15.683175314046807 75 46 40
-2.398389465281511 5.3293267510621565 -15.736224952699912 76 49 43
-2.3463988495322567 5.330830381967689 -15.83963481438921 77 52 47
-2.2805235693424786 5.330791823565207 -15.959970921223672 79 54 50
-2.18075447902366 5.326907992321104 -16.121182119831072 79 57 53
-2.466463323181493 5.367777921536627 -15.823132281379678 82 61 58
-2.3714015898658802 5.364486555215297 -15.978987789169214 89 70 66
-2.3228047009101918 5.3666511875819936 -16.07982277801498 96 78 75
-2.123771836240799 5.351745847372431 -16.362063740102485 109 93 91
-2.040475598208138 5.350220812956902 -16.506103735706745 139 132 129
-2.0166682242474465 5.3555270553549175 -16.578853900233042 160 156 156
-2.097170174272005 5.372589534191491 -16.52538217056251 160 159 157
-2.1254190895077008 5.383745898464276 -16.535047426889513 163 159 158
-1.7472581651539008 5.349764572887462 -17.040166381621006 162 158 157
-1.8135836675545338 5.365345635752176 -17.004489093582514 162 158 157
-1.8313810634896752 5.375539996832667 -17.027989109966306 163 159 158
-1.9182347782689186 5.393280086163541 -16.966620807603878 164 161 160
-2.0109451899049935 5.411575211933608 -16.897587731006656 164 162 161
-1.9248985762831579 5.410468534272221 -17.048961697411478 166 164 163
-2.080623969619401 5.435464120723224 -16.901466706804996 169 167 166
-2.1206735042058487 5.447936441003948 -16.896775139487445 174 171 171
-2.182344700883906 5.462679899336002 -16.86500821039124 175 174 175
-2.166520301110568 5.469186633354002 -16.92975258786703 177 176 177
-2.0658161310488374 5.466823094286919 -17.101036433439948 178 178 177
-2.0950579581043787 5.478171359867827 -17.109940159146355 180 179 177
-2.088104628320215 5.485750962182555 -17.164351663155085 181 180 178
-2.2093475308219253 5.506587449086647 -17.05708299275376 180 180 178
-2.179527414604599 5.511807353847065 -17.140361297131577 181 181 179
-2.2946852774580515 5.5318643260706075 -17.03994064101719 182 182 180
-2.2366972018582727 5.534261913740585 -17.159242228083222 183 183 181
-2.5633706622695573 5.575482434630279 -16.788157602683835 185 184 182
-2.5435282433778346 5.581648343562334 -16.858380221907687 187 186 184
-2.5243014853731163 5.587923641559323 -16.928077847536237 189 188 186
-2.5106280167508395 5.594795202603259 -16.990892661580357 189 188 187
-2.4780778959459813 5.599854498994897 -17.078283390751736 190 190 190
-2.2092421653848797 5.581932409665023 -17.471667884398382 190 190 190
-2.7546653630777866 5.643278000965926 -16.810969649300194 191 191 191
-2.6942611838165726 5.645634063289412 -16.93446418795588 192 192 192
-2.7454474889137135 5.6587619048480935 -16.91299825882542 192 192 192
-2.6194387907958667 5.655016548504096 -17.12298811316296 193 193 193
-2.5447583279865187 5.656299281586138 -17.26670423658341 194 194 194
-2.432689734115444 5.654198781753102 -17.46023105647376 195 195 195
-2.344180938943703 5.654459679722189 -17.623632252532776 195 195 195
-2.2334734379478993 5.652808347094613 -17.81713873518551 196 196 196
-4.7724045877274595 5.901514576628081 -14.538900076111068 198 198 198
-4.764596631325912 5.907878191626235 -14.588187654044006 199 199 199
-4.751849677136294 5.913829132978444 -14.64424365241992 200 200 200
-5.239410369693357 5.964419537343257 -14.030277865488102 200 200 200
-5.294459452398993 5.976115581606961 -13.993868477469757 201 201 201
-4.954493296340398 5.953064584410098 -14.489209137252665 202 202 202
-5.376478147666468 6.0105098552680065 -14.032944860920882 204 204 204
-5.079715040763257 5.992068732822751 -14.474580286153891 205 205 205
-4.85414685149849 5.980061469490099 -14.82131866985447 205 205 205
-4.673053762017488 5.972106519492657 -15.108957486351189 206 206 206
-11.527484387701328 7.2100882612828325 -9.374536776992278 215 215 215
-11.511024198149704 7.216476626608651 -9.439793595508672 215 215 215
-11.450999262557277 7.226469306136263 -9.604595006016606 215 215 215
-11.38893430966066 7.236801564844448 -9.774997199134525 194 194 194
-11.294386783031868 7.250034245118891 -10.020792851546615 0 0 0
-11.211343347839447 7.262548423760568 -10.241584933758345 0 0 0
-11.259180676068993 7.263991894192926 -10.16198421583865 0 0 0
-8.254110409719235 4.948244218596639 -2.8643635420258216 0 0 0
-0.7987420596053876 2.991440312669396 -5.683538219923818 162 162 162
-1.501722795874186 3.179923019902658 -5.439439919546466 182 182 182
-1.9429289216252608 3.299297824106156 -5.292140261747515 182 182 182
-2.4968327752235466 3.448039464595406 -5.101060830878382 182 182 182
2.3992987702949957 2.235108309130126 -7.347162320050829 187 187 187
2.3257449913581354 2.2586743727079965 -7.342653735082713 188 188 188
2.364285846556665 2.2532972823657698 -7.38314856479451 189 189 189
-1.3036501219324181 4.509162396654839 -13.069748177141307 205 205 207
-1.378845884746652 4.528056902977893 -13.036707514917664 205 205 207
-1.4654942697058928 4.548794299258111 -12.992974084441258 205 205 207
-1.5231282602096323 4.564681148391731 -12.975336003253636 205 205 207
-1.5941057578058793 4.5827272050701975 -12.945305623974036 205 204 205
-1.6118440508785152 4.591987168421149 -12.963783405146472 204 204 204
-1.660230686478866 4.606262265644042 -12.954102377538435 204 204 204
-1.730077461170933 4.6240110918115125 -12.924497104850134 203 204 205
-1.8067584953758358 4.642823852119273 -12.888315205355457 202 204 203
-1.8458052273798327 4.655474247180459 -12.886688263339302 202 204 203
-1.8611044682992102 4.664261161882 -12.907002545593976 203 203 204
-1.9249494436596288 4.6808832502147615 -12.882120389265665 203 203 202
-1.9791963856567056 4.6959175194665175 -12.865962283928226 203 203 202
-2.043449487617469 4.712522553856139 -12.840246555036442 202 201 202
-2.0321102327505187 4.716989915787499 -12.885251204487492 201 199 201
-2.09452726809971 4.73324881019737 -12.860972441860046 200 197 199
-2.1347237162470414 4.745930798813361 -12.857432889577716 195 191 192
-2.175059143288379 4.758612783018001 -12.85364122429528 190 184 183
-2.216534892180892 4.771452818891698 -12.84864572334612 183 175 171
-2.265392987399764 4.7854332833113515 -12.836497870112632 174 164 159
-2.2948577770668304 4.796335049301655 -12.842686150385488 161 147 143
-2.318325418546868 4.806284730605388 -12.85454447526704 147 131 124
-2.3488660896081863 4.817332834640395 -12.85958173178961 140 118 111
-2.3791650951531844 4.828329921403884 -12.86477826878946 130 103 96
-2.4104773499155567 4.8394711603390235 -12.86892543143894 122 90 83
-2.4223966292194694 4.847595894807224 -12.891748334124154 115 82 75
-2.4445231000421246 4.857300213886389 -12.904697212399409 108 77 70
-2.4797568863116193 4.8690156966274065 -12.90487240192841 105 76 71
-2.484746409222716 4.8760742553663246 -12.934432888165203 104 78 73
-2.490236988221104 4.883220335911957 -12.963563276930643 107 86 80
-2.496773796073296 4.890536348115192 -12.99172548632724 115 97 92
-2.495998702350279 4.8967509368303075 -13.027125631143978 120 106 102
-2.4946505169245263 4.902895346569945 -13.063181402757053 132 119 116
-2.471393841219517 4.905749606709989 -13.120978859421301 141 128 127
-2.478407928261845 4.913197541016325 -13.148996972104808 153 143 142
-2.4873212815275965 4.920939575262713 -13.175178820382481 165 159 157
-2.4955211836711944 4.928582356517897 -13.20211185153616 175 171 168
-2.503732364608795 4.936234953971071 -13.22907811976841 185 180 178
-2.5147184413616386 4.944307828153942 -13.253310046003264 193 188 187
-2.5133624076165706 4.95055921289101 -13.289965214034751 197 191 191
-2.5026714496287763 4.9554510765505455 -13.336115994648669 198 194 195
-2.486091160570769 4.959503983162272 -13.388360070244957 198 194 195
-1.1710514398654404 4.773315037763716 -14.755197415694488 195 191 193
-1.1805876265984256 4.781894489908778 -14.784830262309974 188 180 182
-1.266646519053121 4.801619958948855 -14.736630779348141 143 132 130
-1.4348710999714296 4.833195065647987 -14.60421221546381 99 74 67
-1.6001693509586419 4.864196706115695 -14.473964717365508 93 49 42
-1.7433701201511376 4.891867368482293 -14.36557837457639 93 43 33
-1.83905489318939 4.912591529513929 -14.305381763635314 94 41 30
-1.8094089734869812 4.91531116759745 -14.374032050643407 94 42 30
-1.9106982135965547 4.936739592882711 -14.307522070493775 93 43 32
-1.9873750407468496 4.954587767252985 -14.266071450264104 92 44 36
-2.0611921128728534 4.97197103587086 -14.227264971291612 94 52 49
-2.133390425203851 4.989068518307893 -14.189831432935005 105 70 69
-2.2308169954038233 5.009653940054583 -14.125716524631272 109 78 76
-2.392824675890309 5.039196301022674 -13.993455315510378 104 73 71
-2.4573615099034622 5.054997156281088 -13.962826019704469 96 66 60
-2.4163465116234075 5.056084092505873 -14.043167281690797 90 59 52
-2.3341829496879765 5.051535334575529 -14.167318822218567 88 54 48
-2.291771900995239 5.0525713615983925 -14.249913853510376 89 55 49
-2.227948663809789 5.050727785603868 -14.355596063892149 92 63 55
-2.2107116921893537 5.055344468478648 -14.412115167751473 100 72 64
-2.193681661104417 5.060025545920141 -14.468611152269913 103 74 67
-2.122962779627299 5.057451195295737 -14.58280373867763 98 68 61
-2.008758160820687 5.04908653418304 -14.744200157745134 89 59 51
-1.9467178006882007 5.047890316632975 -14.850189566335704 83 50 46
-1.9499350822541874 5.05553794527063 -14.886186911145543 81 44 39
-1.9740793493240965 5.065999023246455 -14.899615304100221 73 35 26
-2.073232529673927 5.086442338820728 -14.831591228506902 71 31 23
-2.048704458993882 5.090394360198333 -14.897699653128292 66 24 17
-2.0917178471931344 5.103313972139866 -14.890350369556085 64 21 14
-2.0933849709868877 5.110766754930704 -14.92809367012817 62 19 12
-1.8769342148100367 5.089656540277256 -15.205231659936427 61 18 11
-1.8846932067294988 5.098056280854777 -15.237105062277234 61 18 11
-1.8622287526396173 5.102539532945087 -15.302376234931332 60 17 10
-2.4179220834032646 5.268990016478479 -15.204919530813513 57 17 9
-2.3407317800042993 5.266939283314658 -15.33371462284143 57 17 9
-2.2568187112043905 5.264177096135258 -15.470812197123898 58 18 11
-2.2418993821274 5.269886297641982 -15.529103564100915 61 23 15
-2.2822721836005977 5.282298643322717 -15.523769165300294 65 27 19
-2.2249737932674973 5.282965867447569 -15.631350438418906 70 33 25
-2.3420152472429194 5.304539182538046 -15.537060635395555 71 35 29
-2.353877369394172 5.313498690514634 -15.56455348220609 70 38 31
-2.499991445885944 5.3383452307804165 -15.435434651860568 71 41 33
-2.447011782755596 5.339609201177739 -15.538446582770117 72 42 36
-2.421966040107538 5.344226589738537 -15.609133598640923 73 44 38
-2.4231493584650394 5.351950783584302 -15.649239093909243 74 45 39
-2.3474088466358243 5.35077221066809 -15.78017523745395 76 48 42
-2.315494536625435 5.354760014863119 -15.859877033212364 77 52 47
-2.2421011016241303 5.35404291835934 -15.98908020550789 79 54 49
-2.0764831702734545 5.342896079988723 -16.228514700509766 80 58 54
-2.316261044375591 5.378042336946834 -15.98584260343053 84 64 60
-2.3391516712647604 5.388404629263624 -16.001004565309014 90 71 67
-2.239595064339052 5.38498723793562 -16.16289338467072 98 81 78
-2.130380582621564 5.380627703032193 -16.337146688912867 110 97 95
-2.040743205460493 5.378597934590074 -16.488633763535226 149 142 140
-2.027518807320094 5.385156802587712 -16.548498490051653 164 160 160
-2.122550490318729 5.40367572650837 -16.4774236964415 165 163 161
-2.216459788250538 5.4219810341175245 -16.407216261167846 166 163 161
-1.4610447287570087 5.347673117002081 -17.37096730940802 165 162 161
-1.5155659609964012 5.3620392628512015 -17.350656997560773 166 163 162
-1.7914871966768233 5.400217239683132 -17.059009460521068 168 165 164
-1.8208552499542643 5.411671569282105 -17.068395768627447 168 166 164
-1.9112421864534204 5.429614385884461 -17.002594568532082 168 167 165
-1.9512477023529335 5.442134210833337 -16.998514294989185 169 168 166
-2.0947564295916212 5.465530140514968 -16.866186274753268 172 171 169
-2.214548656312326 5.486291267866644 -16.762464219865432 175 175 174
-2.187246255820498 5.491615906299833 -16.841113212782147 178 178 177
-2.183261300983812 5.499410168458246 -16.890976533377547 179 179 179
-2.074215857431043 5.49642368832936 -17.072433929847122 181 180 179
-2.100304328714124 5.507414242048052 -17.08523206888902 182 181 179
-2.04780156402967 5.510407381308325 -17.19683764390083 183 182 180
-2.1201505470812876 5.526102960140561 -17.15146229965196 183 182 180
-2.193748625051061 5.54185798797598 -17.104146456742395 183 183 181
-2.274423131154818 5.558251354953885 -17.047486691922963 184 184 182
-2.235840328377585 5.562741655247267 -17.142032917782203 185 184 182
-2.309138102730736 5.578328548512406 -17.094342077192422 187 186 184
-2.309021165369195 5.586659147590727 -17.140123138578605 189 188 186
-2.3087622685785405 5.594999907699918 -17.186217276662354 190 189 187
-2.6411343291517264 5.635514306918713 -16.80495598935881 190 190 188
-2.677840198245822 5.647242519615737 -16.802530653981723 191 191 191
-2.615793779110576 5.649528242750371 -16.927577509039914 191 191 191
-2.6013651517161263 5.656428196927416 -16.99149230912412 192 192 192
-2.494342979832248 5.65465638799326 -17.17592410052742 193 193 193
-2.562997624964659 5.669465957599261 -17.13240325263326 193 193 193
-2.425856699258796 5.665108044106599 -17.357320208978958 194 194 194
-2.387120979334199 5.670022283096578 -17.454462779787654 195 195 195
-2.2934488575034004 5.669982299541282 -17.62415259506201 195 195 195
-4.113867600772189 5.859009095250459 -15.356149463934662 198 198 198
-4.699250037329742 5.9257222774838585 -14.659270814294018 200 200 200
-5.146475264616527 5.97207592820064 -14.101622564777102 200 200 200
-5.191418575517875 5.982876290258842 -14.079180219730308 201 201 201
-5.243467854755414 5.994250706046298 -14.046988725197636 202 202 202
-5.27787293916334 6.004065209760312 -14.038268580844791 202 202 202
-4.948886833555368 5.982973980613125 -14.519634287990403 203 203 203
-5.132722125282147 6.012580863651803 -14.348133691851592 205 205 205
-4.821384600659696 5.993772045007651 -14.809972209282767 205 205 205
-4.672524767319336 5.988774555734537 -15.052647151387658 206 206 206
-4.485131341618612 5.980854061854312 -15.349227768027138 206 206 206
-11.576115891582424 7.217349086383017 -9.25085651964023 215 215 215
-11.518335036859376 7.227159968216323 -9.409329357528124 215 215 215
-11.458629417745325 7.237297615685773 -9.573080887663897 215 215 215
-11.396902150486289 7.247778554063255 -9.742377238420566 192 192 192
-11.306133693668121 7.260951403569558 -9.979075309341166 0 0 0
-11.223695052947212 7.273643906798069 -10.198036695946577 0 0 0
-11.273115546301941 7.274814281646119 -10.114796653208382 0 0 0
-8.272982404128124 4.963779816350783 -2.855377214823515 0 0 0
-0.10573216634273086 2.8275910899812304 -5.917804661782133 0 0 0
-0.8899423226815346 3.036674834806565 -5.645349104273043 159 159 159
-1.617512382293801 3.230566919566371 -5.39207973954321 182 182 182
-2.0514389508763395 3.3473896601360598 -5.247472872093629 182 182 182
-2.560873708589375 3.483712043263334 -5.073193341833304 182 182 182
2.4254559008699266 2.254753930808502 -7.352255711280654 187 187 187
2.3127132895386806 2.288300784460239 -7.332061267818556 188 188 188
2.1863199764818613 2.3252994137500833 -7.30610283243803 189 189 189
-1.3998128734914177 4.570906506192597 -13.075691307444002 205 205 207
-1.4577888464104403 4.586786638647486 -13.057848920514644 204 204 208
-1.5154317210892616 4.602575586028886 -13.040109337170897 204 204 207
-1.5727452036653062 4.6182742686177285 -13.022470900723798 204 204 206
-1.651345407843709 4.637370211581866 -12.985042531923508 205 205 206
-1.745589546256351 4.6589262800913005 -12.932871266785746 204 204 205
-1.7370926882701347 4.663930964793094 -12.975376649105677 204 204 204
-1.797246104782607 4.679939338782437 -12.95431698577741 204 203 204
-1.8371188256996414 4.692673292087424 -12.951906764942304 204 203 205
-1.8998010743427418 4.7090131189573246 -12.928103621525366 203 203 206
-1.9786122224864497 4.727867729918668 -12.888983000925137 203 203 205
-1.9697638400176132 4.732806261826415 -12.931760506236808 202 202 204
-2.0006402636065044 4.744030262919196 -12.937310391491183 202 202 204
-2.031421281411202 4.7552260103962585 -12.942878098228956 201 202 204
-2.0855628393907706 4.770068920407814 -12.926286812634952 201 201 203
-2.1274458903682483 4.78296158233262 -12.921125538707786 201 201 202
-2.163840839168687 4.794975672795073 -12.921051798557105 199 199 201
-2.2040472468564074 4.8075628952838105 -12.91724332099665 199 198 201
-2.233878936466957 4.818521675336303 -12.923228658086742 198 197 199
-2.2700102973518037 4.8304400671463465 -12.923108187546905 197 196 194
-2.3036004552688474 4.841948820524695 -12.925328066556036 195 193 191
-2.3289826951144947 4.852182345252491 -12.935367595059923 192 189 186
-2.352554988478475 4.862130603233696 -12.94710934595514 188 184 181
-2.387604739859535 4.873821457407452 -12.947695647109754 184 180 178
-2.4000472098271897 4.88205944870181 -12.970143701084169 183 179 176
-2.405865274665938 4.889297933673145 -12.999064376282789 183 180 177
-2.4135026017619086 4.8968213243939145 -13.026264115564363 183 181 178
-2.411759783031133 4.902941574173523 -13.062695222459691 187 185 182
-2.411996100114545 4.909376358576902 -13.097279142901705 190 188 186
-2.4056496323345153 4.914842654292651 -13.138429605727616 194 192 191
-2.502853018782829 4.935763807526175 -13.077483403802006 195 193 193
-2.5080692863080705 4.942941721504836 -13.107156553548776 196 195 195
-2.5173421822555797 4.950731223618639 -13.132863380674896 197 196 196
-2.5253937066279004 4.958347526571387 -13.15982389930973 196 196 196
-2.5334567224622777 4.9659737822921715 -13.186817905224519 197 196 196
-2.541580660975529 4.97361725063558 -13.213796020147523 197 197 198
-2.5347737436002666 4.979087800538627 -13.255797503427377 197 197 197
-2.491490310214501 4.979270879117305 -13.334615937770756 197 196 196
-2.4715527877384424 4.982900719860888 -13.390211393136141 196 196 196
-1.1270389482281864 4.79504280388392 -14.785557405556789 196 196 196
-1.0927799019789965 4.797344123649509 -14.859674660021009 194 193 196
-1.180559121456949 4.817221860894389 -14.80999607861379 190 189 189
-1.2675269721768387 4.836913800266011 -14.76076547127269 180 173 167
-1.3331561003433459 4.853493996630028 -14.732971666055548 142 121 115
-1.3980228718383083 4.8699180156736155 -14.705698864872328 104 68 59
-1.473373047209182 4.887778942684283 -14.667394780844319 92 46 36
-1.6191506896354788 4.915516745337833 -14.55619981543246 94 43 31
-1.7164582656042109 4.936311701995598 -14.494379704032095 93 44 31
-1.6905907205788564 4.9397752313496195 -14.559732345044662 91 43 34
-1.7463831799602847 4.954677938745233 -14.540498116662361 94 50 45
-1.814162389053334 4.971208158766753 -14.508566627812456 105 71 68
-1.708653382859925 4.963684962776353 -14.657338449486417 108 79 75
-1.7657994258333103 4.97873419353763 -14.63646768495379 103 74 70
-1.8003849319264988 4.990641290949188 -14.639065169639844 96 66 61
-1.8666074865408797 5.00686400406844 -14.608259492511593 90 59 53
-2.362310461731897 5.081634469167524 -14.123792594044085 87 53 47
-2.315898414531783 5.082223586857107 -14.2104452661987 89 55 51
-2.208187518881206 5.074579420099755 -14.362517874266427 94 64 58
-2.2740085178161316 5.090470804867499 -14.330631572045089 101 73 67
-2.156025773184041 5.081617663983188 -14.494595180329096 104 76 69
-2.05964547159119 5.075797798147967 -14.636220915132359 97 67 61
-1.9396235449495371 5.066946800419796 -14.803862574762864 88 56 51
-1.935813397663206 5.073670322183362 -14.847292815396482 84 50 46
-1.9580942969153465 5.083866929518073 -14.862707615090095 79 42 36
-2.0102968176946927 5.09799958798633 -14.845738499290798 74 35 27
-2.084336170599422 5.114959939315284 -14.804891603454784 71 32 23
-2.05887142723778 5.11886140901427 -14.871902657952038 66 24 17
-2.1439923733675084 5.137196297733976 -14.818609621116916 63 20 13
-2.1591014678702773 5.14638793496316 -14.841451524997055 62 19 12
-1.8704905604856101 5.116395426785703 -15.197189793230503 61 18 11
-1.8801154615206928 5.1250520824394625 -15.226981523530986 61 18 11
-1.838341518529048 5.127141877222494 -15.313459535330953 61 18 11
-1.837198572144307 5.134473030386468 -15.355400077754322 61 16 10
-1.8674613745951039 5.1458091710834 -15.36266333831846 61 16 10
-2.4336902403880716 5.297806254343637 -15.171548714295529 57 17 9
-2.3645692236653124 5.296903316213552 -15.290913854338164 57 17 9
-2.28085611425219 5.29435245046386 -15.427549518648528 58 19 11
-2.2118558040576026 5.293668317732786 -15.547888055042014 62 24 15
-2.2166634311453635 5.3018297040796565 -15.583646566255549 66 29 20
-2.2570930404027276 5.314207470780057 -15.578297222434685 70 33 25
-2.3376775340079146 5.331272812823865 -15.526253557341153 71 36 29
-2.348742649640708 5.3401468439789905 -15.554638466490067 70 38 31
-2.4660598402946885 5.361378154499892 -15.45921564383904 71 41 33
-2.5310145217530344 5.3764394775309 -15.424370957595752 72 43 37
-2.3497950937768284 5.3631177079377865 -15.677720498372 74 45 39
-2.340816236630981 5.369747178828604 -15.729932243508328 75 46 40
-2.281347097502186 5.370656146813792 -15.841801360193777 76 49 42
-2.213121114774931 5.370662729623636 -15.964505555102864 78 51 46
-2.158669269583485 5.3723231063777925 -16.07144180197375 79 54 50
-2.333762816296378 5.3998170987521865 -15.906211208870815 80 58 54
-2.2976595878462467 5.403560859623661 -15.991491933768994 85 65 61
-2.2185197229081783 5.4025913636874 -16.128508567033855 92 74 69
-2.1565142900955694 5.403628419736474 -16.245634738208235 99 84 79
-2.1185156018559157 5.4073968681569475 -16.334457760036187 114 103 100
-2.033190567820787 5.406062891461899 -16.48061217343528 155 149 147
-2.0429534599200627 5.41518212898294 -16.512672502772055 167 163 163
-2.2206100110125373 5.44245109877773 -16.341609452341324 170 166 164
-2.383139513723875 5.467905055944 -16.187869725800425 169 166 164
-1.3856676937540202 5.369248454315404 -17.44454887822997 168 167 165
-1.451891095991547 5.384821458015891 -17.410206895920407 168 167 165
-1.693432686228837 5.418859243627017 -17.16110648692336 169 168 166
-1.7942494066179435 5.437847835742284 -17.08314940403842 170 169 167
-1.8598759539111978 5.453062853448319 -17.04793290674342 172 170 169
-1.940704705638474 5.4697999383199445 -16.99366417059562 173 172 170
-2.1369002703702895 5.498369652440085 -16.796345273510646 176 175 173
-2.2244837924378187 5.515578983472047 -16.732500934176564 178 178 176
-2.2837913479532537 5.5298202205675775 -16.70334789577525 180 180 179
-2.2204208621276535 5.531574691222944 -16.826831528644487 182 181 179
-1.9794360745239734 5.515533204676071 -17.172840714616463 183 182 179
-2.063827790887351 5.532397695247511 -17.11285902714874 184 183 181
-2.0983269255179167 5.544215796057362 -17.115127614181826 185 184 182
-2.1201288995836896 5.5547589485350475 -17.133288906400647 184 184 182
-2.2016852963681277 5.571171572059807 -17.07594663461168 184 184 182
-2.2882404124417315 5.587994334245522 -17.0118481901957 185 185 183
-2.24062563305451 5.591713603787959 -17.1176931105185 186 186 184
-2.2326099831815602 5.5993339432445355 -17.173563913304996 188 187 185
-2.2533790213162037 5.609745142251086 -17.192864494622498 190 189 187
-2.261994637046736 5.618997816982214 -17.2277135670699 191 190 188
-2.573400689166027 5.656880408455539 -16.873916724053963 191 191 190
-2.5795399511452644 5.665734705317192 -16.911050812730934 192 192 192
-2.532644360498023 5.669660042382713 -17.016723774231036 192 192 192
-2.405457645134799 5.666234223581578 -17.226763516281217 193 193 193
-2.2877178935265414 5.663864097262987 -17.425561440807037 193 193 193
-2.3297412438489573 5.676258510692371 -17.417437163259294 194 194 194
-2.195202605961625 5.672614283762538 -17.6395071914762 195 195 195
-2.226946665961708 5.684138276281306 -17.645129211562885 195 195 195
-2.132057331272234 5.684328028698257 -17.816769901322978 196 196 196
-4.063911353398738 5.8795626053986645 -15.405536052437267 198 198 198
-4.0293402347274565 5.8841303604319695 -15.492545074704857 199 199 199
-5.181468570059478 6.004719631503914 -14.07712383670474 201 201 201
-5.214731955816193 6.014432643879181 -14.070161411354434 202 202 202
-4.917571879195655 5.996544812544583 -14.507127028569386 203 203 203
-4.923424880056275 6.004160804881213 -14.53803874016157 203 203 203
-4.947364060405397 6.013275192397039 -14.544584118804213 204 204 204
-4.928867104837851 6.018921982183719 -14.608562802148727 205 205 205
-4.906251728032646 6.024282063145112 -14.678386434272106 206 206 206
-4.897245837313521 6.030784043913623 -14.729953167718323 206 206 206
-11.386954931203157 7.24436291510698 -9.664185509769009 215 215 215
-11.469781596012377 7.242551013995326 -9.505407765559088 215 215 215
-11.437742550428771 7.2505266764201295 -9.606405106963553 215 215 215
-11.404815815533235 7.258682265154214 -9.70997738791516 189 189 189
-11.317782582115326 7.271777468583645 -9.937705873428984 0 0 0
-11.235941070675478 7.28464489028383 -10.15486053066229 0 0 0
-11.286920665611447 7.285535931288019 -10.068048425163818 0 0 0
-8.291734258770251 4.979216155334646 -2.84644816286287 0 0 0
-0.208429748125611 2.87666600316173 -5.875313795434162 0 0 0
-0.8801725326341794 3.0553354883488857 -5.644940918105521 158 158 158
-1.5129136876783116 3.2235360304766565 -5.427427716587481 182 182 182
-2.261568785151241 3.4215449260429356 -5.164629867733132 182 182 182
-2.6242088259229 3.5189918704791388 -5.045632910687131 182 182 182
2.3118899948378964 2.3147380511974944 -7.326378099778266 188 188 188
2.2581555429140545 2.3330432578606097 -7.3296657146215765 188 188 188
2.01690841841583 2.399098766995252 -7.257151710867978 189 189 189
-1.618109503656271 4.651811802480194 -12.968896333755051 205 205 207
-1.6394225726459801 4.6616313655716874 -12.984048293036356 205 205 207
-1.6608390549969574 4.671463345023679 -12.99908313217122 205 205 207
-1.6406183314600113 4.674690518275261 -13.05258528618106 204 204 206
-1.6850097706832008 4.688165019876476 -13.046383792517716 204 204 206
-1.7292265566335878 4.701586577412284 -13.040207076159323 204 204 206
-1.762252984827973 4.713224360342115 -13.044321832594187 204 204 206
-1.7997830928220235 4.725552725867603 -13.044146854007677 204 204 206
-1.876970839864498 4.744056527696816 -13.006709183638264 203 203 205
-1.8903636527799632 4.752568640051001 -13.028902005172455 203 203 205
-1.9180241578333304 4.763299247984162 -13.037671176131516 203 203 205
-1.9950288938969933 4.7816579757972475 -12.999774627733748 203 203 205
-2.037325092240229 4.794603491337114 -12.994444857042907 202 202 204
-2.0818350488410786 4.807865406227421 -12.986881744820405 202 202 204
-2.111994355076839 4.81889985175841 -12.992841576011976 202 202 204
-2.165497170643138 4.833490767472261 -12.976442556034407 201 201 203
-2.1917306383132127 4.8438899531548065 -12.985961629572616 201 201 202
-2.2293052828725353 4.856003215456839 -12.984543267929478 201 201 200
-2.2582008428371183 4.866781732869628 -12.991370501940848 201 201 199
-2.300690493738669 4.879600993959911 -12.985012735844956 201 201 199
-2.308268888610299 4.887140748625113 -13.012306579288417 201 200 202
-2.2982239249230174 4.8920450851905235 -13.056748626572215 200 199 201
-2.3116924899109126 4.900491430051064 -13.078450544454075 199 198 200
-2.3135310283392325 4.907207164001073 -13.111515230377407 199 199 200
-2.325877999935299 4.915498474157646 -13.134377170614226 199 199 201
-2.333551278664582 4.923101766729194 -13.161845734291138 199 199 200
-2.3178384140116863 4.927261941927865 -13.212362530378552 199 199 199
-2.528071386801996 4.964692775305447 -13.040224683214166 198 198 198
-2.5337664891851674 4.971944257540963 -13.06931509668426 198 198 198
-2.542384645947417 4.979633384496766 -13.095564121582417 198 198 198
-2.5530709753758067 4.987631370870565 -13.119798475385611 198 198 198
-2.5611260267444456 4.995253096534457 -13.146686368102563 198 198 198
-2.5279250864285383 4.99691561649351 -13.214855746590644 198 198 198
-2.5560776609941063 5.007471444428202 -13.221802117327556 198 198 198
-2.4771901685525073 5.002639309277563 -13.336251884606254 197 197 197
-0.9674586021613036 4.800404118463029 -14.932618710535223 197 197 197
-1.0385412434837606 4.817855291698621 -14.900365767158428 197 194 198
-1.1091158313093024 4.835181621866664 -14.868342734819738 194 195 197
-1.1625550660306416 4.850036886392319 -14.853487526849172 192 195 195
-1.213004072431736 4.864436182163399 -14.841494270668417 191 190 190
-1.3000867164970078 4.883936335967188 -14.791812930482457 181 175 172
-1.3681506498851377 4.900711194660277 -14.761280320384248 150 129 122
-1.4393160773381855 4.917866710586923 -14.72727991366698 111 77 66
-1.511169805223573 4.935063468371063 -14.692275949668126 92 50 36
-1.5792144140342108 4.951679167197764 -14.660916505169823 94 46 35
-1.6451949248426754 4.967959532086491 -14.631421205722782 98 53 47
-1.7166008082784714 4.984934049505858 -14.596012789721478 107 69 68
-1.7300828846364906 4.993944277997571 -14.620742020265496 110 77 73
-1.7953252714956713 5.009999703102366 -14.591345015878254 105 73 68
-1.8386108081978776 5.023030654305536 -14.584714308741333 96 64 58
-1.8917071199762177 5.037359386479979 -14.567621008750764 90 58 51
-1.9297156926685828 5.049622484454291 -14.566240091726321 91 55 49
-1.9647891973901555 5.061471218809168 -14.567847957749656 93 57 52
-1.855370556182315 5.054023966981353 -14.722560876061468 98 66 61
-1.8530286210437827 5.060939890987015 -14.764159575237326 102 73 67
-1.8760420964408464 5.071233222362418 -14.778844705911808 103 74 68
-1.907172930320737 5.082591253882173 -14.784824068022473 98 67 61
-1.97900308819953 5.099279294401638 -14.74710924515622 89 56 51
-1.9120433346887662 5.097759633698926 -14.858225720799574 83 48 43
-1.937252006625923 5.10833448623659 -14.870521852389023 79 41 33
-1.964543987385552 5.1191717162937795 -14.880524804640299 75 36 27
-1.9914941316071912 5.129954681989306 -14.890843354255827 74 31 22
-2.0085807226096293 5.139459045729335 -14.911822346411792 67 24 15
-2.1215450389899813 5.161246069851655 -14.828388180525689 65 21 13
-2.1258105542293277 5.169064848959046 -14.863096359391978 65 20 13
-1.8715143197129 5.144055946025014 -15.180986460106428 63 19 12
-1.8892608907713502 5.153749117733113 -15.20181090694259 62 18 11
-1.8343905785070973 5.154297805096611 -15.302573443355733 61 17 11
-1.8539918336118868 5.164263843054481 -15.321568939131076 62 17 11
-1.8889691878619717 5.176147886835572 -15.323539243695862 62 17 11
-1.9101686431626366 5.224134221821772 -15.54542892929795 59 16 9
-2.119070439912548 5.257033077638645 -15.351139297118788 59 16 9
-2.2389482893823116 5.293987429764124 -15.33745969770781 57 17 9
-2.243365682667007 5.302036210332984 -15.373141817120302 57 17 9
-2.3804179315050105 5.325773233283285 -15.257328800733688 57 17 9
-2.29583810593679 5.323311383673973 -15.39475034406496 59 20 11
-2.259538262429757 5.326616062673987 -15.477329146607193 62 24 15
-2.222789932143889 5.329930210427412 -15.560758510042515 67 30 21
-2.296039976336859 5.346054925650872 -15.517464702959018 71 34 26
-2.316175737269485 5.355991284459574 -15.535346962890433 71 36 30
-2.338904540526091 5.366222730191061 -15.550204567167638 70 38 31
-2.474130793630404 5.389292859035439 -15.43403713382452 71 41 33
-2.487121062966793 5.398342237760151 -15.459854751387944 72 43 36
-2.4185174570834818 5.398175662163175 -15.581223075146665 73 44 38
-2.360946441848766 5.399349811069351 -15.690183592425985 76 47 41
-2.3549434782638237 5.406379993558062 -15.738925507438859 77 50 43
-2.3622112318598134 5.414914900905316 -15.772158153550585 79 52 47
-2.3384349760571963 5.420026240484786 -15.842193160611302 80 55 51
-2.3033391741069176 5.4239403720327 -15.925924027981019 82 60 55
-2.276022653434551 5.428769057168978 -16.00073916820822 85 66 61
-2.2478817322810993 5.433561641548318 -16.0768282524117 94 77 70
-2.2066957385689348 5.436995897265641 -16.168816653973835 100 87 79
-2.125577081020893 5.436198351444258 -16.30907567719769 123 116 109
-2.0985023364712863 5.441309777200612 -16.38498992795951 162 160 157
-2.093332245388356 5.448809572984365 -16.434788704453254 168 167 165
-2.2407056781657184 5.472500265639771 -16.30032990346219 171 170 168
-2.3689265716875783 5.494018898446005 -16.188252121423062 170 169 167
-1.3330904001026367 5.393467569372012 -17.490263197212627 171 170 168
-1.3929979823005656 5.408308565801194 -17.463802476931978 171 170 168
-1.6551956275449689 5.444047347863807 -17.18989352352204 172 171 169
-1.7013246676095255 5.457250244709516 -17.179125407740038 173 172 170
-1.8505132485196851 5.480966948812679 -17.04157229184188 174 173 171
-1.9295592037733273 5.497390345544128 -16.989564923528214 177 176 174
-2.113762375495538 5.524373181709479 -16.80728087703823 180 179 177
-2.2084545622194236 5.542157940359562 -16.734754653912674 181 181 179
-2.255831296379263 5.555123455887772 -16.72047825543638 183 183 181
-1.9340832051474326 5.531411511307111 -17.16560370999181 183 183 181
-1.9833046445259033 5.54471646176696 -17.149876374369317 185 184 182
-2.0490294779564824 5.559602039670697 -17.11328902500045 186 185 183
-2.0664024393787184 5.5697198609871625 -17.13707728687441 187 186 184
-2.1353897973834943 5.584835349826033 -17.095919395215304 186 186 184
-2.1825777590749382 5.597792246235629 -17.081932797690904 186 186 184
-2.217118680261841 5.609505632243911 -17.083757445604764 187 187 185
-2.2446957247178174 5.6205385662435 -17.09431136922075 188 188 186
-2.179616635239012 5.622825534162412 -17.222675152251114 189 189 187
-2.2147517530033127 5.6346030505755245 -17.223787819610955 191 190 188
-2.213020547241099 5.642931328114851 -17.271940831777354 192 191 189
-2.207172973216 5.650905795778604 -17.325515695680966 192 192 191
-2.2459854273694573 5.663008949720094 -17.32183653043569 193 193 193
-2.4784487858731916 5.692727693524408 -17.06834515560687 193 193 193
-2.2100611636064613 5.6768685686683025 -17.460862833142244 194 194 194
-2.352054050117923 5.698235653730531 -17.323419641647646 194 194 194
-2.1222406782122096 5.686291685664809 -17.668374260995265 195 195 195
-2.075804782077409 5.690902125827088 -17.77608416520948 195 195 195
-2.0352994759186043 5.6961190751556465 -17.876506249927186 196 196 196
-1.8800176274679563 5.691403183417677 -18.127739957123005 197 197 197
-3.9328770418375365 5.893367320915303 -15.561909208677154 199 199 199
-3.9269240296031223 5.9005455693982265 -15.611363339844544 200 200 200
-3.9166632340551333 5.907392421055265 -15.666701760603768 200 200 200
-5.098798115012684 6.013575287508655 -14.134422216402841 201 201 201
-5.132966311506584 6.023373235369357 -14.126545977798507 202 202 202
-5.141743655852261 6.031065326926423 -14.152527331025656 202 202 202
-4.876719996150035 6.016511456811234 -14.546112780284012 203 203 203
-4.907996279163241 6.026217950675518 -14.542895801511602 205 205 205
-4.928924660418189 6.035076308644257 -14.553531921344678 205 205 205
-4.8696794410573805 6.0375725928088455 -14.672630899920563 205 205 205
-4.887634508651885 6.0462372418187265 -14.687518014841542 206 206 206
-4.829961006442154 6.049006548946259 -14.805293212070213 207 207 207
-11.394567178086731 7.255247932827144 -9.632873671737704 215 215 215
-11.507184314014042 7.250583854670143 -9.40692107802783 215 215 215
-11.460616266180459 7.259917039292849 -9.540423117274806 216 216 216
-11.412784037815976 7.269503609336772 -9.677549426820278 186 186 186
-11.331624675909174 7.282302636054194 -9.891457334449026 0 0 0
-11.255012264929562 7.294905448425915 -10.096199583573487 0 0 0
-11.300598185388653 7.296158210544639 -10.021732626662189 0 0 0
-8.287857545155056 4.988710372224099 -2.8458897173700604 0 0 0
-0.30964590684122273 2.9250329200947025 -5.833435880493727 0 0 0
-0.9958164881197475 3.1064627692594957 -5.5977089198388095 155 155 155
-1.6216646673103443 3.271957128305818 -5.3827821399344025 182 182 182
-2.3299812522317276 3.4584533792009404 -5.135199194127412 182 182 182
-2.6887905149807914 3.5543863621211145 -5.017642076174818 182 182 182
2.318168373919312 2.339335975111343 -7.323547464855068 188 188 188
2.225681935601031 2.367410404269196 -7.311260401883446 188 188 188
-1.534572397368552 4.703913639241305 -13.244240207938612 204 204 206
-1.7058765059663283 4.7370106323024155 -13.119737214012856 204 204 206
-1.8107170455568662 4.759706411690981 -13.056672797177226 203 203 205
-1.7747825061209683 4.760661316026534 -13.125299540882573 203 203 205
-1.8238057336484674 4.774696704155209 -13.1142346320376 203 203 205
