ply
format ascii 1.0
element vertex 869
property float x
property float y
property float z
property float nx
property float ny
property float nz
property uchar diffuse_red
property uchar diffuse_green
property uchar diffuse_blue
property uchar class
property uchar detection
end_header
0.8621 1.9764 -12.8245 0.416 0.668 0.617 105 34 8 0 0
1.0621 2.0405 -14.0139 0.257 0.441 0.860 92 34 18 0 0
1.0035 1.8965 -14.3838 0.081 0.995 -0.065 120 59 39 0 0
1.0449 1.7575 -15.5035 0.427 0.904 0.016 110 59 45 0 0
0.5046 1.4783 -12.6246 0.576 0.312 0.756 121 43 21 0 0
0.5196 1.4957 -12.6419 0.510 0.331 0.794 120 40 19 0 0
1.1384 1.8894 -15.1807 0.444 0.531 0.722 101 61 50 0 0
1.1633 1.9047 -15.2865 0.875 0.246 0.418 112 61 46 0 0
1.1108 1.6932 -16.0808 0.550 0.800 -0.240 37 37 39 0 0
0.5955 1.5448 -12.6768 0.237 0.099 0.966 120 39 18 0 0
1.1098 1.9286 -14.4548 0.709 0.681 0.184 110 54 41 0 0
1.1124 1.8781 -14.7581 0.171 0.984 0.037 124 65 46 0 0
1.1130 1.8321 -15.0204 0.146 0.960 0.238 121 56 44 0 0
1.1305 1.8439 -15.0881 0.273 0.854 0.443 74 49 42 0 0
1.0966 1.7357 -15.4359 0.223 0.941 0.252 103 53 41 0 0
1.1342 1.8569 -14.7595 0.622 0.782 -0.032 124 63 45 0 0
1.1371 1.8145 -15.0170 0.179 0.940 0.290 116 53 43 0 0
1.1534 1.8335 -15.0342 0.773 0.618 0.142 122 65 51 0 0
1.1501 1.8181 -15.0950 0.634 0.716 0.292 81 51 43 0 0
1.1540 1.7058 -15.7471 0.421 0.895 0.148 82 42 34 0 0
1.1196 1.9290 -13.9764 0.457 0.085 0.885 59 10 6 0 0
1.1721 1.8354 -14.8833 0.325 0.923 0.205 113 61 43 0 0
1.1775 1.6855 -15.7465 0.779 0.620 0.097 81 40 34 0 0
0.4233 1.1693 -12.6492 0.355 0.013 0.935 120 41 24 0 0
1.1015 1.8576 -13.9607 0.733 0.620 0.280 66 14 3 0 0
1.1136 1.8698 -13.9847 0.186 0.409 0.893 57 11 5 0 0
1.0707 1.7822 -13.8728 0.402 0.250 0.881 64 12 6 0 0
1.1274 1.8178 -14.1002 0.335 0.658 0.674 71 14 5 0 0
0.4518 1.1145 -12.6295 0.176 0.472 0.864 121 42 25 0 0
0.9848 1.8205 -12.7783 0.257 0.764 0.592 68 13 3 0 0
1.0639 1.7306 -13.8336 0.541 0.165 0.825 127 80 44 0 0
1.1470 1.8032 -14.0554 0.610 0.597 0.521 62 11 7 0 0
1.2194 1.7081 -15.0898 0.283 0.230 0.931 114 60 47 0 0
0.7393 1.4509 -12.6893 0.380 0.767 0.517 118 37 18 0 0
0.7588 1.4762 -12.6982 0.225 0.267 0.937 117 36 19 0 0
1.0396 1.8180 -12.9384 0.860 0.447 0.246 82 52 44 0 0
1.0328 1.6454 -13.7949 0.222 0.397 0.891 48 11 5 0 0
1.0484 1.6638 -13.8118 0.213 0.541 0.814 70 15 2 0 0
1.0897 1.7182 -13.8252 0.445 0.652 0.614 121 75 39 0 0
1.1338 1.7685 -13.8812 0.620 0.160 0.769 107 62 44 0 0
1.1534 1.7656 -14.0379 0.525 0.795 0.302 58 12 5 0 0
1.1689 1.7838 -14.0551 0.316 0.794 0.520 61 10 6 0 0
1.1949 1.8110 -14.1003 0.080 0.786 0.614 108 51 32 0 0
1.2614 1.6067 -15.6549 0.823 0.565 0.060 112 56 47 0 0
1.2876 1.5891 -15.9366 0.881 0.002 0.473 42 36 36 0 0
-0.6449 -0.5172 -12.7151 0.336 -0.007 0.942 116 50 35 0 0
0.7639 1.4377 -12.6829 0.567 0.518 0.640 118 39 19 0 0
1.0629 1.8031 -12.9339 0.735 0.648 0.198 79 49 41 0 0
1.0652 1.7984 -12.9748 0.312 0.948 0.053 49 43 42 0 0
0.8295 1.3307 -13.7105 0.895 -0.199 0.400 42 41 47 0 0
0.8414 1.3422 -13.7356 0.836 -0.154 0.526 39 38 43 0 0
0.9478 1.4740 -13.8153 -0.501 0.570 0.651 8 1 1 0 0
0.9745 1.5120 -13.8104 -0.057 0.877 0.477 42 20 18 0 0
1.0804 1.6621 -13.7911 0.436 0.679 0.591 75 18 3 0 0
1.1807 1.7651 -13.9769 0.183 0.703 0.687 69 14 6 0 0
1.1794 1.7532 -14.0293 0.305 0.713 0.631 57 11 4 0 0
1.2831 1.7521 -14.7802 0.582 0.795 0.170 104 52 41 0 0
1.3565 1.4194 -17.0354 -0.161 -0.422 0.892 143 144 146 0 0
1.4493 1.5701 -16.9192 -0.110 -0.532 0.840 149 150 152 0 0
-0.6978 -0.6398 -12.6975 0.089 0.407 0.909 113 50 39 0 0
-0.6502 -0.5771 -12.7136 0.336 -0.007 0.942 116 54 42 0 0
-0.6266 -0.5459 -12.7218 0.336 -0.007 0.942 113 49 37 0 0
1.0502 1.7600 -12.8174 0.390 0.564 0.728 72 14 4 0 0
1.0906 1.7958 -12.9210 0.201 0.826 0.527 79 50 42 0 0
0.8922 1.3545 -13.7753 0.437 -0.022 0.899 8 7 9 0 0
0.9121 1.3804 -13.7844 0.437 -0.022 0.899 5 3 4 0 0
0.9971 1.4934 -13.8089 0.277 0.637 0.719 43 20 17 0 0
1.1989 1.7390 -13.9844 0.385 0.526 0.758 66 12 4 0 0
1.1952 1.7226 -14.0421 0.124 0.331 0.936 60 12 6 0 0
-0.6719 -0.6560 -12.6928 0.089 0.407 0.909 111 49 37 0 0
-0.5615 -0.5129 -12.7452 0.212 0.116 0.970 116 50 36 0 0
0.0335 0.3340 -12.6420 0.369 0.237 0.899 118 44 28 0 0
1.1212 1.8029 -12.8571 0.489 0.221 0.844 81 33 24 0 0
0.8616 1.2603 -13.7821 -0.151 -0.212 0.966 37 36 41 0 0
0.9422 1.3749 -13.7682 0.514 -0.054 0.856 5 3 4 0 0
1.0104 1.4678 -13.7775 0.542 0.720 0.434 12 3 2 0 0
1.2201 1.7182 -13.9857 0.447 0.608 0.656 65 12 5 0 0
1.2201 1.7085 -14.0355 0.476 0.426 0.769 61 11 6 0 0
1.2349 1.7253 -14.0543 0.447 0.402 0.799 63 12 6 0 0
1.3726 1.7728 -14.7858 0.734 0.661 0.154 113 60 47 0 0
-0.6386 -0.6595 -12.6769 -0.127 0.668 0.733 111 49 36 0 0
0.0539 0.3111 -12.6444 0.369 0.237 0.899 118 48 31 0 0
0.0724 0.3341 -12.6580 0.369 0.237 0.899 136 70 51 0 0
0.6025 1.0669 -12.6846 0.027 0.613 0.789 123 45 25 0 0
1.1199 1.7535 -12.8544 0.646 0.476 0.597 81 15 2 0 0
0.8574 1.2030 -13.7854 -0.170 -0.106 0.980 39 38 42 0 0
0.8870 1.2461 -13.7756 -0.170 -0.106 0.980 32 32 34 0 0
1.2569 1.7059 -14.0539 0.304 0.479 0.824 65 10 3 0 0
1.3242 1.6962 -14.5744 0.609 0.790 -0.078 51 40 41 0 0
1.3786 1.7331 -14.7696 0.704 0.469 0.533 102 52 41 0 0
1.3325 1.4824 -15.7076 0.659 0.687 0.307 114 62 49 0 0
1.3420 1.4888 -15.7423 0.659 0.687 0.307 98 48 42 0 0
-0.6442 -0.7202 -12.6757 -0.029 0.595 0.803 106 50 37 0 0
-0.6198 -0.6876 -12.6830 0.215 0.410 0.887 110 48 35 0 0
-0.6009 -0.6643 -12.6983 0.215 0.410 0.887 112 49 36 0 0
0.0757 0.2906 -12.6445 0.459 0.209 0.863 118 53 37 0 0
0.0928 0.3113 -12.6604 0.369 0.237 0.899 141 86 71 0 0
0.2530 0.5438 -12.6151 0.666 -0.015 0.746 121 46 27 0 0
0.9471 1.4814 -12.7688 0.831 0.357 0.427 108 33 17 0 0
1.1272 1.7194 -12.8351 0.646 0.476 0.597 105 33 10 0 0
0.8800 1.1839 -13.7843 -0.239 0.041 0.970 35 35 37 0 0
0.9091 1.2262 -13.7755 -0.069 -0.027 0.997 19 19 20 0 0
1.2801 1.6885 -14.0512 0.248 0.232 0.941 67 13 3 0 0
-0.6120 -0.7256 -12.6616 0.327 0.880 0.345 107 50 37 0 0
0.0951 0.2657 -12.6487 0.459 0.209 0.863 121 54 40 0 0
0.1133 0.2884 -12.6628 0.369 0.237 0.899 140 81 68 0 0
0.1322 0.3121 -12.6758 0.372 0.066 0.926 130 72 57 0 0
0.1766 0.3713 -12.6904 0.179 0.128 0.976 120 51 33 0 0
0.7938 1.2352 -12.6859 0.528 0.686 0.501 123 42 22 0 0
0.8128 1.2598 -12.6959 0.364 0.791 0.492 119 38 19 0 0
0.9532 1.4357 -12.7965 0.337 0.940 0.053 110 34 18 0 0
1.1109 1.4715 -13.7066 0.356 0.382 0.853 37 19 19 0 0
1.2746 1.6390 -14.0090 -0.055 0.703 0.709 61 10 5 0 0
1.3662 1.6405 -14.6330 0.610 0.787 0.094 103 60 49 0 0
1.3737 1.6437 -14.6691 0.609 0.728 0.316 120 63 50 0 0
1.3649 1.5283 -15.1770 0.593 0.771 -0.230 105 56 42 0 0
1.3596 1.4845 -15.3564 0.292 0.105 0.951 117 63 48 0 0
1.3795 1.5106 -15.3654 0.292 0.105 0.951 109 57 44 0 0
1.4521 1.5316 -15.7620 -0.041 0.504 0.863 111 57 38 0 0
-0.6700 -0.8850 -12.7834 0.335 -0.263 0.905 110 51 44 0 0
0.1144 0.2408 -12.6530 0.459 0.209 0.863 119 49 33 0 0
0.1341 0.2660 -12.6647 0.323 0.235 0.917 121 54 38 0 0
0.1530 0.2899 -12.6775 0.323 0.235 0.917 120 51 35 0 0
0.1759 0.3208 -12.6837 0.179 0.128 0.976 121 50 34 0 0
0.1978 0.3498 -12.6915 0.179 0.128 0.976 119 47 30 0 0
1.1639 1.6722 -12.8448 0.479 0.423 0.769 77 17 6 0 0
1.0458 1.3340 -13.6874 -0.101 0.126 0.987 5 2 5 0 0
1.1329 1.4521 -13.7062 -0.226 0.659 0.717 33 16 18 0 0
1.1758 1.5102 -13.7162 0.012 0.705 0.709 31 7 3 0 0
1.2110 1.5543 -13.7416 0.215 0.681 0.700 81 23 6 0 0
1.3770 1.6097 -14.6061 0.790 0.593 0.155 62 42 42 0 0
1.3835 1.6110 -14.6444 0.754 0.614 0.235 105 59 48 0 0
1.4071 1.5441 -15.1319 0.813 0.579 0.055 107 58 44 0 0
1.4097 1.5377 -15.1811 0.780 0.241 0.578 110 61 48 0 0
1.4231 1.5517 -15.2050 0.780 0.241 0.578 98 49 40 0 0
1.4139 1.5228 -15.2826 0.364 0.784 0.503 116 62 47 0 0
1.4381 1.5570 -15.2813 0.479 0.499 0.722 110 57 44 0 0
1.3628 1.3798 -15.6308 0.147 0.984 -0.102 104 57 43 0 0
1.3682 1.3783 -15.6752 0.071 0.997 0.038 89 55 44 0 0
1.3813 1.3912 -15.7014 0.199 0.853 0.482 77 44 33 0 0
1.3869 1.3901 -15.7456 0.022 0.959 0.282 108 60 45 0 0
0.8254 1.1773 -12.7052 0.061 0.232 0.971 117 40 22 0 0
0.9671 1.3652 -12.7590 0.104 0.126 0.987 111 34 15 0 0
1.1854 1.6543 -12.8435 0.500 0.521 0.691 72 18 5 0 0
1.1985 1.6685 -12.8638 0.500 0.521 0.691 91 24 3 0 0
1.2101 1.6704 -12.9328 0.666 0.514 0.541 81 50 41 0 0
1.2209 1.5232 -13.7169 0.055 0.689 0.723 61 15 3 0 0
1.2349 1.5386 -13.7371 0.179 0.636 0.751 99 50 22 0 0
1.3313 1.6235 -13.9813 0.196 0.296 0.935 57 10 4 0 0
1.3392 1.6277 -14.0146 0.497 0.425 0.756 58 9 2 0 0
1.3940 1.5797 -14.6180 0.840 0.532 0.108 66 42 39 0 0
1.4011 1.5819 -14.6553 0.773 0.586 0.243 106 57 45 0 0
1.4417 1.6250 -14.7230 0.643 0.699 0.312 103 51 38 0 0
1.4505 1.5740 -15.0285 0.983 0.135 0.121 102 52 41 0 0
1.4260 1.4933 -15.2522 0.410 0.849 0.334 97 48 39 0 0
1.4407 1.5095 -15.2736 0.298 0.723 0.623 117 61 47 0 0
1.4117 1.4430 -15.3985 0.548 0.822 0.152 112 56 44 0 0
1.4191 1.4453 -15.4375 0.548 0.822 0.152 108 55 45 0 0
1.3969 1.3676 -15.6623 0.241 0.969 0.046 85 54 44 0 0
1.4023 1.3659 -15.7070 0.130 0.980 0.152 72 42 33 0 0
0.1974 0.2315 -12.7655 0.692 0.522 0.499 116 45 29 0 0
1.2065 1.6355 -12.8432 0.477 0.537 0.696 70 12 3 0 0
1.2187 1.6481 -12.8651 0.549 0.523 0.653 96 28 6 0 0
1.4042 1.5478 -14.5925 0.930 0.302 0.209 44 36 38 0 0
1.4120 1.5514 -14.6279 0.916 0.284 0.282 73 46 41 0 0
1.4638 1.5010 -15.2171 0.731 0.239 0.639 95 48 37 0 0
1.4781 1.5165 -15.2392 0.731 0.239 0.639 115 59 45 0 0
1.4380 1.4283 -15.3910 0.440 0.848 0.296 114 57 46 0 0
1.4486 1.4367 -15.4223 0.756 0.646 -0.106 109 55 46 0 0
1.4269 1.3594 -15.6462 0.241 0.969 0.046 79 50 41 0 0
1.4335 1.3598 -15.6883 0.241 0.969 0.046 71 45 37 0 0
1.4400 1.3601 -15.7304 0.241 0.969 0.046 107 67 54 0 0
1.4555 1.3777 -15.7508 0.220 0.933 0.285 83 44 37 0 0
1.4481 1.0808 -17.1202 -0.734 0.263 0.626 126 127 129 0 0
1.5814 1.3292 -16.8300 0.559 0.818 0.136 131 132 134 0 0
-0.6870 -1.0892 -12.8693 0.267 -0.357 0.895 204 201 200 0 0
1.0155 1.3282 -12.7926 0.288 0.594 0.751 111 36 20 0 0
1.2048 1.4360 -13.5463 0.200 0.861 0.467 26 12 11 0 0
1.2205 1.4546 -13.5629 0.437 0.862 0.256 32 13 11 0 0
1.2288 1.4597 -13.5944 0.437 0.862 0.256 30 6 4 0 0
1.2299 1.4514 -13.6409 0.090 0.910 0.405 38 5 3 0 0
1.2451 1.4691 -13.6586 0.017 0.885 0.466 57 11 4 0 0
1.4569 1.3512 -15.6302 0.241 0.969 0.046 65 41 33 0 0
1.4656 1.3557 -15.6669 0.730 0.677 -0.093 54 37 29 0 0
1.4851 1.3687 -15.7357 0.390 0.893 0.223 65 30 24 0 0
-0.5559 -0.9616 -12.8838 0.581 -0.044 0.813 103 44 34 0 0
-0.5354 -0.9354 -12.8970 0.581 -0.044 0.813 107 46 36 0 0
0.1822 0.0952 -12.8202 0.035 0.246 0.969 114 45 29 0 0
1.0038 1.2783 -12.7184 0.289 0.078 0.954 111 38 21 0 0
1.0385 1.3124 -12.7889 0.288 0.594 0.751 111 36 20 0 0
1.2733 1.4614 -13.6451 0.017 0.885 0.466 90 43 18 0 0
1.4543 1.5063 -14.6337 0.896 0.443 0.028 79 48 42 0 0
1.4589 1.5036 -14.6768 0.907 0.368 0.203 111 56 41 0 0
1.4916 1.3524 -15.6024 0.342 0.929 -0.143 49 29 21 0 0
1.6436 1.2993 -16.8577 0.246 0.756 0.606 133 133 137 0 0
5.6039 6.9252 -16.7262 -0.467 0.881 0.071 216 216 216 0 0
-0.5636 -1.0275 -12.8863 0.583 -0.093 0.807 105 76 70 0 0
-0.5421 -0.9995 -12.8981 0.617 -0.139 0.775 98 51 43 0 0
-0.5208 -0.9719 -12.9102 0.617 -0.139 0.775 104 47 38 0 0
0.2110 0.0864 -12.8091 -0.318 0.734 0.601 113 43 30 0 0
0.5388 0.5751 -12.6963 0.477 0.007 0.879 111 45 29 0 0
0.6580 0.7312 -12.7557 0.276 0.183 0.944 116 48 32 0 0
0.7146 0.8138 -12.7447 0.712 0.274 0.646 116 44 29 0 0
1.0586 1.2910 -12.7910 -0.088 0.495 0.865 112 37 21 0 0
1.2188 1.5251 -12.7584 0.520 0.684 0.511 149 72 29 0 0
1.4565 1.5610 -14.1539 0.664 0.522 0.535 72 24 12 0 0
1.5047 1.5966 -14.3057 0.221 0.389 0.894 63 41 33 0 0
1.4926 1.4228 -15.0325 0.553 0.833 -0.008 114 54 38 0 0
1.5149 1.3565 -15.4870 0.295 0.940 -0.173 104 53 43 0 0
-0.5557 -1.0758 -12.9097 0.535 -0.132 0.835 174 164 163 0 0
0.5514 0.5389 -12.7120 0.633 0.009 0.774 110 45 27 0 0
0.7757 0.8461 -12.7635 0.393 -0.054 0.918 118 47 30 0 0
1.3185 1.4995 -13.3018 0.079 0.986 0.148 76 24 12 0 0
1.4043 1.5221 -13.7575 0.209 0.763 0.612 114 63 34 0 0
1.4474 1.5157 -14.0682 0.689 0.617 0.380 82 19 2 0 0
1.4549 1.5189 -14.1028 0.564 0.467 0.681 107 49 27 0 0
1.4727 1.4618 -14.4806 0.603 0.797 -0.035 45 36 37 0 0
1.5128 1.4093 -14.9833 0.519 0.855 -0.010 107 42 24 0 0
1.5471 1.3533 -15.4649 0.223 0.964 -0.145 101 57 42 0 0
1.5505 1.3348 -15.5722 0.351 0.915 -0.198 72 47 44 0 0
2.1741 1.9233 -16.9355 -0.693 -0.068 0.718 190 190 192 0 0
5.7201 6.9654 -16.8985 0.754 0.657 0.007 217 217 217 0 0
-0.5378 -1.1069 -12.9179 0.542 0.016 0.840 206 204 206 0 0
-0.5235 -1.0917 -12.9411 0.635 0.075 0.769 178 168 169 0 0
1.1113 1.2715 -12.7712 -0.414 0.563 0.715 115 43 28 0 0
1.3186 1.5438 -12.8745 0.463 0.522 0.717 105 32 6 0 0
1.3151 1.5066 -13.0207 0.701 0.665 0.258 88 40 31 0 0
1.3490 1.4972 -13.2832 0.392 0.903 0.175 90 43 25 0 0
1.3563 1.5004 -13.3161 0.392 0.903 0.175 97 50 29 0 0
1.5389 1.3954 -14.9755 0.566 0.824 0.040 91 36 23 0 0
-0.5211 -1.1402 -12.9280 0.542 0.016 0.840 209 210 213 0 0
-0.1906 -0.6738 -12.9496 -0.215 0.456 0.863 107 49 38 0 0
-0.1477 -0.6174 -12.9711 -0.386 0.381 0.840 109 50 38 0 0
0.1025 -0.2497 -12.9224 -0.286 0.598 0.748 110 46 34 0 0
0.1183 -0.2315 -12.9415 -0.121 0.454 0.883 111 46 34 0 0
0.1404 -0.2019 -12.9500 0.390 0.217 0.895 111 46 34 0 0
1.1275 1.2633 -12.6896 0.663 0.261 0.702 114 44 29 0 0
1.3551 1.4705 -13.2186 0.858 0.510 0.052 100 54 36 0 0
1.3596 1.4683 -13.2572 0.868 0.490 0.082 102 54 37 0 0
1.3752 1.4764 -13.3211 0.823 0.428 0.373 104 55 36 0 0
1.3847 1.4835 -13.3498 0.825 0.412 0.386 101 52 33 0 0
1.4179 1.4594 -13.6715 0.610 0.750 0.256 95 46 34 0 0
1.4313 1.4629 -13.7424 0.651 0.658 0.379 97 46 31 0 0
1.4431 1.4407 -13.9182 0.715 0.465 0.522 95 44 28 0 0
1.5621 1.3759 -14.9744 0.773 0.628 0.087 83 31 21 0 0
1.6106 1.3838 -15.2511 0.441 0.892 0.100 15 10 10 0 0
1.6156 1.3809 -15.2960 0.548 0.834 -0.059 20 17 15 0 0
-0.2341 -0.7833 -12.9200 -0.498 0.515 0.697 107 77 70 0 0
-0.0065 -0.4667 -12.9590 -0.309 0.559 0.770 108 50 38 0 0
0.0366 -0.3994 -12.9332 0.371 0.101 0.923 108 49 36 0 0
0.2389 -0.1056 -12.9122 0.193 0.134 0.972 111 49 36 0 0
0.3032 0.0006 -12.8483 0.577 -0.273 0.770 110 49 36 0 0
1.0718 1.0916 -12.8808 0.308 -0.451 0.838 114 45 29 0 0
1.4442 1.4263 -13.7614 0.463 0.856 0.229 91 42 33 0 0
1.6493 1.3428 -15.4423 0.560 0.805 -0.193 48 40 38 0 0
1.6476 1.3265 -15.5046 0.561 0.801 -0.208 50 40 40 0 0
0.0257 -0.4706 -12.9432 -0.309 0.559 0.770 105 62 54 0 0
0.0577 -0.4231 -12.9357 0.330 0.254 0.909 105 61 50 0 0
0.8398 0.6956 -12.9411 0.582 -0.147 0.800 113 46 30 0 0
0.9425 0.8336 -12.9810 -0.176 0.164 0.971 115 45 30 0 0
1.1080 1.0683 -12.9914 0.506 -0.482 0.715 112 45 30 0 0
0.0594 -0.4717 -12.9248 -0.059 0.402 0.914 144 128 125 0 0
0.0765 -0.4511 -12.9421 0.511 0.419 0.751 134 115 111 0 0
1.1497 1.0868 -12.9521 0.668 0.351 0.656 111 45 32 0 0
1.6716 1.3324 -15.1563 0.143 0.724 0.675 31 12 4 0 0
0.0880 -0.4820 -12.9150 -0.200 0.484 0.852 201 200 201 0 0
1.1711 1.0672 -12.9522 0.567 0.478 0.671 108 50 37 0 0
1.1842 1.0813 -12.9733 0.567 0.478 0.671 106 48 35 0 0
1.2081 1.1156 -12.9735 0.713 0.254 0.653 104 45 32 0 0
1.6696 1.1547 -15.6831 0.545 0.236 0.805 49 35 34 0 0
1.7330 1.2004 -15.8808 0.389 0.460 0.798 37 24 24 0 0
1.7494 1.2197 -15.8992 0.440 0.467 0.767 30 32 32 0 0
1.9486 1.5427 -15.7409 0.304 0.809 0.503 28 26 29 0 0
1.2416 1.1191 -12.9497 -0.042 0.324 0.945 108 58 45 0 0
1.2484 1.1211 -12.9831 -0.178 0.030 0.984 107 54 42 0 0
1.6269 1.3172 -14.4851 0.505 0.850 0.152 124 57 39 0 0
1.7243 1.1416 -15.8432 0.533 0.647 0.545 115 54 38 0 0
1.7372 1.1538 -15.8704 0.533 0.647 0.545 70 36 27 0 0
1.9600 1.5120 -15.7116 0.234 0.187 0.954 27 25 27 0 0
1.2579 1.0900 -12.9595 0.314 -0.154 0.937 89 40 28 0 0
1.2801 1.1214 -12.9627 0.320 -0.179 0.931 87 39 26 0 0
1.3431 1.2086 -12.9788 -0.272 0.298 0.915 87 39 22 0 0
1.6824 1.2075 -15.0702 0.790 0.375 0.484 42 19 11 0 0
1.7645 1.1406 -15.8606 0.312 0.607 0.730 37 20 18 0 0
1.9641 1.4663 -15.7016 0.014 0.126 0.992 27 25 28 0 0
1.9716 1.4675 -15.7423 -0.131 0.555 0.821 26 24 26 0 0
2.0252 1.5358 -15.7814 -0.446 0.757 0.478 34 33 30 0 0
2.0734 1.6073 -15.7736 0.295 0.747 0.596 50 49 45 0 0
2.0860 1.6191 -15.8007 0.091 0.648 0.756 63 59 56 0 0
2.4491 1.9216 -16.7456 -0.776 0.045 0.630 190 190 191 0 0
2.4513 1.9107 -16.8062 -0.777 0.049 0.627 191 191 193 0 0
1.3489 1.1706 -12.9626 -0.127 0.390 0.912 105 76 70 0 0
1.3935 1.1891 -13.1576 0.963 0.244 0.116 101 49 28 0 0
1.6923 1.2927 -14.5452 0.655 0.194 0.730 101 58 43 0 0
1.6469 1.1755 -14.7620 0.870 0.423 -0.253 47 37 36 0 0
1.9884 1.4480 -15.6985 -0.044 0.107 0.993 26 24 27 0 0
2.0417 1.5158 -15.7383 -0.433 0.692 0.577 17 15 16 0 0
2.0595 1.5383 -15.7516 -0.427 0.654 0.624 22 21 20 0 0
2.0826 1.5722 -15.7502 -0.193 0.689 0.698 38 36 36 0 0
2.0986 1.5911 -15.7680 0.400 0.675 0.619 51 50 49 0 0
2.1123 1.6052 -15.7920 0.091 0.648 0.756 61 57 57 0 0
1.4066 1.1187 -13.3196 0.968 -0.216 0.127 40 15 7 0 0
1.4067 1.1072 -13.3682 0.990 -0.114 0.088 49 21 13 0 0
1.4106 1.1032 -13.4090 0.980 -0.124 0.158 55 24 16 0 0
2.0127 1.4298 -15.6955 -0.044 0.107 0.993 18 16 19 0 0
2.0299 1.4512 -15.7103 -0.178 0.527 0.831 15 13 17 0 0
2.0539 1.4868 -15.7069 -0.284 0.443 0.850 14 12 15 0 0
2.0688 1.5035 -15.7277 -0.527 0.359 0.770 14 12 14 0 0
2.1141 1.5693 -15.7274 -0.527 0.359 0.770 39 37 38 0 0
2.1369 1.6025 -15.7265 -0.467 0.351 0.812 64 62 63 0 0
2.5393 1.9421 -16.7478 -0.738 0.017 0.675 193 193 194 0 0
2.5413 1.9301 -16.8100 -0.753 -0.014 0.658 195 195 195 0 0
1.2299 0.7479 -13.5802 0.247 0.299 0.922 11 8 9 0 0
2.0268 1.3902 -15.7197 0.101 0.467 0.878 13 11 14 0 0
2.0523 1.4291 -15.7123 0.045 0.381 0.924 13 11 14 0 0
2.1195 1.5262 -15.7142 -0.478 0.106 0.872 18 16 19 0 0
2.1454 1.5662 -15.7049 -0.478 0.106 0.872 43 40 43 0 0
1.6975 1.2119 -14.2578 0.958 0.165 0.234 83 47 38 0 0
1.6821 1.1547 -14.4007 0.560 0.828 -0.015 107 54 35 0 0
1.6635 1.0096 -14.8848 0.822 0.417 -0.389 46 36 36 0 0
1.6159 0.8986 -15.0555 0.949 0.144 -0.281 42 39 40 0 0
2.0548 1.3796 -15.7069 -0.228 0.719 0.656 10 8 11 0 0
2.0801 1.4182 -15.6998 -0.332 0.623 0.709 11 9 12 0 0
2.2633 1.6877 -15.6893 0.177 -0.204 0.963 77 77 79 0 0
2.2314 1.3351 -16.9463 -0.518 0.363 0.775 152 152 151 0 0
1.6726 0.9608 -14.9179 0.822 0.417 -0.389 48 36 36 0 0
1.5914 0.7661 -15.2276 0.762 0.523 -0.382 39 37 42 0 0
1.9160 1.1214 -15.7110 -0.300 0.833 0.465 7 7 7 0 0
1.9211 1.1172 -15.7583 -0.397 0.082 0.914 11 9 10 0 0
2.0873 1.3788 -15.6817 -0.486 0.666 0.565 10 8 11 0 0
0.9071 0.1089 -13.6170 0.423 -0.098 0.901 134 76 44 0 0
1.3830 0.7973 -13.6497 0.830 -0.375 0.413 90 55 35 0 0
1.6158 0.7474 -15.2250 0.503 0.734 -0.457 39 38 41 0 0
2.3051 1.3650 -16.8024 -0.545 0.814 0.202 143 143 143 0 0
2.2960 1.3281 -16.8978 -0.310 0.352 0.883 151 151 151 0 0
2.5811 1.7588 -16.8441 -0.573 -0.286 0.768 191 191 193 0 0
0.7962 -0.1105 -13.6288 0.087 0.036 0.996 101 40 27 0 0
0.9924 0.1739 -13.6423 0.236 0.144 0.961 127 54 27 0 0
1.3070 0.6325 -13.6537 0.413 -0.209 0.887 144 72 34 0 0
1.3316 0.6688 -13.6527 0.294 -0.102 0.950 145 73 34 0 0
1.3564 0.7056 -13.6511 0.282 0.044 0.958 149 79 38 0 0
1.3764 0.7327 -13.6596 0.356 0.002 0.934 145 75 34 0 0
1.3971 0.7615 -13.6663 0.287 0.072 0.955 139 65 26 0 0
1.4224 0.7992 -13.6634 -0.015 0.069 0.998 139 65 27 0 0
1.7296 1.1873 -13.9138 0.594 0.439 0.674 77 14 2 0 0
1.7383 1.1124 -14.2642 0.530 0.831 0.171 70 25 16 0 0
1.6743 0.8139 -15.0817 0.534 0.664 -0.523 40 37 42 0 0
1.6424 0.7332 -15.2169 0.508 0.720 -0.472 38 38 39 0 0
1.6209 0.6740 -15.3276 0.480 0.754 -0.448 37 37 39 0 0
1.9181 1.0903 -15.4061 0.603 0.599 0.527 2 2 2 0 0
2.1205 1.3247 -15.6559 -0.118 0.068 0.991 11 9 12 0 0
2.1932 1.1619 -16.7330 0.207 0.978 0.034 107 106 104 0 0
2.2399 1.2141 -16.7976 0.527 0.831 0.180 118 117 116 0 0
2.3174 1.3349 -16.7696 -0.268 0.961 0.066 135 133 136 0 0
0.4238 -0.7132 -13.6314 0.001 0.091 0.996 98 47 36 0 0
0.4476 -0.6795 -13.6369 0.115 0.088 0.989 97 45 34 0 0
1.3575 0.6562 -13.6448 -0.120 0.175 0.977 128 54 20 0 0
1.3822 0.6928 -13.6434 -0.028 0.256 0.966 129 56 26 0 0
1.4028 0.7213 -13.6504 -0.028 0.256 0.966 124 51 24 0 0
1.7340 1.1448 -13.9014 0.330 0.436 0.837 110 37 4 0 0
1.7833 1.1255 -14.2649 0.405 0.412 0.816 92 50 38 0 0
1.6981 0.7945 -15.0801 0.530 0.659 -0.534 39 37 41 0 0
1.9322 1.0504 -15.4294 0.690 0.157 0.706 2 2 2 0 0
1.9171 0.9880 -15.5887 -0.353 0.040 0.935 3 3 3 0 0
2.2582 1.1800 -16.8147 0.394 0.740 0.544 117 116 115 0 0
2.5262 1.5376 -16.9588 -0.714 0.209 0.668 180 178 179 0 0
1.0581 0.1605 -13.6513 -0.049 0.436 0.898 101 37 21 0 0
1.4066 0.6772 -13.6386 -0.028 0.256 0.966 114 45 25 0 0
1.4272 0.7058 -13.6456 -0.028 0.256 0.966 112 45 23 0 0
1.7515 1.1024 -13.9639 0.390 0.503 0.772 101 28 5 0 0
1.7628 1.1124 -13.9906 0.757 0.518 0.399 82 13 3 0 0
1.8552 1.1671 -14.3101 0.168 0.607 0.776 109 54 34 0 0
1.7365 0.8056 -15.0429 0.682 0.529 -0.505 39 37 40 0 0
1.7183 0.7527 -15.1452 0.366 0.794 -0.486 37 38 40 0 0
1.9494 1.0168 -15.4450 0.027 0.737 0.676 2 2 2 0 0
2.0000 1.0793 -15.4930 -0.417 0.229 0.880 5 5 5 0 0
2.2295 1.4039 -15.5460 0.189 -0.056 0.980 14 12 15 0 0
2.2584 1.1396 -16.7505 0.358 0.923 -0.142 107 106 104 0 0
2.2656 1.1385 -16.7967 0.191 0.960 0.206 110 109 107 0 0
2.3180 1.2209 -16.7763 -0.314 -0.388 0.867 121 119 120 0 0
2.6505 1.6920 -16.8498 0.275 -0.577 0.769 190 190 192 0 0
0.2270 -1.1531 -13.7778 -0.249 -0.161 0.955 117 65 52 0 0
1.4814 0.7507 -13.5772 0.641 -0.450 0.621 112 45 27 0 0
1.7741 1.0838 -13.9625 0.659 0.475 0.584 107 31 5 0 0
1.8719 1.0933 -14.4879 0.524 0.840 0.139 101 47 41 0 0
1.8764 1.0884 -14.5324 0.449 0.887 0.107 97 49 42 0 0
1.8905 1.1039 -14.5536 -0.111 0.351 0.930 97 48 38 0 0
1.7520 0.7689 -15.0615 0.703 0.505 -0.501 38 36 42 0 0
2.0345 1.0358 -15.6458 0.138 0.431 0.892 7 7 7 0 0
2.2684 1.4023 -15.5637 -0.155 0.725 0.671 18 18 20 0 0
1.3159 0.4293 -13.6692 0.625 -0.145 0.767 106 41 21 0 0
1.8130 1.0853 -13.9765 0.499 0.346 0.795 93 20 1 0 0
1.8609 1.0599 -14.3480 0.213 0.741 0.636 108 55 38 0 0
2.0490 1.0117 -15.6080 0.387 0.772 0.505 7 7 7 0 0
2.6555 1.5884 -16.8458 -0.405 0.867 0.290 183 183 183 0 0
1.8293 1.0536 -13.9896 0.623 0.386 0.680 102 24 1 0 0
1.8961 1.0525 -14.3721 0.738 0.282 0.613 113 54 37 0 0
1.8974 1.0410 -14.4238 0.633 0.761 0.144 115 57 37 0 0
1.9162 1.0372 -14.5448 0.045 0.838 0.544 96 46 37 0 0
1.9241 1.0394 -14.5814 0.055 0.772 0.633 95 45 35 0 0
1.9273 1.0315 -14.6296 0.268 0.962 0.050 100 56 46 0 0
1.8246 0.6288 -15.5874 -0.537 0.239 0.809 3 3 3 0 0
2.0864 1.0216 -15.5703 0.483 0.707 0.516 8 8 8 0 0
2.0957 1.0258 -15.6068 -0.233 0.558 0.796 9 9 9 0 0
0.2746 -1.2522 -13.7706 -0.474 0.073 0.878 119 80 78 0 0
1.3482 0.3635 -13.6950 0.523 -0.251 0.814 115 40 18 0 0
1.8433 1.0307 -13.9552 0.649 0.700 0.299 133 53 10 0 0
1.9096 1.0282 -14.3383 0.559 0.334 0.759 102 46 34 0 0
1.9473 1.0206 -14.5797 -0.238 0.683 0.690 93 44 34 0 0
1.9974 0.8517 -15.5027 0.382 0.403 0.832 2 2 2 0 0
2.0139 0.8717 -15.5200 0.382 0.403 0.832 4 4 4 0 0
2.1538 1.0654 -15.5742 -0.373 0.123 0.920 10 10 10 0 0
0.9565 -0.2693 -13.6779 0.024 0.259 0.966 121 69 42 0 0
1.3608 0.3230 -13.7156 0.523 -0.251 0.814 121 41 19 0 0
1.8627 1.0054 -13.9612 0.890 0.217 0.402 135 57 15 0 0
1.9639 1.0026 -14.5381 0.672 0.644 0.366 97 45 39 0 0
1.9741 1.0096 -14.5691 0.672 0.644 0.366 95 45 36 0 0
1.8048 0.5846 -15.2191 0.275 0.779 -0.563 30 29 35 0 0
2.0787 0.9094 -15.5319 -0.364 0.632 0.684 7 7 7 0 0
2.4178 1.3826 -15.6516 0.591 0.436 0.679 20 18 21 0 0
0.6364 -0.7915 -13.6379 0.002 0.898 0.440 115 52 36 0 0
0.7188 -0.6668 -13.6316 0.262 0.183 0.948 139 67 32 0 0
0.7574 -0.6163 -13.6581 0.206 0.250 0.946 115 56 33 0 0
0.9857 -0.2773 -13.6652 -0.029 0.370 0.929 132 67 40 0 0
1.9655 0.9824 -14.4217 0.638 0.663 0.392 116 53 39 0 0
1.8779 0.6078 -15.3309 0.836 0.381 -0.394 8 6 9 0 0
2.1159 0.9191 -15.4949 0.374 0.471 0.799 7 7 7 0 0
2.6741 1.4372 -16.6704 0.614 0.672 -0.413 159 159 157 0 0
0.6670 -0.7984 -13.6241 0.002 0.898 0.440 114 50 35 0 0
0.6760 -0.7939 -13.6573 0.384 0.111 0.916 110 48 33 0 0
0.7825 -0.6338 -13.6544 0.357 0.151 0.922 121 62 37 0 0
1.1310 -0.1172 -13.6725 0.446 0.038 0.894 121 49 24 0 0
0.6975 -0.8052 -13.6103 0.002 0.898 0.440 113 48 35 0 0
1.0017 -0.3663 -13.6738 0.252 0.078 0.964 109 41 28 0 0
1.3514 0.1445 -13.7236 0.642 0.611 0.463 125 39 19 0 0
2.0916 0.8133 -15.1387 0.772 0.636 -0.005 9 8 10 0 0
2.1092 0.7696 -15.3937 0.609 0.730 0.310 2 2 3 0 0
2.3201 1.0234 -15.6229 0.130 0.615 0.777 11 11 13 0 0
2.3731 1.0922 -15.6626 -0.061 0.153 0.986 10 10 12 0 0
2.7740 1.3651 -16.8608 -0.470 0.855 0.221 177 177 177 0 0
1.2470 -0.1229 -13.7277 0.529 0.311 0.789 150 94 62 0 0
1.9316 0.8462 -13.9511 0.097 0.977 0.188 129 74 37 0 0
1.9375 0.8440 -13.9910 0.138 0.989 0.056 71 24 7 0 0
2.1159 0.8118 -15.0760 0.794 0.126 0.595 9 5 6 0 0
2.1125 0.7878 -15.1443 0.772 0.636 -0.005 12 6 8 0 0
2.4308 0.8013 -16.8239 0.078 0.988 0.136 91 89 87 0 0
1.0905 -0.4023 -13.6846 0.391 -0.034 0.920 148 88 58 0 0
1.2696 -0.1440 -13.7280 0.410 0.229 0.883 151 93 61 0 0
1.9628 0.8459 -13.9298 0.348 0.928 0.130 131 79 40 0 0
1.9769 0.8465 -14.0041 0.185 0.936 0.300 134 54 12 0 0
1.9873 0.8539 -14.0335 0.185 0.936 0.300 125 43 3 0 0
2.2466 0.8127 -15.5803 0.648 0.543 0.534 7 7 9 0 0
2.5891 1.2831 -15.7470 0.707 0.707 -0.005 55 53 53 0 0
2.6361 1.3750 -15.6722 -0.339 0.248 0.908 60 59 58 0 0
2.9818 1.5931 -16.7584 -0.054 -0.454 0.890 197 197 199 0 0
0.3917 -1.5924 -13.9587 0.020 -0.490 0.871 202 195 194 0 0
0.5408 -1.3313 -13.8325 -0.031 -0.339 0.940 123 65 56 0 0
1.0592 -0.5073 -13.6916 0.219 -0.013 0.976 113 59 42 0 0
1.2367 -0.2380 -13.6889 0.420 0.256 0.871 125 71 46 0 0
1.2911 -0.1675 -13.7307 0.338 0.369 0.866 139 80 53 0 0
2.1351 0.8104 -14.7912 0.979 0.187 0.076 42 30 31 0 0
2.2636 0.7773 -15.5978 0.595 0.301 0.745 6 6 8 0 0
2.6089 1.2547 -15.7570 0.831 0.543 0.122 54 52 53 0 0
2.8763 1.3564 -16.8314 -0.246 0.335 0.909 183 183 185 0 0
1.2583 -0.2614 -13.6914 0.358 0.254 0.898 112 55 33 0 0
1.2780 -0.2346 -13.7021 0.277 0.279 0.920 109 50 29 0 0
1.9838 0.7706 -13.9306 0.192 0.450 0.872 126 48 9 0 0
2.2148 0.7318 -15.2990 0.855 0.497 0.145 11 4 4 0 0
2.2189 0.6886 -15.4727 0.863 0.285 0.416 2 2 4 0 0
2.2794 0.7388 -15.6190 0.458 0.429 0.778 6 6 8 0 0
2.9233 1.3719 -16.8262 -0.204 0.160 0.966 187 187 189 0 0
1.2596 -0.3129 -13.6844 0.368 0.211 0.906 138 87 60 0 0
1.2800 -0.2845 -13.6935 0.358 0.254 0.898 129 75 48 0 0
2.1016 0.7730 -14.3599 0.839 0.485 0.246 46 30 29 0 0
2.2352 0.7046 -15.3065 0.903 0.392 0.178 5 1 1 0 0
2.3548 0.8203 -15.5370 0.764 0.609 0.215 7 7 9 0 0
2.9753 1.4002 -16.8037 -0.117 0.378 0.919 190 190 192 0 0
0.4345 -1.7207 -14.0147 -0.345 -0.252 0.904 210 211 213 0 0
1.2820 -0.3347 -13.6852 0.258 0.186 0.948 130 65 37 0 0
1.3011 -0.3090 -13.6971 0.311 0.273 0.910 130 67 40 0 0
1.6686 0.2679 -13.6374 0.238 0.607 0.758 124 40 15 0 0
2.2442 0.6690 -15.2834 0.875 0.461 0.148 30 13 9 0 0
2.2516 0.6682 -15.3249 0.875 0.461 0.148 6 1 1 0 0
3.0344 1.4468 -16.7560 -0.408 0.152 0.900 192 193 195 0 0
1.2532 -0.4354 -13.6888 0.155 0.103 0.982 119 45 23 0 0
1.2988 -0.3684 -13.6977 0.449 0.038 0.893 121 46 25 0 0
1.8631 0.4543 -13.8303 0.777 -0.019 0.629 129 51 23 0 0
2.0597 0.7160 -13.9620 0.632 0.108 0.768 110 62 31 0 0
2.2629 0.6375 -15.2958 0.875 0.461 0.148 41 21 15 0 0
2.2703 0.6368 -15.3374 0.875 0.461 0.148 8 3 2 0 0
2.2535 0.5614 -15.5078 0.791 0.611 -0.004 2 2 4 0 0
3.0480 1.4005 -16.7907 0.291 -0.358 0.887 192 193 195 0 0
1.3177 -0.3978 -13.7059 0.449 0.038 0.893 114 36 18 0 0
1.8730 0.4068 -13.8589 0.258 0.561 0.787 130 49 22 0 0
1.8847 0.4168 -13.8855 -0.017 0.706 0.708 136 55 28 0 0
2.0390 0.6323 -13.9556 0.469 0.482 0.740 118 32 2 0 0
2.0889 0.6956 -13.9998 0.793 0.427 0.434 121 54 16 0 0
2.0998 0.7040 -14.0281 0.793 0.427 0.434 131 46 7 0 0
2.1198 0.7166 -14.0896 0.741 0.518 0.426 103 28 2 0 0
2.2815 0.6061 -15.3083 0.875 0.461 0.148 36 16 10 0 0
2.2761 0.5201 -15.5729 0.912 0.382 0.148 3 3 5 0 0
2.3554 0.6689 -15.4790 0.848 0.252 0.466 6 6 8 0 0
2.3697 0.6840 -15.5020 0.694 0.315 0.647 7 7 9 0 0
2.3002 0.5746 -15.3208 0.875 0.461 0.148 26 9 7 0 0
2.3795 0.6498 -15.4769 0.451 0.072 0.889 6 6 8 0 0
2.3979 0.6746 -15.4884 0.303 0.100 0.948 7 7 9 0 0
1.7803 0.1891 -13.7453 0.077 0.238 0.968 146 70 30 0 0
2.7911 1.0832 -15.7658 0.322 0.923 0.210 54 52 52 0 0
1.6206 -0.1608 -13.7237 0.249 0.086 0.965 116 59 36 0 0
1.7978 0.1037 -13.7537 0.325 0.173 0.930 120 61 37 0 0
2.3416 0.5194 -15.1509 0.806 0.579 0.126 51 16 10 0 0
2.3520 0.5255 -15.1841 0.583 0.810 -0.070 46 15 10 0 0
2.3476 0.4962 -15.2581 0.625 0.758 0.186 39 12 8 0 0
2.5285 0.6412 -15.7006 0.128 0.066 0.990 14 14 16 0 0
2.5468 0.6661 -15.7121 0.379 -0.015 0.925 16 16 18 0 0
2.7524 1.0102 -15.6239 0.484 0.410 0.773 14 13 15 0 0
2.8014 1.0306 -15.8056 0.915 0.205 0.347 50 48 48 0 0
3.1331 1.2534 -16.7597 0.785 0.541 0.303 187 188 190 0 0
0.7639 -1.5840 -13.8619 0.038 -0.259 0.965 113 86 79 0 0
1.4158 -0.5224 -13.6880 0.299 0.267 0.916 129 73 51 0 0
1.4343 -0.4978 -13.7012 0.299 0.267 0.916 136 79 52 0 0
1.8003 0.0549 -13.7455 0.325 0.173 0.930 117 56 28 0 0
1.8190 0.0802 -13.7567 0.325 0.173 0.930 119 56 31 0 0
1.8365 0.1033 -13.7702 0.346 0.285 0.894 115 51 25 0 0
1.9517 0.2639 -13.8276 0.669 0.132 0.731 140 96 84 0 0
2.3160 0.4389 -15.0991 0.484 0.299 0.822 61 17 8 0 0
2.3641 0.4971 -15.1526 0.830 0.496 0.256 49 16 8 0 0
2.3745 0.5029 -15.1862 0.727 0.555 0.403 45 15 10 0 0
2.8278 1.0385 -15.7287 0.273 0.668 0.692 45 43 44 0 0
2.8410 1.0509 -15.7548 -0.104 0.464 0.880 50 49 48 0 0
0.7818 -1.6190 -13.8736 0.023 -0.333 0.943 120 96 92 0 0
0.8832 -1.4488 -13.8313 0.134 -0.307 0.942 112 54 42 0 0
1.0425 -1.1682 -13.7223 -0.227 0.167 0.959 114 49 33 0 0
1.9534 0.2134 -13.8217 0.616 0.133 0.776 141 94 70 0 0
1.9696 0.2335 -13.8380 0.616 0.133 0.776 123 73 56 0 0
2.5915 0.6388 -15.6533 0.370 0.440 0.818 11 11 13 0 0
2.6047 0.6510 -15.6799 -0.017 0.658 0.753 12 12 14 0 0
2.8269 0.9986 -15.6699 -0.151 0.279 0.948 34 34 34 0 0
2.8340 0.9960 -15.7144 -0.013 0.681 0.732 38 36 37 0 0
2.8581 1.0150 -15.7738 0.054 0.585 0.809 50 48 48 0 0
0.7854 -1.6853 -13.9138 -0.229 -0.372 0.900 128 110 108 0 0
0.9752 -1.3389 -13.7477 0.197 -0.003 0.980 115 53 40 0 0
1.0037 -1.2931 -13.7430 -0.253 0.159 0.954 113 51 36 0 0
1.4156 -0.6337 -13.6807 0.258 0.362 0.896 153 88 54 0 0
1.4335 -0.6104 -13.6953 0.258 0.362 0.896 117 60 42 0 0
2.2656 0.5351 -14.1711 0.698 0.662 0.274 106 52 33 0 0
2.3844 0.4882 -14.9169 0.650 0.757 0.065 84 42 26 0 0
2.6139 0.6356 -15.5910 0.566 0.599 0.566 10 10 12 0 0
2.6435 0.6682 -15.6343 0.635 0.032 0.772 9 9 11 0 0
1.9953 0.1662 -13.8284 0.204 0.347 0.915 181 122 92 0 0
2.0146 0.1934 -13.8375 0.321 0.646 0.692 173 110 77 0 0
2.3991 0.4286 -15.0004 0.320 0.893 0.316 83 41 25 0 0
2.4083 0.4315 -15.0368 0.413 0.824 0.388 71 30 18 0 0
2.6310 0.5992 -15.6095 0.689 0.193 0.699 9 9 11 0 0
2.6620 0.6353 -15.6487 0.661 0.048 0.749 9 9 11 0 0
1.0017 -1.4278 -13.7893 0.216 -0.360 0.907 116 55 40 0 0
1.8819 -0.0292 -13.7108 0.552 0.311 0.773 132 50 28 0 0
1.8985 -0.0081 -13.7264 0.612 0.447 0.652 130 53 33 0 0
2.2987 0.4850 -14.1438 0.477 0.722 0.502 101 42 20 0 0
2.4250 0.4339 -14.9315 0.834 0.493 0.247 87 44 29 0 0
2.7683 0.7600 -15.5973 0.040 0.661 0.750 14 14 14 0 0
2.8160 0.8175 -15.6509 0.233 0.248 0.940 54 56 58 0 0
2.8701 0.8913 -15.6845 -0.101 0.341 0.934 35 35 35 0 0
1.8397 -0.1465 -13.6970 0.026 0.346 0.938 121 40 20 0 0
2.2981 0.4284 -14.1451 0.578 0.665 0.473 113 46 14 0 0
2.3376 0.4859 -14.1587 0.077 0.722 0.688 87 40 28 0 0
2.4210 0.4630 -14.6415 0.816 0.533 0.225 91 47 32 0 0
2.4297 0.4651 -14.6780 0.816 0.533 0.225 88 45 32 0 0
2.7964 0.7516 -15.5824 0.015 0.762 0.647 15 15 16 0 0
2.8265 0.7857 -15.6233 0.015 0.762 0.647 62 63 67 0 0
2.8888 0.8593 -15.6984 0.261 0.210 0.942 36 36 37 0 0
2.9229 0.9252 -15.6590 0.413 -0.182 0.892 35 33 34 0 0
1.8774 -0.1495 -13.7164 0.545 -0.105 0.832 120 39 17 0 0
2.2136 0.3173 -13.9053 0.266 0.301 0.916 112 45 27 0 0
2.3012 0.4168 -14.0238 0.399 0.564 0.723 122 45 8 0 0
2.3830 0.4656 -14.2719 0.302 0.822 0.482 96 51 35 0 0
2.4395 0.4323 -14.6529 0.742 0.549 0.384 88 45 29 0 0
2.6059 0.4436 -15.4330 0.649 0.192 0.736 4 4 4 0 0
2.1470 0.1946 -13.7897 0.381 0.189 0.905 128 64 48 0 0
2.1631 0.2146 -13.8061 0.073 0.120 0.990 132 68 45 0 0
2.2348 0.3123 -13.8525 0.279 0.655 0.702 138 78 63 0 0
2.2454 0.3195 -13.8819 0.481 0.727 0.490 114 45 25 0 0
2.4104 0.4573 -14.2590 0.004 0.954 0.301 95 50 34 0 0
2.5408 0.2845 -15.4305 0.699 0.064 0.712 3 1 2 0 0
2.6959 0.4853 -15.5634 0.327 0.545 0.772 11 11 13 0 0
2.7980 0.6597 -15.5203 0.505 -0.054 0.861 16 16 18 0 0
2.2402 0.2702 -13.8384 -0.058 0.418 0.907 145 84 68 0 0
2.4426 0.4606 -14.2336 0.433 0.896 -0.095 93 47 32 0 0
2.5711 0.3429 -15.2188 0.739 0.669 -0.085 26 8 4 0 0
2.5701 0.3197 -15.2853 0.513 0.833 -0.206 26 10 9 0 0
2.7101 0.4408 -15.5911 0.566 0.318 0.761 12 12 14 0 0
2.2061 0.1703 -13.8099 0.186 0.230 0.955 131 63 41 0 0
2.2778 0.2682 -13.8563 0.239 0.373 0.896 135 72 54 0 0
2.7530 0.4481 -15.5989 0.620 0.658 0.426 14 14 16 0 0
3.0035 0.8335 -15.6293 0.503 0.273 0.820 34 34 36 0 0
1.5661 -0.8615 -13.6997 -0.246 0.568 0.785 131 55 34 0 0
2.6114 0.3065 -15.1728 0.867 0.316 0.384 25 8 5 0 0
2.7569 0.3987 -15.5913 0.913 0.394 0.108 14 14 16 0 0
2.8110 0.4944 -15.5606 0.641 0.081 0.763 16 16 18 0 0
1.6953 -0.7084 -13.6815 0.200 0.868 0.455 122 69 50 0 0
2.5699 0.3098 -14.7912 0.691 0.669 0.274 98 52 32 0 0
2.7191 0.3077 -15.5099 0.978 0.056 0.199 9 7 10 0 0
2.9538 0.2994 -16.6549 -0.401 0.059 0.914 78 76 75 0 0
3.0483 0.4813 -16.5583 -0.728 0.431 0.532 95 91 90 0 0
3.1411 0.6601 -16.4631 -0.161 0.948 -0.275 112 112 111 0 0
1.6998 -0.7183 -13.5612 0.508 0.842 -0.182 140 59 30 0 0
1.6974 -0.7599 -13.6738 0.450 0.413 0.791 121 65 39 0 0
1.7128 -0.7419 -13.6934 0.393 0.480 0.784 126 74 57 0 0
2.0910 -0.1603 -13.7513 0.037 0.654 0.755 129 46 19 0 0
2.5920 0.2872 -14.7933 0.647 0.739 0.187 94 47 26 0 0
2.6206 0.2762 -14.9621 0.716 0.679 0.161 65 24 11 0 0
2.6653 0.2408 -15.2799 0.927 0.241 0.286 25 12 10 0 0
2.8246 0.3885 -15.5951 0.641 0.117 0.758 15 15 17 0 0
1.9355 -0.4571 -13.7297 0.473 0.425 0.772 144 83 55 0 0
2.0958 -0.2047 -13.7384 0.087 0.801 0.592 126 40 15 0 0
2.1128 -0.1826 -13.7531 0.200 0.813 0.546 135 49 24 0 0
2.6195 0.2571 -14.8428 0.602 0.791 0.110 58 18 8 0 0
2.6635 0.2635 -15.0319 0.606 0.766 0.214 78 37 22 0 0
2.7935 0.2696 -15.6277 0.451 -0.357 0.818 12 11 14 0 0
1.7063 -0.8521 -13.6478 0.581 0.171 0.795 138 60 31 0 0
1.7238 -0.8294 -13.6630 0.551 0.223 0.804 151 82 44 0 0
1.7410 -0.8074 -13.6789 0.681 0.269 0.682 120 62 34 0 0
1.9567 -0.4815 -13.7333 0.475 0.283 0.833 137 73 41 0 0
1.9753 -0.4557 -13.7448 0.358 0.234 0.904 142 79 59 0 0
2.1336 -0.2072 -13.7571 0.398 0.842 0.364 127 41 14 0 0
3.2631 0.5829 -16.7397 0.345 0.927 -0.147 144 142 143 0 0
1.4189 -1.3792 -13.6751 0.404 0.199 0.893 118 56 41 0 0
2.0012 -0.4689 -13.7374 0.256 0.454 0.853 139 77 57 0 0
2.1188 -0.2801 -13.7357 0.346 0.469 0.813 126 41 13 0 0
2.1349 -0.2602 -13.7526 0.402 0.587 0.703 125 39 12 0 0
2.3889 0.1106 -13.8569 0.357 0.103 0.928 147 84 67 0 0
2.4809 0.2406 -13.9069 0.203 -0.520 0.830 117 48 16 0 0
2.5885 0.2296 -14.4426 0.765 0.572 0.296 84 40 20 0 0
2.6119 0.2268 -14.5601 0.672 0.682 0.290 51 14 6 0 0
2.7145 0.1683 -15.2110 0.485 0.852 0.197 33 13 9 0 0
2.7205 0.1617 -15.2583 0.730 0.655 0.197 31 12 9 0 0
1.4404 -1.4055 -13.6794 0.286 0.210 0.935 118 56 41 0 0
2.3204 -0.0363 -13.8019 0.486 0.052 0.872 139 71 49 0 0
2.3988 0.0792 -13.8314 0.373 0.539 0.755 138 71 51 0 0
2.4145 0.0985 -13.8485 0.527 0.621 0.580 154 91 72 0 0
2.6329 0.2016 -14.5652 0.698 0.701 0.144 68 32 23 0 0
2.7240 0.1110 -15.2518 0.502 0.864 -0.036 39 15 13 0 0
2.7167 0.0696 -15.3385 0.971 0.198 0.132 38 15 11 0 0
2.8680 0.2631 -15.4809 0.693 0.718 -0.063 10 8 11 0 0
2.9641 0.3566 -15.6568 -0.023 0.011 1.000 11 9 12 0 0
2.3689 -0.0118 -13.7932 0.069 -0.155 0.986 136 64 41 0 0
2.4329 0.0685 -13.8584 -0.119 0.799 0.589 143 80 61 0 0
3.3448 0.5454 -16.7061 -0.503 0.589 0.633 145 143 144 0 0
2.3944 -0.0242 -13.7853 0.012 -0.225 0.974 132 58 35 0 0
2.4593 0.0583 -13.8481 -0.240 0.833 0.498 143 79 61 0 0
2.6088 0.1301 -14.3316 0.362 0.792 0.491 89 41 27 0 0
2.9050 0.1947 -15.5113 0.926 0.291 0.240 8 6 7 0 0
3.1023 0.3189 -16.0650 0.547 0.690 -0.474 39 35 34 0 0
3.0913 0.0813 -16.6935 -0.445 -0.386 0.808 83 82 80 0 0
3.2904 0.3797 -16.7579 0.414 -0.495 0.764 133 133 135 0 0
2.4194 -0.0380 -13.7787 -0.223 -0.130 0.966 130 55 31 0 0
2.4325 -0.0252 -13.8024 -0.452 0.290 0.844 122 46 24 0 0
2.4907 0.0608 -13.8250 -0.077 0.995 0.065 142 75 58 0 0
2.5020 0.0692 -13.8531 0.120 0.952 0.281 112 37 20 0 0
2.8149 -0.0373 -15.5898 -0.042 0.439 0.898 4 2 3 0 0
2.8645 0.0724 -15.5057 0.409 0.699 0.587 6 4 5 0 0
2.8739 0.0739 -15.5445 0.584 0.269 0.766 7 5 6 0 0
2.8900 0.0933 -15.5629 0.561 0.047 0.826 7 5 6 0 0
3.5012 0.6534 -16.7748 0.613 -0.164 0.773 176 175 178 0 0
3.5206 0.6826 -16.7808 0.612 0.054 0.789 178 179 182 0 0
2.1733 -0.4682 -13.7092 -0.004 0.291 0.957 122 52 32 0 0
2.4630 -0.0251 -13.7817 -0.026 -0.162 0.986 129 53 31 0 0
2.5191 0.0559 -13.8094 0.275 0.961 -0.009 137 68 53 0 0
2.5267 0.0550 -13.8469 0.627 0.778 0.049 110 34 18 0 0
2.6191 0.1049 -14.1278 0.486 0.871 0.078 95 30 9 0 0
2.8092 0.0282 -15.2109 0.701 0.713 0.022 29 7 5 0 0
2.8412 -0.0518 -15.5821 0.489 -0.008 0.872 5 3 4 0 0
2.8640 -0.0140 -15.5799 0.604 0.270 0.750 6 4 5 0 0
3.0838 0.3438 -15.5740 0.135 0.670 0.730 22 20 23 0 0
3.5180 0.6107 -16.8024 0.575 -0.241 0.782 175 174 177 0 0
2.2570 -0.3968 -13.7290 0.466 0.484 0.740 127 42 16 0 0
2.5455 0.0462 -13.7987 0.427 -0.159 0.890 130 62 46 0 0
2.8295 -0.0010 -15.2201 0.730 0.683 -0.015 27 5 2 0 0
3.0919 0.3052 -15.5542 0.356 0.598 0.718 21 20 22 0 0
3.1073 0.3232 -15.5737 0.280 0.618 0.735 24 24 26 0 0
3.8043 1.0645 -16.6630 -0.561 0.672 0.484 194 194 194 0 0
2.5705 0.0328 -13.7918 0.570 0.797 0.198 135 68 49 0 0
2.7717 0.0388 -14.6843 0.737 0.659 0.151 67 22 10 0 0
2.7877 0.0358 -14.7647 0.670 0.738 0.078 63 17 2 0 0
2.7953 0.0333 -14.8061 0.670 0.738 0.078 56 15 4 0 0
3.0565 0.1956 -15.5353 0.253 0.083 0.964 16 14 15 0 0
3.0623 0.1867 -15.5860 0.835 0.279 0.475 18 16 17 0 0
3.0810 0.2139 -15.5952 0.738 -0.003 0.675 20 18 19 0 0
3.1123 0.2761 -15.5637 0.394 0.404 0.826 22 22 23 0 0
3.2431 0.3901 -15.8379 0.442 0.769 -0.462 38 34 35 0 0
1.9320 -1.0363 -13.7154 0.693 0.314 0.649 154 87 54 0 0
2.8117 0.0179 -14.7616 0.676 0.721 0.153 75 36 16 0 0
2.8775 -0.0397 -15.2164 0.813 0.534 0.232 28 7 3 0 0
2.8971 -0.1327 -15.5610 0.543 -0.131 0.829 8 3 5 0 0
3.0712 0.1753 -15.4942 0.768 0.071 0.637 16 14 15 0 0
3.0842 0.1863 -15.5219 0.702 0.017 0.712 18 16 17 0 0
3.5820 0.5511 -16.7536 -0.648 -0.183 0.739 167 167 169 0 0
3.6021 0.5826 -16.7569 -0.496 -0.003 0.869 171 171 173 0 0
1.9446 -1.0633 -13.6843 0.129 0.435 0.891 131 55 28 0 0
1.9511 -1.0673 -13.7247 0.369 0.061 0.927 147 80 46 0 0
1.9708 -1.0388 -13.7346 0.616 0.223 0.756 123 68 41 0 0
1.9980 -0.9917 -13.7272 0.133 0.351 0.927 110 62 46 0 0
2.6092 -0.0864 -13.9815 0.231 0.754 0.615 100 23 2 0 0
3.2791 0.3950 -15.6602 0.464 0.566 0.681 14 14 17 0 0
3.2895 0.3987 -15.6964 0.458 0.751 0.476 15 13 16 0 0
3.6432 0.5841 -16.7713 -0.506 0.828 0.241 174 174 175 0 0
2.6253 -0.1018 -13.9396 0.473 0.394 0.788 94 15 1 0 0
2.6354 -0.0969 -13.9715 0.349 0.567 0.746 100 22 3 0 0
2.6697 -0.0506 -13.9980 0.523 0.679 0.516 108 53 22 0 0
2.6804 -0.0442 -14.0284 0.552 0.718 0.424 110 39 11 0 0
2.6918 -0.0361 -14.0570 0.552 0.718 0.424 126 44 5 0 0
2.9339 -0.1295 -15.3890 0.987 0.002 0.159 8 1 1 0 0
3.3026 0.3748 -15.6594 0.464 0.566 0.681 13 11 14 0 0
3.3144 0.3824 -15.6912 0.535 0.764 0.360 10 8 10 0 0
3.2787 0.1716 -16.1055 0.545 0.685 -0.484 60 57 60 0 0
1.7114 -1.5731 -13.7090 0.213 0.057 0.975 115 55 43 0 0
2.0558 -1.0044 -13.6995 -0.036 0.827 0.561 112 61 43 0 0
2.6813 -0.0775 -13.9679 0.444 0.483 0.755 116 52 19 0 0
2.6956 -0.0618 -13.9887 0.474 0.582 0.661 99 46 18 0 0
2.7154 -0.0534 -14.0539 0.676 0.660 0.328 124 43 5 0 0
3.3287 0.3619 -15.6501 0.501 0.588 0.635 12 10 11 0 0
3.3304 0.2593 -15.9348 0.609 0.669 -0.425 53 48 50 0 0
3.3043 0.1556 -16.0993 0.545 0.685 -0.484 60 58 59 0 0
3.6272 0.4341 -16.7778 -0.595 -0.245 0.766 158 156 157 0 0
3.7149 0.5846 -16.7599 -0.197 0.271 0.942 172 172 172 0 0
1.7334 -1.5984 -13.7123 0.213 0.057 0.975 115 56 43 0 0
2.8266 -0.0631 -14.4163 0.594 0.775 0.216 110 58 31 0 0
2.8361 -0.0606 -14.4515 0.594 0.775 0.216 102 50 21 0 0
2.8540 -0.0586 -14.5253 0.576 0.801 0.163 76 31 13 0 0
2.9680 -0.2339 -15.4983 0.814 0.579 0.047 7 1 1 0 0
3.3714 0.3707 -15.6559 0.435 0.650 0.622 17 13 11 0 0
3.3241 0.1224 -16.1135 0.535 0.686 -0.492 62 59 58 0 0
3.6682 0.4653 -16.7115 -0.593 -0.003 0.805 157 155 156 0 0
3.7259 0.5535 -16.7293 -0.152 0.571 0.807 167 167 167 0 0
3.7423 0.5743 -16.7461 -0.236 0.488 0.840 170 170 170 0 0
2.6465 -0.1971 -13.8276 0.598 -0.154 0.786 129 57 36 0 0
2.6653 -0.1693 -13.8364 0.674 -0.057 0.736 141 75 54 0 0
2.6869 -0.1561 -13.8962 0.825 0.274 0.494 109 32 15 0 0
2.9779 -0.1158 -15.0665 0.597 0.800 0.058 47 13 3 0 0
3.2733 0.1567 -15.6377 0.518 0.037 0.855 12 10 13 0 0
3.3346 0.2276 -15.7178 0.838 0.238 0.490 14 11 13 0 0
3.3493 0.2435 -15.7400 0.768 0.298 0.566 18 14 15 0 0
3.3698 0.1938 -15.9624 0.816 0.502 -0.286 51 45 42 0 0
3.6943 0.4504 -16.7036 -0.531 -0.180 0.828 154 152 153 0 0
2.6452 -0.2580 -13.8316 0.429 -0.102 0.898 120 45 22 0 0
2.6851 -0.1967 -13.8434 0.635 0.260 0.728 132 65 46 0 0
2.7740 -0.0934 -13.9588 0.315 0.323 0.892 88 32 4 0 0
2.8837 -0.0961 -14.4456 0.560 0.729 0.392 75 33 18 0 0
3.0008 -0.1378 -15.0677 0.808 0.581 0.102 44 13 5 0 0
3.0441 -0.2474 -15.5466 0.799 0.243 0.550 12 7 7 0 0
3.1931 -0.0316 -15.6269 0.239 -0.030 0.971 13 11 14 0 0
3.2307 0.0240 -15.6445 0.483 0.011 0.875 11 9 12 0 0
3.2740 0.0959 -15.6430 0.443 0.066 0.894 11 9 12 0 0
3.3072 0.1389 -15.6746 0.767 -0.017 0.641 14 12 14 0 0
3.3238 0.1605 -15.6902 0.820 -0.020 0.572 15 13 14 0 0
3.3559 0.2003 -15.7253 0.746 0.463 0.479 16 14 15 0 0
3.3695 0.2128 -15.7513 0.768 0.298 0.566 21 17 17 0 0
4.0705 0.9905 -16.7578 -0.355 0.749 0.559 193 193 193 0 0
4.0802 0.9896 -16.8022 -0.553 0.609 0.569 194 194 194 0 0
4.0969 1.0121 -16.8158 -0.485 0.560 0.672 195 195 195 0 0
1.8427 -1.5868 -13.6802 0.421 0.464 0.779 112 59 45 0 0
2.3037 -0.8382 -13.7191 0.177 0.263 0.949 154 75 27 0 0
2.6141 -0.3764 -13.8557 0.192 -0.294 0.936 133 57 33 0 0
2.7963 -0.1141 -13.9592 0.315 0.323 0.892 86 30 5 0 0
2.8093 -0.1018 -13.9834 0.407 0.683 0.607 118 45 7 0 0
2.8163 -0.1516 -14.1450 0.289 0.779 0.557 88 25 5 0 0
2.8524 -0.1231 -14.2272 -0.026 0.733 0.679 61 13 3 0 0
2.9040 -0.1237 -14.4530 0.704 0.612 0.360 97 50 27 0 0
2.9149 -0.1176 -14.4845 0.704 0.612 0.360 97 45 25 0 0
3.0219 -0.1651 -15.0746 0.799 0.590 0.116 73 32 17 0 0
3.0275 -0.1747 -15.1243 0.796 0.603 0.057 51 21 15 0 0
3.0347 -0.1799 -15.1694 0.796 0.603 0.057 25 5 3 0 0
3.0379 -0.2226 -15.2954 0.893 0.448 -0.033 24 9 5 0 0
3.0238 -0.3154 -15.4777 0.725 0.687 0.044 6 0 0 0 0
3.1217 -0.2205 -15.6546 0.471 -0.080 0.878 12 10 13 0 0
3.2357 -0.0518 -15.7070 0.848 -0.252 0.466 11 9 12 0 0
3.2516 -0.0325 -15.7256 0.848 -0.252 0.466 11 9 12 0 0
3.4001 0.1286 -15.9483 0.784 0.620 0.035 42 35 33 0 0
3.4106 0.1317 -15.9859 0.837 0.517 0.179 51 47 44 0 0
3.4210 0.1344 -16.0241 0.853 0.446 0.273 66 61 60 0 0
4.1259 1.0091 -16.7924 -0.485 0.560 0.672 195 195 195 0 0
1.8496 -1.6288 -13.6618 0.410 0.400 0.820 114 56 44 0 0
1.8662 -1.6083 -13.6801 0.421 0.464 0.779 112 58 44 0 0
2.6376 -0.3944 -13.8532 0.374 -0.367 0.852 124 47 23 0 0
2.8164 -0.1868 -14.0859 0.357 0.829 0.430 106 27 2 0 0
2.8636 -0.1751 -14.2597 0.420 0.292 0.860 61 13 4 0 0
2.9926 -0.1572 -14.7716 0.594 0.790 0.155 56 17 5 0 0
3.0264 -0.1880 -14.9986 0.781 0.597 0.184 85 39 15 0 0
3.0355 -0.1879 -15.0375 0.781 0.597 0.184 77 31 13 0 0
3.0446 -0.1877 -15.0765 0.781 0.597 0.184 65 27 12 0 0
3.0537 -0.1876 -15.1156 0.772 0.605 0.195 40 12 8 0 0
3.0630 -0.1870 -15.1543 0.772 0.605 0.195 25 6 5 0 0
3.1227 -0.2810 -15.6580 0.538 0.003 0.843 9 5 6 0 0
3.1409 -0.2552 -15.6697 0.538 0.003 0.843 8 6 7 0 0
3.1922 -0.1877 -15.7154 0.791 -0.233 0.565 8 6 8 0 0
3.3370 0.0457 -15.7336 0.856 0.281 0.434 16 14 15 0 0
3.3789 0.1146 -15.7354 0.899 0.427 0.098 19 16 17 0 0
3.4295 0.0960 -16.0030 0.675 0.710 0.201 55 47 45 0 0
3.4371 0.0900 -16.0514 0.445 0.741 0.502 68 62 62 0 0
2.3880 -0.8232 -13.7381 0.219 0.530 0.819 134 61 30 0 0
2.8290 -0.1879 -13.9927 0.646 0.242 0.724 95 36 8 0 0
2.9352 -0.1807 -14.4317 0.481 0.642 0.597 92 44 17 0 0
2.9485 -0.1679 -14.4562 0.481 0.642 0.597 75 27 5 0 0
2.9618 -0.1552 -14.4806 0.481 0.642 0.597 59 17 3 0 0
2.9973 -0.1794 -14.6964 0.371 0.795 0.481 88 45 22 0 0
3.0100 -0.1688 -14.7235 0.371 0.795 0.481 78 32 14 0 0
3.0471 -0.2163 -15.0066 0.744 0.657 0.122 75 31 11 0 0
3.0555 -0.2181 -15.0475 0.729 0.672 0.129 58 19 5 0 0
3.0641 -0.2197 -15.0884 0.740 0.657 0.143 40 14 3 0 0
3.0734 -0.2191 -15.1270 0.740 0.644 0.194 28 8 3 0 0
3.0830 -0.2177 -15.1649 0.727 0.667 0.164 23 6 5 0 0
3.2079 -0.2326 -15.7422 0.885 -0.166 0.435 7 5 6 0 0
3.2845 -0.0898 -15.7021 0.271 0.039 0.962 14 12 13 0 0
3.2949 -0.0868 -15.7394 -0.145 0.901 0.408 14 11 14 0 0
2.9453 -0.2122 -14.4055 0.465 0.474 0.748 59 14 3 0 0
2.9586 -0.1997 -14.4301 0.481 0.642 0.597 65 20 6 0 0
2.9719 -0.1870 -14.4546 0.481 0.642 0.597 63 18 6 0 0
2.9827 -0.1814 -14.4865 0.582 0.701 0.412 61 16 4 0 0
3.0786 -0.2398 -15.0484 0.791 0.593 0.151 45 8 0 0 0
3.0872 -0.2411 -15.0889 0.791 0.593 0.151 40 11 5 0 0
3.0972 -0.2389 -15.1257 0.776 0.594 0.212 29 9 6 0 0
3.1067 -0.2378 -15.1639 0.776 0.594 0.212 21 4 4 0 0
3.1173 -0.3688 -15.5466 0.945 0.161 0.284 6 0 0 0 0
4.0895 0.8215 -16.6548 -0.757 0.523 0.391 182 182 182 0 0
1.9158 -1.7040 -13.6712 0.580 0.518 0.629 115 57 44 0 0
2.1703 -1.3111 -13.7537 -0.247 0.203 0.948 133 57 29 0 0
2.2220 -1.2206 -13.7432 0.002 0.245 0.969 129 76 48 0 0
2.4367 -0.8568 -13.7303 0.356 0.560 0.748 177 103 71 0 0
2.6895 -0.4756 -13.8360 -0.527 0.351 0.774 124 45 22 0 0
2.9670 -0.2359 -14.4087 0.525 0.526 0.669 70 24 7 0 0
2.9814 -0.2203 -14.4301 0.595 0.574 0.562 87 41 17 0 0
2.9944 -0.2085 -14.4555 0.633 0.606 0.482 92 44 21 0 0
3.0916 -0.2640 -15.0129 0.627 0.771 0.111 64 20 7 0 0
3.1003 -0.2652 -15.0532 0.627 0.771 0.111 65 22 9 0 0
3.1092 -0.2661 -15.0933 0.685 0.721 0.103 62 28 18 0 0
3.1166 -0.2713 -15.1382 0.675 0.733 0.087 32 9 4 0 0
3.1283 -0.2640 -15.1695 0.776 0.594 0.212 21 6 4 0 0
3.4856 0.1033 -15.7568 0.243 0.383 0.891 51 20 15 0 0
3.4841 0.0694 -15.8369 0.636 0.596 0.490 55 21 16 0 0
3.9715 0.4951 -16.8312 -0.611 0.352 0.709 161 159 160 0 0
2.0932 -1.5048 -13.7651 0.420 0.330 0.845 141 79 56 0 0
2.2816 -1.1909 -13.7691 0.471 0.845 0.252 110 49 31 0 0
2.7387 -0.4238 -13.7652 0.032 -0.264 0.964 127 46 21 0 0
2.9512 -0.1930 -14.0830 0.555 0.404 0.727 85 22 6 0 0
3.1411 -0.2890 -15.1346 0.720 0.672 0.171 27 9 3 0 0
3.1500 -0.2902 -15.1752 0.776 0.594 0.212 22 8 6 0 0
3.1212 -0.4569 -15.4761 0.876 0.467 0.117 13 3 2 0 0
3.1289 -0.4619 -15.5217 0.872 0.476 0.116 5 1 0 0 0
3.1325 -0.4794 -15.5812 0.762 0.647 0.027 4 0 0 0 0
3.1397 -0.4860 -15.6289 0.762 0.647 0.027 5 1 0 0 0
3.1690 -0.4841 -15.7485 0.859 0.499 0.117 3 1 2 0 0
3.5074 0.0475 -15.8379 0.542 0.609 0.579 66 21 13 0 0
2.1356 -1.4990 -13.7769 0.207 0.311 0.928 129 60 41 0 0
2.1747 -1.4418 -13.7980 0.149 0.705 0.694 120 52 32 0 0
2.3689 -1.0643 -13.6682 -0.170 0.384 0.908 111 43 25 0 0
2.9563 -0.2379 -14.0711 0.086 0.254 0.963 92 23 4 0 0
2.9631 -0.2433 -14.1134 0.835 0.459 0.305 81 21 6 0 0
3.1552 -0.3103 -15.0958 0.710 0.695 0.111 33 9 3 0 0
3.1637 -0.3125 -15.1373 0.720 0.672 0.171 24 6 3 0 0
3.1716 -0.3165 -15.1809 0.776 0.594 0.212 22 5 3 0 0
3.1407 -0.4909 -15.4900 0.856 0.508 0.100 20 6 5 0 0
3.1487 -0.4955 -15.5351 0.856 0.508 0.100 11 2 1 0 0
3.1866 -0.5247 -15.7697 0.749 0.662 0.034 6 2 2 0 0
3.7440 0.3622 -15.8928 -0.782 0.622 0.040 78 36 25 0 0
2.1950 -1.4481 -13.7475 0.163 0.230 0.959 122 50 35 0 0
2.1998 -1.4585 -13.7936 0.297 0.445 0.845 120 52 36 0 0
2.8920 -0.3556 -13.9486 0.606 0.516 0.606 100 22 2 0 0
2.9335 -0.3122 -14.0151 0.390 0.839 0.380 118 51 19 0 0
2.9401 -0.3430 -14.1197 0.758 0.652 -0.039 99 29 5 0 0
