ply
format ascii 1.0
element vertex 700
property float x
property float y
property float z
property uchar diffuse_red
property uchar diffuse_green
property uchar diffuse_blue
end_header
0.6362761941707156 -1.0217303994685958 -13.728241039633147 115 34 15
0.6531702869989946 -1.0328469626231969 -13.749078237014466 111 32 13
0.772701141634597 -1.0957087034525568 -13.77350067207548 158 99 54
0.8660083644861709 -1.1338226532551459 -13.707217693841564 127 84 61
0.9272750755800638 -1.1656545513738892 -13.716709393463738 144 81 47
0.9787547199885562 -1.1888994926966001 -13.697406192395295 131 52 15
1.000225278065261 -1.2015561261917056 -13.712427179222663 118 37 13
0.960803067346915 -1.1928046283420701 -13.797697268945239 119 37 16
1.0452397008640695 -1.2275877696360493 -13.739995190906422 112 30 7
1.065689864205658 -1.2398760873094514 -13.756118776920857 125 41 17
1.1115848018041623 -1.2610752121245823 -13.742616564542455 130 46 22
1.1439376426859615 -1.2775128789521055 -13.744733725772658 127 43 18
1.197819115015582 -1.3014620442516494 -13.721567642386743 133 48 24
1.2199135454492307 -1.3142854900039223 -13.735459766298288 130 46 19
1.2352342435303179 -1.3247433907847919 -13.757290300163849 130 45 18
1.2652131700816591 -1.3403075282328705 -13.761842887753971 131 47 21
1.29507700549701 -1.355821175310679 -13.766450139712823 129 43 16
1.3204099741389035 -1.369750375288266 -13.776350448425804 131 45 19
1.3639843959532962 -1.390002433379765 -13.764503001642286 129 43 18
1.389588913002978 -1.4040047399368323 -13.773915848569388 129 43 16
1.4282445458071917 -1.4225176704642313 -13.767666451180805 131 45 18
1.4796081021587248 -1.44540604321491 -13.746037588607555 130 44 17
1.5235789482482671 -1.4657128749258672 -13.733073829708673 126 39 12
1.5625263071723738 -1.4842645367898029 -13.72599066723775 124 40 16
1.5979864685020901 -1.5015965178386153 -13.722979723699094 122 39 16
1.6416169212086142 -1.5217236886229912 -13.709941378257195 121 40 17
1.6778245201359772 -1.5392777078443864 -13.705750811983448 119 41 16
1.7084214950959096 -1.554889929678053 -13.708272370162625 128 51 28
1.7389488363845107 -1.5704666436589623 -13.710788368776942 111 35 15
1.7617653506647342 -1.583392236714396 -13.72266565866135 113 38 20
1.7924900768912009 -1.5990164530246118 -13.724783411360981 111 38 23
1.8209820117404645 -1.6138664035830539 -13.729560525202979 108 38 22
1.8674162247585846 -1.6348248184196614 -13.712084312616891 106 34 22
1.8990157751064674 -1.650705260123738 -13.712792927870717 101 36 21
1.9309480820579967 -1.666686052100145 -13.712988060818539 102 34 28
1.9537278208766287 -1.6795445738175099 -13.724486034752278 98 33 23
1.9831426716202936 -1.6946489143806183 -13.727652530258853 109 48 24
2.011740148753164 -1.7094652556162808 -13.731757048730428 114 54 27
2.0359400597067525 -1.7227831971151373 -13.741306056610046 109 43 26
2.0626263488180943 -1.7369348285105066 -13.74767157250935 119 53 26
2.0789199911643177 -1.747570347494777 -13.767098749852064 168 107 61
2.104419667505087 -1.7613091087658033 -13.77486676596417 163 101 62
2.1416562160447805 -1.7789905998524915 -13.76766424114686 120 51 30
2.1736353759010543 -1.7948865269122796 -13.767015953954154 138 67 26
2.2019481226159137 -1.8095379865111263 -13.770944356782639 181 111 58
2.236924146129362 -1.8264127879688106 -13.7662565719 143 72 46
2.2625325250215305 -1.8401349229516883 -13.773471982065187 117 45 25
2.2900001467019013 -1.8544705757579978 -13.778229815526576 138 63 20
2.3105090989108303 -1.8664730927487705 -13.791898328242556 164 89 29
2.33591124141088 -1.8801035886475566 -13.799202631497767 159 88 54
2.3584098906617648 -1.8927593426280245 -13.810215203765313 124 49 27
2.3870613694413905 -1.907455543858792 -13.81317370112604 133 52 13
2.4019385175875163 -1.9175670817330661 -13.834032626598045 171 94 45
2.4477857727130514 -1.9379491776468432 -13.814351731975348 169 101 72
2.508475052493746 -1.9632185421170703 -13.774971855498194 135 67 49
2.5281646295985514 -1.9748904785755843 -13.7892544937633 136 56 24
2.543044598132848 -1.9849714346479428 -13.80986422370469 185 106 56
2.5685352823354393 -1.9985524086905846 -13.816438150502362 177 102 67
2.59673601068138 -2.013017230048013 -13.819348729520648 149 77 56
2.6269113263356596 -2.028120235392556 -13.819544922740153 133 58 21
2.6511163024506725 -2.0412502676689264 -13.827610490859964 182 111 53
2.681063579013422 -2.056255449939697 -13.827932267821609 184 117 72
2.710225540298727 -2.0709907494504836 -13.829208409050576 156 87 62
2.741583292544357 -2.086431674813713 -13.827434530404389 129 57 29
2.7672869470666015 -2.100012856142506 -13.833181143175686 178 102 47
2.7779839804346205 -2.108694227924673 -13.859169696180015 197 137 86
2.8007212251376057 -2.1212993804811715 -13.868859439504291 159 100 64
2.8028128650429407 -2.127189582221793 -13.906600221750137 135 76 58
2.859004455302239 -2.1506473480353216 -13.870614864209564 137 78 69
2.9115883086721333 -2.172897654040308 -13.839266087749339 133 71 61
2.9524985341921806 -2.1913363072707868 -13.823662719775628 158 99 84
3.0354248803753228 -2.2284980577526756 -13.790367275578824 175 94 62
3.0380051063841957 -2.2345204340804417 -13.827235948370177 176 101 60
3.0607625446373463 -2.247043875228129 -13.83621060014785 146 101 66
3.0766146933283114 -2.2573439648356355 -13.854743332677502 80 41 21
3.0929306860670334 -2.2677930746255894 -13.872631476746912 105 54 35
3.1207355020829395 -2.281919017392871 -13.874443330357412 153 94 55
3.135235979632781 -2.291782007372586 -13.894832271132191 169 94 50
3.3044584904333973 -2.3717853704327423 -13.859368757336354 133 79 66
3.3385565634207994 -2.3878124212872556 -13.851494573701688 121 59 45
3.3480399587908822 -2.396042546695563 -13.878691882175929 121 48 29
3.3663764665063685 -2.4070725037924614 -13.893240253629095 115 35 12
3.3825091527435456 -2.4174059121762554 -13.910940608223397 109 27 4
3.3624639750203196 -2.4163622893026573 -13.980831642678803 107 27 6
3.3577267400942583 -2.4201619192702193 -14.028867374566428 95 19 2
3.3818544293514723 -2.4330304556121765 -14.035196829537277 89 16 4
3.4446172185717137 -2.4579802671374957 -13.985257216929542 74 11 2
3.3670641428131765 -2.4390472390777735 -14.139631903087405 88 37 27
3.3722690132459006 -2.446022091782311 -14.173704211449605 69 42 38
3.343687549930645 -2.442489103404985 -14.257429407943013 53 44 45
3.313930275633618 -2.438637761702459 -14.343251303325772 50 46 49
3.2988423494789245 -2.4393868267791436 -14.407811793774954 49 46 50
3.251955457790162 -2.4303189493255357 -14.51967166219491 47 47 49
3.195600311380873 -2.429500088619969 -14.732640105535243 45 44 46
3.2077950482354636 -2.438833115712417 -14.757875347825077 44 43 45
3.1991018624209318 -2.4417564235090636 -14.814482395900425 44 43 45
3.19439619015942 -2.445929482992556 -14.865304120123238 42 40 41
3.19901645516906 -2.4529795623521307 -14.902237825591945 33 32 32
3.192389675832537 -2.4566071992129888 -14.95628834610855 28 28 27
3.1930735109159514 -2.4624894919311626 -14.999447015781339 18 18 20
3.191309350979039 -2.4676442902446594 -15.046466994816168 15 15 17
3.1881709438284664 -2.4724019421551664 -15.095742270225475 11 11 13
3.2168405593304827 -2.4868282162834383 -15.096527569406408 9 9 11
3.2114639369458367 -2.490934847328967 -15.149443336894038 7 7 9
3.1978522466035306 -2.492577722433553 -15.215220345730861 5 5 7
3.16773449069472 -2.489276040314313 -15.306726908355108 5 5 7
3.1972594771732528 -2.5039827012352682 -15.306366992135858 6 5 8
3.2267144863225 -2.5186543453604493 -15.306006679050622 23 21 24
3.256098622964135 -2.5332907532181586 -15.30564774375414 31 30 32
3.284523802487933 -2.547626107037221 -15.306676216380772 18 18 19
3.314100249197087 -2.5622925153755864 -15.305802456493922 18 18 20
3.3480110914264714 -2.5782372968873983 -15.298016177625094 18 19 21
3.3689814432639347 -2.5903107253541595 -15.310441185802302 26 27 31
3.402037594223125 -2.605970217204253 -15.303759285704853 39 40 45
3.4158261425035805 -2.6158977820893514 -15.327422224664254 40 41 46
3.4248272263238873 -2.6244120000744475 -15.35870974723266 39 40 45
3.4330398934511797 -2.6327023998981582 -15.39132252717 60 59 63
3.434322028392306 -2.6389596939259405 -15.435073563282778 76 75 78
3.476926973533038 -2.6573931242929536 -15.41283327929119 59 57 61
3.486988843369444 -2.6662407494836127 -15.442589068862915 25 23 27
3.520698869186428 -2.6820265345811523 -15.434345905180326 12 10 13
3.5353521262783874 -2.704075295898209 -15.549061655880543 29 30 34
3.5725954150928283 -2.7568999413142583 -15.815581640960906 7 7 9
3.5485966797211157 -2.762216270200816 -15.950401867902075 5 5 7
3.569863093356421 -2.7744177221453685 -15.962671779597835 37 37 39
3.579413344470904 -2.783278916783164 -15.994524604687154 60 59 64
3.5659380201209956 -2.7856089369074004 -16.065123384713402 27 26 31
3.5669903362712034 -2.792094416373728 -16.111546385479564 13 11 14
3.7777598879598866 -2.8640103613213617 -15.851375177997738 36 35 39
3.7162996954794707 -2.852824179982613 -16.003457034609514 38 38 40
3.748549325284263 -2.8680638137790755 -15.996643799420694 42 42 44
3.7934738876995233 -2.886837486431568 -15.968025368323522 45 44 47
3.774662153102722 -2.887749429455628 -16.04834850716301 49 49 51
3.815355759174257 -2.905312292064994 -16.02676627156287 65 64 64
3.898712249052892 -2.9347237496776533 -15.93142545216281 71 68 67
3.9187254136163485 -2.9464545433289753 -15.94490708481605 85 83 81
3.9336121434170304 -2.956760558130691 -15.967243600676374 86 86 84
3.9485049409151864 -2.9670708294978243 -15.98958965633964 73 72 73
3.8397839705340626 -2.987826124583535 -16.57443032803951 102 97 94
3.8928266372102174 -3.0086359361663555 -16.530074968151638 116 112 109
4.115026803145953 -3.126242682903202 -16.58132321056345 189 189 189
4.13657757554265 -3.138431139768557 -16.592385108004613 194 195 195
4.145925126671265 -3.1604795252247766 -16.72774893944738 202 202 202
-4.245754849140695 1.5349263585439812 -12.524937409180268 97 49 39
-4.2211727081689965 1.520138136391123 -12.544519889572062 97 47 38
-2.5871914121837287 0.7108933491600724 -12.50459629077697 112 40 26
-2.4850982041076533 0.6660673665088606 -12.457802863962723 112 40 26
-2.4373276973221607 0.6425568979758309 -12.455490256679958 118 46 32
-2.3833240417466977 0.6166253413042186 -12.447882916358392 115 43 29
-2.374589782197896 0.6084094163154816 -12.477709996424341 113 41 26
-2.3234416144633503 0.5836215228611819 -12.472261593658402 115 42 26
-2.279417069337436 0.5616331429391992 -12.47261300885539 114 41 24
-2.2815976832070337 0.5576784739257405 -12.511544240338406 113 40 23
-1.747899394188762 0.2929413666017151 -12.50173166893887 117 38 21
-1.6968968962511033 0.26846376004976813 -12.494447866321302 117 38 21
-1.6919648088684243 0.2617737232763204 -12.527125975105632 118 40 22
-1.660037661383587 0.24467276659892612 -12.53629760580517 118 40 20
-1.6125366590106198 0.221583807586049 -12.531767350998612 117 39 19
-1.569984614028896 0.20041698589908652 -12.531442083646304 119 41 21
-1.5210256561324256 0.1768025216575948 -12.525358342776853 124 46 24
-1.4608170615693687 0.14888656910463416 -12.509192666906458 115 37 15
-1.450497246185198 0.14014251212992113 -12.536995427496109 121 43 21
-1.4451587933540306 0.13330334054917126 -12.56926111994655 127 49 27
-1.4127605355606239 0.11608851356522942 -12.57749882375069 120 42 20
-1.4028313935926633 0.10748386315918879 -12.60572872639355 122 42 20
-1.2958047152138343 0.06173550726007759 -12.547069648205138 123 42 21
-1.2735588288633384 0.048444100543034274 -12.56408552861021 122 41 20
-1.2171255428213827 0.02210107768908287 -12.550304227943045 123 42 21
-1.1957082130072028 0.009141826276892306 -12.567944183431248 123 42 21
-1.1716058591755303 -0.004838932151649988 -12.583137993469041 123 42 21
-1.1325680259361102 -0.024504382166299354 -12.584744750583358 126 44 23
-1.0962443633239607 -0.04312348075564687 -12.588717983915972 123 41 20
-1.0668657856860193 -0.05909017244632997 -12.598939837603847 121 39 18
-1.0375312612558636 -0.07503285615825384 -12.609145854664275 123 41 20
-0.9956617626680142 -0.09572605768606257 -12.607790282960524 126 44 23
-0.9527077388992229 -0.1168150053575987 -12.605316499607664 124 42 21
-0.9234547993981437 -0.1326962608289275 -12.615362172130563 124 42 21
-0.8924350176109188 -0.149239073063971 -12.62371609515095 123 42 21
-0.8302125756562138 -0.17757549255310456 -12.60304626012407 125 44 23
-0.8045552887396541 -0.19206433806472178 -12.61617882516737 125 44 23
-0.7675481873299521 -0.21083356257784924 -12.61868087534473 123 42 21
-0.7074913854536335 -0.23828547363522645 -12.599516058495116 123 42 21
-0.6656314221861788 -0.2588507505230795 -12.597209340994151 127 46 25
-0.6442126080014958 -0.2717024544796254 -12.614013091811195 127 46 25
-0.6179363401574749 -0.2863793898447704 -12.626215724915845 128 47 26
-0.5929973320882489 -0.30054804987177786 -12.639640352221718 130 49 28
-0.5660287833098296 -0.31547420730436126 -12.651102999598102 129 48 27
-0.5448879686797836 -0.32820755969397686 -12.668062813703935 138 58 37
-0.5172270096150813 -0.3433830223469747 -12.67878561960804 131 53 31
-0.48906046783714796 -0.358741221674447 -12.688973611223936 130 53 33
-0.4567620613558194 -0.3756385695953792 -12.695144027079419 134 57 38
-0.46016680965125545 -0.3791781639206535 -12.73558155172812 135 62 42
-0.3689692758153642 -0.4180677082913635 -12.684882466597514 143 73 59
-0.3360830557583645 -0.43514676287515686 -12.690193618118109 155 91 80
-0.3148671526644886 -0.44786443405326404 -12.70674333443052 167 107 96
-0.25209617182090405 -0.480861569282272 -12.719952725608143 148 76 57
-0.23044876520561441 -0.4937254934216906 -12.735971018435468 151 74 51
-0.19624750915588418 -0.5112496752566345 -12.739658076847252 133 54 32
-0.18359975053519317 -0.5207641356845429 -12.764450005586871 147 68 45
-0.17269495462842155 -0.5296359829391557 -12.790988058550331 157 91 68
-0.15901257413343473 -0.5395414145680109 -12.814816974608423 154 92 74
-0.14396716788029362 -0.5499540804451972 -12.837316687057665 130 61 39
-0.1350674871372517 -0.5580967067863951 -12.86594106283055 133 51 25
-0.09360825270756745 -0.5782707268124097 -12.862155377898388 99 19 4
-0.058407557963077394 -0.5961187122259801 -12.864496164576707 84 14 5
-0.02783897474296282 -0.6122468054052264 -12.871384194520541 77 12 3
-0.11217329467427817 -0.5860516453195683 -12.993694859790741 72 11 2
-0.07204555731926643 -0.6057192981345154 -12.991123723890869 69 12 3
-0.06107564354729078 -0.6146542033104141 -13.017898085587081 59 20 15
-0.051035415492014735 -0.6232526608027564 -13.045652609655193 34 16 15
0.03169845567165819 -0.6831718536578508 -13.189922006385071 12 10 11
0.009705742368741 -0.6801212784029751 -13.251012353778297 19 16 17
0.004772750027717265 -0.6833143718910613 -13.294656184792817 13 11 12
0.01313574040340093 -0.6913627658880301 -13.324618543004824 12 10 12
0.03531465539854217 -0.7044408231990968 -13.340244683617726 11 9 12
0.02711537855262236 -0.7064834180194994 -13.387575772660739 18 16 18
0.030849773898368404 -0.7128748981602331 -13.422558164524471 27 23 24
0.04523297125734871 -0.7231363552523362 -13.44643898695665 19 15 15
0.0749261582699825 -0.7389434994265396 -13.45421790805609 47 43 42
0.05925421921811669 -0.7383344140326566 -13.509833807090878 89 83 81
0.07741600942035998 -0.7499747468513323 -13.529819110444308 31 26 23
0.1091842715075213 -0.7665259059161169 -13.53535668235236 11 6 4
0.05477181107158913 -0.7519944038588173 -13.632569749466374 9 5 4
0.038558494577075386 -0.7512758576462439 -13.689424075196069 7 4 5
0.06620248476712032 -0.7663628081285068 -13.69952869288966 14 3 3
0.07577809812825365 -0.7749485757826919 -13.72897346809913 112 53 32
0.4896950759611043 -0.9742933278398236 -13.675218143786394 136 50 25
0.5137594417434315 -0.9879737411259821 -13.688238871731418 127 41 16
0.5460855776517448 -1.0045802957222532 -13.692057027260685 126 40 17
0.5873806442277454 -1.0243538150967701 -13.68581050014751 126 40 18
0.6099600099719247 -1.0374837929545997 -13.700296291740408 127 44 22
0.6068477984983058 -1.0415258100065352 -13.743487634431812 117 36 16
0.6034678637052968 -1.0454898535430672 -13.787107291573239 114 32 15
0.584558760696626 -1.0439922199985654 -13.848321173731682 118 35 16
0.7190314686186738 -1.1068997629119393 -13.816530643173449 161 98 55
0.801593088264867 -1.141078477200983 -13.762692629988585 126 82 58
0.9179303136979255 -1.1870528433127339 -13.669943704479323 124 72 66
0.8324146480401629 -1.162222309198913 -13.807338989655587 141 83 51
0.8581413979324148 -1.176407309758392 -13.817857881327503 132 52 16
0.9429163042261397 -1.2112270333513022 -13.760451141288435 117 36 14
0.9689898268967765 -1.2254959141976909 -13.770283079771966 120 39 17
1.0279641870317633 -1.2512319973979116 -13.742034661153205 125 42 21
1.056627258310666 -1.2663755016053804 -13.748653677643066 123 39 17
1.0943594623055377 -1.2846652361289688 -13.744662233009173 129 45 21
1.1245729128073494 -1.3003253968664867 -13.749303705815421 124 40 14
1.1661980896075317 -1.3199360400883302 -13.7405288812623 128 44 18
1.194762909048225 -1.3349987791970732 -13.746902381014205 130 46 20
1.2318467298753042 -1.3530021226069437 -13.743194942297286 130 46 20
1.2654589900405844 -1.3697883954002439 -13.743450768783536 126 42 16
1.3006564059573211 -1.3871086506983867 -13.74172899392008 129 43 16
1.3112186818973761 -1.3959144411936548 -13.769075266484872 130 44 17
1.3456684216937695 -1.4129574088260313 -13.768089961245238 131 45 18
1.3847275175859464 -1.4315723487305632 -13.761502743719838 128 41 14
1.4275077191373224 -1.4514480125020448 -13.750328888307838 130 43 16
1.455792703696961 -1.4663254725142525 -13.756348694641463 128 41 14
1.499892242102085 -1.486616334103243 -13.74330307476264 128 41 14
1.5324722365426915 -1.502939139255266 -13.743953021111835 131 45 19
1.5789603424937013 -1.5240059634534808 -13.727706162398468 128 43 17
1.6211498769410522 -1.5435791654829925 -13.71647007217053 126 42 16
1.6356592054939236 -1.5536867379516561 -13.738677120110125 134 51 24
1.682648661884393 -1.5748642376628883 -13.72135527356344 124 42 16
1.7199555637777042 -1.5927206913443612 -13.715654927777884 127 44 20
1.7331010229783415 -1.6023474330457415 -13.739398316364824 127 44 22
1.7688686881371831 -1.6196566689780667 -13.735396631638839 125 43 21
1.8026053700927074 -1.6362610124897379 -13.733768699436268 122 42 23
1.827789819675278 -1.6499551252848015 -13.742584155233441 117 42 24
1.9008346978651955 -1.679825386666716 -13.69210460105673 108 35 21
1.9269800503818688 -1.6938084708322947 -13.699453126824082 108 36 23
1.9573569831319482 -1.7092104959048289 -13.701472029349855 106 36 23
1.9745614552885966 -1.72016392722569 -13.719837611269433 103 35 21
2.0242008239227633 -1.742027072990398 -13.697611210269002 102 34 21
2.0486617856408706 -1.7554030408757422 -13.706754534687837 101 33 21
2.054560902276971 -1.7625451470211906 -13.739201592043212 100 34 18
2.0803839590009785 -1.7763720628823498 -13.746584647337482 110 51 25
2.1180627600718127 -1.7941575333026085 -13.738904769217157 114 56 30
2.1438380257071463 -1.8079469007248705 -13.746181813814992 105 41 26
2.1614559389133774 -1.819006231505433 -13.763773878905917 123 57 26
2.191090434116144 -1.8340689480675718 -13.76603015768369 169 105 57
2.2208679004427694 -1.8491675254176063 -13.768013079028396 158 93 59
2.2451959284455416 -1.8624433074130717 -13.776894403706049 121 50 28
2.2804696339895 -1.8793444669633148 -13.771642703122076 141 70 25
2.2917568493432965 -1.88827963719748 -13.797197857921958 169 98 37
2.3331603602572937 -1.9071862339697647 -13.783839484792715 141 70 29
2.349795802385051 -1.9178848848384513 -13.802427752909509 119 42 17
2.4095465949508386 -1.9428119645328135 -13.764943743180176 138 56 20
2.4398460120712047 -1.9579935026076067 -13.765558372342117 168 89 41
2.4714742054686534 -1.9735995400622488 -13.764336733424193 161 91 63
2.485787332525721 -1.9835015855094311 -13.785711837240568 132 60 43
2.5046599899520645 -1.9949018969617192 -13.80110763500613 134 56 20
2.523525713436584 -2.006297750976898 -13.816495699891282 177 99 45
2.5600227201880843 -2.0234603975577263 -13.808554894829102 183 109 75
2.6030678954245516 -2.042743652646436 -13.791786553894418 146 75 55
2.6267174988301534 -2.055673851846632 -13.80061042645132 133 56 19
2.6509189359954197 -2.068776999413425 -13.808645884056151 177 97 41
2.6789202367415035 -2.0831088661142325 -13.811544430941538 180 105 64
2.705984122411693 -2.097125184314303 -13.815614274971306 148 75 54
2.7284756438947415 -2.109648279628513 -13.825751764234177 126 54 21
2.751506361023951 -2.122340151032129 -13.835117262332286 173 94 43
2.7950246337404803 -2.1416508902635867 -13.816740264089415 189 122 76
2.8244590573052415 -2.1563877490330623 -13.817250288956913 152 82 45
2.844806680687369 -2.1681822270370716 -13.830012920101362 115 52 32
2.8753241669713274 -2.1832467070059254 -13.828884294954939 140 89 77
2.900648717686603 -2.196628133268728 -13.83474592452961 133 77 66
3.0193871998654513 -2.25040222236766 -13.792985055970362 171 90 56
3.015476635039854 -2.25438730529433 -13.838809509207774 173 102 61
3.0374523647649783 -2.266649245706829 -13.848915553193113 141 95 62
3.057472111628413 -2.2782825307665844 -13.861695392634896 77 34 17
3.06734009995132 -2.286684038629088 -13.888591982200545 106 57 35
3.101013228961479 -2.302649331254044 -13.882273846506838 159 100 60
3.1072916015887335 -2.3099138038738007 -13.914206120832322 166 91 50
3.142116767644759 -2.326222315207533 -13.906104307082616 171 96 65
3.2488084433424573 -2.375732514012156 -13.877783914834328 144 94 76
3.286488692593223 -2.3928617976364457 -13.865031327008936 123 67 53
3.3085103995712055 -2.4050534151881235 -13.87441737064474 116 49 31
3.3278633629994445 -2.4164024924534915 -13.887568896104263 109 33 10
3.3472038039103307 -2.427744238258298 -13.900712004926477 112 30 6
3.3570710635872008 -2.4361233618148233 -13.927438545253212 109 25 2
3.338807827563583 -2.4357361205643313 -13.99474112018719 100 21 1
3.3428338684913594 -2.4423240650006233 -14.030118120726861 93 19 2
3.3367706447832504 -2.4457886686611157 -14.080208696440563 88 17 5
3.3960340039908887 -2.4695469664654395 -14.035575312997437 75 14 4
3.358790680552814 -2.463365134341873 -14.131183473505441 90 43 32
3.319908465664777 -2.4567326189636916 -14.229619301883073 64 43 39
3.2874948555065977 -2.452155193994719 -14.319027888340624 55 45 47
3.2661728002379604 -2.451047584554985 -14.392540721534173 51 46 48
3.245310969499358 -2.450121577202615 -14.465684556968304 48 45 48
3.230807549846965 -2.4511880864012694 -14.529742070706618 47 45 49
3.144814594843745 -2.43036995894748 -14.699958561977528 47 45 48
3.1779967448496667 -2.4517454276312027 -14.73730802824385 46 44 45
3.1812696112390375 -2.458371587813357 -14.775879007992732 46 44 45
3.1913172673499 -2.4670746994040225 -14.804413091153972 44 42 43
3.185408478820383 -2.4709360620717975 -14.856973075558727 40 38 39
3.1809638613472684 -2.475266207757349 -14.907517636879664 35 35 33
3.1779333821068096 -2.4800477035615054 -14.956104726655546 34 34 34
3.175236703533396 -2.484951805914738 -15.004353839081109 32 32 34
3.1756380728329416 -2.4908120306715675 -15.048062223319034 23 23 25
3.173839281919552 -2.496027828220209 -15.095262419045739 14 14 16
3.182823951412823 -2.504505684384921 -15.126148359923825 8 8 10
3.1896490645595685 -2.5123443771897698 -15.16041048106806 5 5 7
3.1762833074483803 -2.514147614132947 -15.225778356000784 6 4 7
3.1587236432699655 -2.514731096036311 -15.297868986823632 6 4 7
3.200260481233207 -2.532985086826082 -15.278957970259285 19 17 20
3.21894976061892 -2.544407633012994 -15.29523126563702 36 34 37
3.2264065385069403 -2.5524896346696617 -15.328941042717801 22 22 24
3.2798794755910183 -2.574233602348299 -15.291039416747239 17 17 19
3.301908661291505 -2.586625833545049 -15.301945833065355 19 19 21
3.3295152362634504 -2.6006604809553004 -15.304068474411366 23 24 28
3.3649435698127332 -2.6169899125078646 -15.293806693070806 26 27 31
3.390941981151318 -2.630522133694804 -15.298239170756144 37 38 42
3.385442028497576 -2.634789665259089 -15.352362071754246 44 45 50
3.4027540075406177 -2.6457719676159717 -15.370536818092212 44 46 51
3.4117403531599475 -2.6543173675235514 -15.40193788687592 55 55 60
3.420647436417995 -2.6628488197014533 -15.433536320800554 73 71 76
3.466757423377519 -2.6822333087754133 -15.405753645054514 55 53 56
3.4983329796741875 -2.697355693946509 -15.400999791494389 24 22 25
3.5083390926832907 -2.706199163672533 -15.430777627461572 13 11 14
3.5211659036151772 -2.71586788785474 -15.45607164562303 14 12 13
3.5366419375836164 -2.726307322979354 -15.477120641034556 32 31 35
3.5164937965893728 -2.7264699188927386 -15.555923871097106 29 30 34
3.472684007864996 -2.7198637194459274 -15.6735285227139 23 24 28
3.52611462194744 -2.7412704239667307 -15.633185414964217 16 16 19
3.5003255454103153 -2.7399186136000675 -15.722005506254344 13 13 15
3.5192579272975575 -2.7514144435668646 -15.737909035022925 11 11 13
3.507424047291553 -2.7541233962826714 -15.804374930464455 9 9 11
3.506626158692576 -2.7600117184849786 -15.852916077944824 8 8 10
3.52440842166113 -2.7712043647207683 -15.87090505598497 7 7 9
3.5552494042104614 -2.7922500251807736 -15.914718570045945 5 5 7
3.5739431652886093 -2.8037006017874555 -15.931191069480224 39 39 41
3.582785299079193 -2.8123724551151628 -15.964123676516847 58 56 61
3.5508069586976845 -2.8095741035316193 -16.065595135760642 24 23 28
3.547547891806458 -2.8148959503487445 -16.119234671612354 12 12 14
3.727658182674748 -2.883945655769109 -15.959221203724686 38 38 40
3.74416988066897 -2.9009721057119413 -16.027149603974593 44 43 46
3.764543249204703 -2.9128567856099243 -16.040509692741644 46 46 49
3.8062329250398523 -2.9306252019533363 -16.017260771203475 61 61 62
3.8464058435782675 -2.9479442035791537 -15.996379234370982 74 69 67
3.904017540152709 -2.970028173956306 -15.945173578660953 103 100 97
3.9168813046602446 -2.979785682640471 -15.971010969410838 93 93 91
3.93061553998162 -2.989786603721964 -15.99537768128246 77 76 76
3.9472878501152966 -3.0005937443231687 -16.014661816969117 68 67 66
3.8182918056995323 -3.010302642623138 -16.586124315994606 104 99 94
3.851459183767485 -3.0452927607799936 -16.72866423485452 147 147 145
4.104282682125755 -3.144756871388985 -16.52364970080709 185 185 185
4.106509492659619 -3.1518652981953568 -16.569970925388862 190 190 190
4.129276258274958 -3.1643544366826064 -16.57878681696502 195 195 195
4.14296403899676 -3.174472798338185 -16.604239213824407 198 198 198
4.156951165864835 -3.1846736538365046 -16.629176490358986 201 201 201
4.161978207040059 -3.192559327971964 -16.670721957587567 202 202 202
-2.454974783358841 0.6212782762370255 -12.418607941978706 111 39 25
-2.432632323718015 0.6077425930773175 -12.43719321050088 113 41 27
-2.410247614850725 0.5941924401205112 -12.455728444475614 114 42 28
-2.4106484655403335 0.5895036287639548 -12.493151174755994 112 39 24
-2.380781001286035 0.573043448956263 -12.50548355123551 113 40 24
-2.325245741515606 0.5466254156918553 -12.49635251601622 113 40 23
-2.3429718290711703 0.5486478019558323 -12.548340315323932 113 40 23
-1.77594388784021 0.2715746781168531 -12.511295654545492 117 38 21
-1.7448498078382482 0.25480311434356295 -12.521343071887776 117 38 21
-1.7080765577521237 0.23586109413526124 -12.526390571133375 117 38 20
-1.6792118115896777 0.21996138935893894 -12.53824867250086 116 38 18
-1.6322003230416504 0.19711932976077184 -12.534184513513559 115 37 17
-1.5357220996942154 0.15536897159878515 -12.48659437713493 116 38 18
-1.5164005537762524 0.14316433753576652 -12.50648782270731 117 39 17
-1.4892994448957566 0.12798867472661968 -12.519515692930064 114 36 14
-1.4826663744854054 0.12063014522123083 -12.550604192907125 124 46 24
-1.4603530217428595 0.10728466721170138 -12.567844063751869 125 47 25
-1.4385738495093188 0.09414517076762197 -12.585540220146207 121 43 21
-1.423167374443386 0.08343378786281219 -12.608903480632822 122 42 20
-1.3362623343855375 0.04552503566983779 -12.56834095706456 123 42 21
-1.24286653203011 0.005193850050202453 -12.521618450946896 123 42 21
-1.2579094187257942 0.006087055827932009 -12.572038030735234 123 42 21
-1.2307264630739478 -0.009061456977089044 -12.584546509838823 123 42 21
-1.2023227959271763 -0.024666935659023448 -12.595907060606963 124 43 22
-1.1470317076745546 -0.050449054515639524 -12.582836933969451 124 42 21
-1.1102693952003237 -0.06919550894733817 -12.586428837340385 124 42 21
-1.0757658959427747 -0.08707580829155415 -12.591987300752034 123 41 20
-1.032853165949958 -0.10812198797157269 -12.58977523962279 122 40 19
-0.9808551671602297 -0.13258082496008106 -12.579108739590858 130 48 27
-0.9506867517971687 -0.14878561173840188 -12.588340345607994 125 43 22
-0.918215527080716 -0.1658500298308816 -12.595387983538394 125 43 22
-0.8879765351978683 -0.18206465472035616 -12.60442627299108 123 42 21
-0.846513786746244 -0.2024923437457331 -12.602998198480922 125 44 23
-0.8300043238808774 -0.21352809170564546 -12.624646447475827 125 44 23
-0.8428312872570523 -0.21355142134705174 -12.673648425055848 125 44 23
-0.6968084145894675 -0.27317754116271864 -12.574330767699482 127 46 25
-0.6573482050146282 -0.29278344721276106 -12.574233501744063 126 45 24
-0.6375916602925393 -0.30499760520176844 -12.592544122063895 125 44 23
-0.6201558621167349 -0.3163424139075319 -12.613032585355914 135 54 33
-0.6027214785744208 -0.3276870383589321 -12.633525022549204 127 46 25
-0.5856773680783585 -0.338886285317026 -12.654389966619686 136 55 34
-0.5470001425130002 -0.3581563611958334 -12.654701903751668 123 43 22
-0.5207072165064144 -0.37279653624016884 -12.666706337448748 125 47 25
-0.48686326847910344 -0.3902426957206431 -12.671451533773183 128 51 31
-0.4525149125878123 -0.40786554576172884 -12.67562952002513 134 57 38
-0.49420400818037 -0.3972157975793884 -12.752777866758061 135 60 40
-0.3818712875387362 -0.4438001024396625 -12.681848743971369 144 74 58
-0.3460867555628333 -0.46192089789366486 -12.684372411715678 160 95 84
-0.3211621721924791 -0.4760041274592286 -12.69732127162224 163 102 91
-0.2957489722418005 -0.4902633229970168 -12.709757480579409 169 106 93
-0.2705505734837974 -0.5044377323395723 -12.722362176162715 156 84 66
-0.24361443753026712 -0.5192491960444943 -12.733229720069293 149 72 49
-0.211497979588688 -0.5359669954777857 -12.738974039204756 145 66 39
-0.20463655347230691 -0.5433584759903201 -12.769445616014966 145 68 43
-0.1962258224322735 -0.5513286024808681 -12.79845010486051 152 89 67
-0.16787979238215733 -0.5715277295640298 -12.845198453381236 151 79 58
-0.15286930241852392 -0.5819388727667478 -12.86777035635988 126 45 20
-0.11588180682705662 -0.600420021854775 -12.868473998081164 106 27 11
-0.0811187393258388 -0.6180716227609389 -12.87129357748907 82 13 2
-0.042857324707124 -0.6369928199403838 -12.870517246130861 75 12 1
-0.12816168273940676 -0.6106695430037274 -12.993684070386536 70 12 2
-0.0821938185682356 -0.6324237642685686 -12.98526390891903 65 13 4
-0.13026211435893398 -0.6198047196064045 -13.071616759859953 59 23 16
-0.024169904215078475 -0.6933651930991145 -13.23096720459848 9 9 10
-0.016112533538846563 -0.7013093887319592 -13.261118168204627 10 10 11
-0.01733547221723164 -0.7059011806420505 -13.300927249199257 9 9 10
-0.011604470600489414 -0.7130220842152286 -13.333630065292285 9 8 10
0.004564686877182922 -0.7239231846229792 -13.355542776007749 11 9 11
0.00889714986899559 -0.7305536597055022 -13.389814199500337 18 16 17
0.012556785237595847 -0.7369517488865429 -13.424867493728515 24 20 20
0.040892999175413 -0.7522481044508069 -13.434118183184584 33 29 27
0.050171617934691604 -0.7606800664930256 -13.463354981164683 76 72 69
0.058045826823378555 -0.7686138375223641 -13.494123305385894 95 90 87
0.05647060587154762 -0.7731626258566711 -13.534944050945255 70 65 62
0.05963100276606248 -0.7794246919390204 -13.570856224097948 61 56 53
0.05579945761861449 -0.783193040676319 -13.614290283083834 29 25 22
0.04603477841315495 -0.7848546406360635 -13.66417866325401 11 7 6
0.06513947277438348 -0.7968585994105819 -13.683361166971565 14 2 2
0.011394712824709607 -0.7828452799561156 -13.780645988640764 117 58 34
0.4485402239353897 -0.9900514352464027 -13.703080803600926 130 47 21
0.490528866916045 -1.010052539114958 -13.696385128671375 127 43 18
0.5166214798970579 -1.0244319700746733 -13.707155790381865 124 40 16
0.551756217701949 -1.041988210333289 -13.707830608758997 124 39 17
0.5866009279452093 -1.0594287088341114 -13.708723256444614 127 43 22
0.5796478830255873 -1.0621737032703646 -13.7562040278455 123 42 22
0.5647024121975601 -1.062134240835947 -13.81278896803047 115 34 17
0.6232859820816872 -1.103579483124487 -13.907101610604471 155 89 44
0.8185735776453562 -1.1769635804733674 -13.725596664158445 133 89 61
0.8261490453404887 -1.1847970371062635 -13.756734094453284 107 56 46
0.8819899703277443 -1.2094366651518906 -13.732824349415246 141 85 53
0.9197061064859966 -1.2277444730491398 -13.729427481915643 131 51 17
0.937405181224662 -1.2390855830480367 -13.748885516765544 118 37 16
0.980221782484449 -1.259137445854773 -13.739426982168021 114 33 11
1.0048919579981304 -1.2728827365565873 -13.75075697782044 116 33 12
1.0418898363036089 -1.2908872588862064 -13.74777210326888 122 37 17
1.077133307004238 -1.3082693900534794 -13.746700092775626 122 38 15
1.1118644549750263 -1.3254599533457916 -13.746111519860769 122 38 14
1.1533569657389986 -1.3449670023648705 -13.737521852963674 128 44 20
1.1731893824576183 -1.3569960787215734 -13.754126718666257 125 41 17
1.2132532042115907 -1.375980627451681 -13.746974883024137 123 39 15
1.241760045407224 -1.3909766068109382 -13.753276468967869 127 43 19
1.277403778820256 -1.4084115565911537 -13.751085308328804 127 42 16
1.2924614816535955 -1.4187776364214346 -13.773132504904499 127 42 16
1.3094588499399444 -1.4298094227459166 -13.792893305969585 128 43 17
1.3146502452302995 -1.4368064225105344 -13.826701437262352 130 44 18
1.3840418355174382 -1.4657289778122644 -13.784003261330696 126 40 14
1.4512218213403578 -1.493853070205314 -13.743610197489145 127 41 15
1.4339054698526539 -1.4931632887367567 -13.80424067544189 128 42 16
1.4761258816517921 -1.512749955182755 -13.793489934607312 132 45 17
1.5608012585289366 -1.5467345514209145 -13.731371334514648 131 44 16
1.5961288139904832 -1.563921652680107 -13.728486146307437 136 51 22
1.6189250012245182 -1.5768476710710888 -13.74067686873665 136 51 22
1.655827668247941 -1.5945415416903552 -13.735676085919147 135 49 21
1.6917368155454975 -1.611882437388421 -13.731754611774926 129 42 15
1.7124767778207586 -1.6240877609640272 -13.746254407155716 128 41 16
1.7422699033112403 -1.6393410273355875 -13.74962975742302 128 41 16
1.7729853620371987 -1.6548935304154049 -13.75178534347945 128 43 18
1.8038092287323488 -1.670470401998113 -13.753714857747728 125 43 19
1.8898039966366422 -1.7045562726407315 -13.68734959402764 133 52 28
1.917815270221868 -1.7191412252778808 -13.692390692179398 125 43 20
1.9436792251024757 -1.7329973208586438 -13.700025104979332 127 47 25
1.9621264665769171 -1.7443654514054883 -13.716842253094974 117 39 18
1.9967504125432276 -1.7611339607993406 -13.713430530695142 115 38 18
2.0587760395806995 -1.7870243320725598 -13.675555444965639 114 37 18
2.0815614614489846 -1.7998060172981658 -13.686682146536253 109 38 19
2.104433368040528 -1.812611030213768 -13.697658254600315 103 39 20
2.1272256113221966 -1.8253840481424342 -13.708692636002276 99 36 21
2.1556069377577343 -1.8400052997215925 -13.712603099446422 98 35 24
2.1677950551279705 -1.8492525443899264 -13.737007155224623 99 36 17
2.1995486892769476 -1.8649753527002386 -13.736514962360701 116 51 22
2.215428273066258 -1.875441219419784 -13.756197783458044 112 45 19
2.243513455813952 -1.8899337333673918 -13.760249861240386 106 37 20
2.249880429536846 -1.8972622428251626 -13.792121377239733 121 54 22
2.2800118457260377 -1.9124168190259248 -13.79345352909675 158 94 46
2.3044804871150566 -1.9256989936644509 -13.802005065396132 153 88 51
2.3392715720465675 -1.942359582667191 -13.797130935293058 124 54 31
2.372248699038048 -1.9584091705994089 -13.7944835373011 136 64 28
2.4290150444650065 -1.982223888227825 -13.760735943590275 177 107 53
2.4623038099466443 -1.9983334975773501 -13.757361870300468 141 74 37
2.49417953726034 -2.013966561763492 -13.755717883195906 117 42 23
2.511961835923673 -2.024995704608098 -13.7724707596107 135 55 22
2.5438094895631966 -2.040597306862226 -13.770692760823188 173 92 37
2.564758764328598 -2.0526456820328405 -13.783194270581756 159 81 46
2.5871512598753306 -2.065157736630337 -13.79375231132995 129 54 35
2.6132415190496783 -2.078861280672955 -13.799357424353435 124 45 11
2.642273139273467 -2.0935064593259582 -13.800975852349818 171 90 34
2.6706315298260384 -2.107922256722645 -13.803400684597982 176 98 56
2.6947305292856605 -2.120953757177491 -13.811440060747255 151 78 59
2.7213555129366593 -2.13479075659429 -13.816031566017148 119 48 20
2.7424352105356338 -2.1468359572192948 -13.828012342413057 168 87 41
2.793127177588099 -2.1683777142837024 -13.799984191993907 183 109 67
2.8143586815806554 -2.180447989300609 -13.811579113047774 148 69 35
2.8436715907208825 -2.1950985103992573 -13.81216777000656 112 45 25
2.995231943881131 -2.2750258722849397 -13.84719659750077 171 103 61
3.025116027529622 -2.289778895428501 -13.846395931749555 140 95 60
3.0558221609882965 -2.304777928328962 -13.844349712291967 78 32 17
3.0735362908580015 -2.31566463122811 -13.860271557215528 110 59 38
3.0985680052183593 -2.328854115020144 -13.865970234720123 161 103 62
3.108036433218354 -2.3371416082189396 -13.893378524450217 167 93 53
3.2244215499873405 -2.3948835506497423 -13.892446250971037 135 84 69
3.267449352952485 -2.413630343547579 -13.87219236127984 122 62 46
3.288417259039969 -2.425481494835169 -13.883113032443463 118 48 24
3.305471553987905 -2.4361111705458294 -13.89957864318875 120 42 14
3.3254086524272664 -2.447634323110915 -13.911911767067261 110 27 4
3.3355191121386856 -2.456109388177637 -13.938312313987861 110 24 4
3.3186298076790504 -2.4562408813340797 -14.003604898176519 105 21 1
3.3278289226777105 -2.4644611179442233 -14.031523367781553 95 20 4
3.335765795690392 -2.4722995722865364 -14.061323440110622 81 14 3
3.3430100724116034 -2.4799335400280333 -14.092194222459561 74 20 11
3.3014346784579853 -2.4725819136560157 -14.194159805059133 95 55 47
3.2634714263219564 -2.466399003756996 -14.291324015779853 62 45 43
3.2265976316656593 -2.460607174882563 -14.38733548491286 58 49 50
3.206124804114694 -2.4598834780927086 -14.45972083024433 51 46 47
3.159320732390131 -2.451167648528089 -14.57114419533113 48 46 48
3.2022159172317464 -2.469831726737546 -14.550761837426595 48 46 49
3.207611843045097 -2.477069702649888 -14.585636346693676 47 45 48
3.2073029701795486 -2.4825888203801836 -14.629065705650206 47 45 47
3.1739337988370586 -2.478113405242182 -14.721815803684555 46 44 45
3.171700382869343 -2.4831052489044656 -14.768533819643412 45 43 45
3.178107063821896 -2.4907250451667644 -14.802484254044568 43 41 44
3.1755284755263053 -2.4956494505089375 -14.84999980249853 39 37 40
3.172095103069533 -2.500337983763973 -14.898963114435329 34 34 33
3.1686481845271635 -2.5050446389353915 -14.948116726128088 24 24 24
3.1651870415164236 -2.5097693424960217 -14.99746265679522 20 20 22
3.1623278992568915 -2.5146964917493517 -15.04606708699525 15 15 17
3.151053893097262 -2.5171339517122377 -15.107640319662757 9 9 11
3.1532410664737025 -2.523612992377239 -15.148918011931324 7 7 9
3.182132146353239 -2.5380489038011635 -15.14946925527023 6 6 8
3.1565921910046946 -2.5363168388692086 -15.233421704041906 6 4 7
3.182551519106343 -2.54988799341512 -15.238511623129195 5 3 6
3.197631180158135 -2.560232294847301 -15.260308507204261 14 12 15
3.2132518071389757 -2.5707383558877255 -15.281284720409895 48 46 49
3.2189048917185303 -2.578310238002357 -15.3177367495577 20 20 22
3.2165234306242363 -2.5835332217646183 -15.366787851294418 17 17 19
3.2933659312115973 -2.6120213223629962 -15.29240308622252 16 16 18
3.3227888503253658 -2.6265558408464145 -15.29168490947097 24 25 28
3.3747026639255786 -2.647648514499644 -15.255567907249327 32 33 37
3.3950966589653646 -2.6595078002080785 -15.268735336554144 43 44 49
3.375325037682603 -2.65967176177128 -15.345247479456312 38 40 45
3.3844151297171914 -2.668262432076044 -15.376416919296098 44 46 51
3.38498599516256 -2.674392404385536 -15.421174351932539 61 61 67
3.420972300629076 -2.6907880180637127 -15.409722225932569 76 74 79
3.4534827259718544 -2.7061576202834785 -15.40364535011338 55 52 55
3.4767620025138974 -2.7188488892384397 -15.4122000729 21 19 22
3.4979167141083822 -2.7309216458042105 -15.424106287881411 12 10 13
3.5052902874042884 -2.7390346536408643 -15.4581524003721 15 14 15
3.523472512724285 -2.7502541743574165 -15.47484054272213 34 34 38
3.5033817375337897 -2.7505349291115415 -15.55346163804031 28 29 33
3.4480081487558483 -2.740798455442219 -15.689689294270458 21 22 26
3.4905728137733343 -2.7651218265676287 -15.713891854471957 12 12 14
3.484357261585469 -2.769484085507248 -15.770947081912643 11 11 13
3.4879475346941717 -2.7766471967464508 -15.812121306034363 9 9 11
3.5605760074938484 -2.803305199709291 -15.739765422299715 7 7 9
3.4905495500891037 -2.7897338422128817 -15.902407000343713 6 6 8
3.5704175479967546 -2.824555731208032 -15.864996975016835 5 5 7
3.5797792931188805 -2.833373966560079 -15.896874629947579 25 25 27
3.579015384339992 -2.839376097420559 -15.945733885331531 53 52 57
3.5280145035195307 -2.8314125611325673 -16.078891062730698 22 20 25
3.5219350831402076 -2.8360138842939824 -16.137258377222757 12 12 14
3.6038159406427734 -2.8713117761780635 -16.095831009243884 39 39 41
3.706426044639352 -2.9059322770744997 -15.970315729003543 38 38 40
3.768816795329016 -2.9356188568419435 -15.960114180658683 43 43 45
3.7588172253229777 -2.9391467791569057 -16.02518496434569 46 46 48
3.79395849157563 -2.955049924469798 -16.0131790396768 62 61 61
3.8358346721918846 -2.972766714136266 -15.989422999514893 57 53 55
3.875420184783347 -2.9898281885303994 -15.969368932564159 96 92 92
3.888207482680717 -2.9995860603324767 -15.995401622130576 89 89 87
3.9023774577596786 -3.0097237332695936 -16.019079128256283 73 72 69
3.9284110053423236 -3.023069949253716 -16.022164442906234 70 67 64
3.8734597195159557 -3.0596904221350045 -16.511687826532953 120 115 112
3.8403398167562264 -3.077292395730219 -16.772510933549473 156 156 154
3.9839362837641623 -3.1214919968664554 -16.564325372590364 162 161 159
4.01531605114283 -3.149438055304657 -16.65883594739519 186 186 186
4.059251711337222 -3.167433125402338 -16.629371375504448 190 190 190
4.124409199041954 -3.1908670714335883 -16.560769371823902 196 196 196
4.125204027534049 -3.1976714517238882 -16.609837517647755 199 199 199
4.1438075781090555 -3.2157032442499616 -16.677075890557113 202 202 202
-3.3299917220726023 1.0130370566710827 -12.474551950955615 105 41 29
-3.263303241137499 0.9819331187177314 -12.459608138980954 106 42 30
-3.222264540656218 0.9609147543487886 -12.464664992122204 106 42 30
-3.1709444321828544 0.935880244758128 -12.46150338347713 106 43 28
-2.5885764200873194 0.6450459565531581 -12.47685544944703 111 40 26
-2.4880461529912283 0.6011750430822738 -12.431426239073229 111 39 25
-2.4662195446973447 0.5878405470331995 -12.45048002791756 110 38 24
-2.431499134048855 0.5695170139211272 -12.458866057677582 111 39 25
-2.4118252309743857 0.5570223417727163 -12.479648740077284 112 40 25
-2.402732089615294 0.5486169832709722 -12.509221392651739 112 39 23
-2.33866360683811 0.5189770478877036 -12.493027552782369 113 40 23
-1.8494901169140805 0.26754013636976914 -12.560151329214403 116 37 20
-1.7687085958925648 0.23180636889071415 -12.527298527357587 117 38 21
-1.7293817866747894 0.2119254335798879 -12.53016574957088 116 37 19
-1.6983954034545015 0.19523655777995153 -12.540200107291161 116 38 18
-1.6518730665652708 0.17263906351913816 -12.536600716593064 114 36 16
-1.5683683100606371 0.1359873710768147 -12.500464109723666 115 37 17
-1.5536307368696516 0.1255215871517379 -12.524428646956869 117 39 17
-1.5318875943758998 0.11239221092350693 -12.54223960882656 117 39 17
-1.5072705250315055 0.0981741358957362 -12.557495806188502 120 42 20
-1.4910548528024092 0.08714597351235698 -12.580164961810372 118 40 18
-1.4501846640917444 0.06677484173443471 -12.580943130738579 118 40 18
-1.4262035864275582 0.05281195007323225 -12.596656463644976 121 40 19
-1.3584199893118782 0.022284520318299084 -12.573213889641066 122 41 20
-1.3034877227574277 -0.003353980428232539 -12.561039094960616 122 41 20
-1.284426886525348 -0.01542381483979094 -12.580904790672388 122 41 20
-1.248467564141519 -0.033868403637789424 -12.585545844473604 122 41 20
-1.2092743582066507 -0.05352040327864982 -12.587178199991545 124 43 22
-1.1714546866903452 -0.07264138921997798 -12.589950388170433 126 44 23
-1.1351106908523816 -0.09119423742241262 -12.593965117348823 124 42 21
-1.0795548030948776 -0.1169577733405256 -12.580391819954059 122 40 19
-1.0543110482950802 -0.131310902206498 -12.59431402943552 120 38 17
-1.018919697488263 -0.14946756998339428 -12.598907649873908 120 38 17
-0.9926241157353859 -0.16420234450233817 -12.611767265717008 125 43 22
-0.9450721906493875 -0.18689462563173143 -12.60501149624664 123 41 20
-0.9089412166214101 -0.20529260727354393 -12.608652578114256 123 42 21
-0.8388968695155654 -0.23636016802431659 -12.580799450232401 123 42 21
-0.8532087078430362 -0.23587678665462342 -12.631007189312307 125 44 23
-0.8364202098518998 -0.24702403819864616 -12.652423926716384 123 42 21
-0.7183649067976052 -0.295937589961464 -12.579299524767478 126 45 24
-0.6851188706610003 -0.31318418431295614 -12.585060963115922 123 42 21
-0.6459473109207368 -0.3326261700066162 -12.585180620720404 121 40 19
-0.6371742439613817 -0.3407482093871548 -12.613807561608063 121 40 19
-0.618349524720581 -0.35261137919833097 -12.632993360635895 130 49 28
-0.5747202931109987 -0.37368198950376064 -12.628694732328547 137 56 35
-0.5517678173811058 -0.3870663349077801 -12.64388858442964 124 44 22
-0.591579626400069 -0.37719076119730843 -12.718796384354974 125 47 25
-0.4889711083362984 -0.4200777709301846 -12.658074914134826 126 48 28
-0.47387797158365963 -0.4305390761612804 -12.680666932719898 127 50 32
-0.5268332965725708 -0.415858575089346 -12.768580090221224 130 55 34
-0.3991264878007552 -0.46791870652774614 -12.68300775312732 144 73 56
-0.35136858123530157 -0.49041705785310574 -12.674004472137202 156 90 77
-0.3495109227175268 -0.49598248893358354 -12.709257677114898 159 97 85
-0.3451131250276971 -0.5024941193263306 -12.74213097088418 162 99 87
-0.2824967257729485 -0.5304249779315642 -12.71843015775432 152 80 61
-0.22417544991321492 -0.5616324680945826 -12.73577079801395 150 69 42
-0.20388773846256214 -0.578874677959651 -12.790280659091266 160 96 77
-0.10728132558830694 -0.6191471859420434 -12.732307855706566 160 94 79
-0.10211126568977136 -0.6259324534870871 -12.764351102554457 144 70 50
-0.17301635848774488 -0.6049393204392945 -12.871918021319399 128 48 26
-0.13015951422581384 -0.6255218215066187 -12.866821884775758 96 19 4
-0.0934423087811469 -0.6438481184992018 -12.867711946647477 88 17 4
-0.05688579971159058 -0.6621022106890604 -12.868658855057317 82 16 5
-0.16088686360298432 -0.6292049613750734 -13.010453384549587 72 14 5
-0.10118392504838436 -0.655895486781056 -12.988305126826095 65 14 6
-0.0592594479931039 -0.6761003307243607 -12.983852153202465 62 27 20
-0.13455821354400577 -0.6790015878417441 -13.289337906053085 7 5 8
-0.04820366211417859 -0.7152209684240729 -13.239191609959121 11 10 13
-0.03414191861843552 -0.7253532761167483 -13.26316894352863 22 22 24
-0.03945855005114307 -0.7285165344382021 -13.307195271474564 9 9 11
-0.02984802161160527 -0.7370620514096959 -13.335884139184042 15 15 16
-0.013193850695667031 -0.7481427079378782 -13.357301038782635 14 12 12
-0.008934925346129496 -0.7547787251248819 -13.391641320424803 24 22 21
-0.005746696886673064 -0.7610414541872887 -13.427178672492222 42 38 37
-0.012643397887954322 -0.7637059301750289 -13.473366999713967 71 67 65
