ply
format ascii 1.0
element vertex 844
property float x
property float y
property float z
property float nx
property float ny
property float nz
property uchar diffuse_red
property uchar diffuse_green
property uchar diffuse_blue
property uchar class
property uchar detection
end_header
1.5606 0.1065 -13.6965 0.732 -0.043 0.680 125 47 28 0 0
2.0941 0.0277 -13.7772 0.830 -0.120 0.545 147 68 46 0 0
2.1114 0.0232 -13.7997 0.758 -0.168 0.630 150 67 44 0 0
2.1352 0.0185 -13.8148 0.532 0.276 0.800 154 73 47 0 0
2.9947 -0.2472 -15.3465 0.630 0.776 0.016 52 22 19 0 0
3.1143 -0.2898 -15.6157 -0.045 -0.622 0.782 9 6 7 0 0
3.9388 -0.3366 -14.9830 -0.236 0.510 0.827 108 49 31 0 0
4.7407 -0.4425 -14.9772 0.585 -0.262 0.768 103 57 44 0 0
5.2407 -0.6007 -15.9050 0.888 -0.423 -0.179 95 74 69 0 0
5.2060 -0.6653 -16.6039 -0.277 0.503 0.819 141 134 131 0 0
-0.8447 0.5056 -12.5846 0.289 -0.068 0.955 122 40 18 0 0
-0.8144 0.5003 -12.5975 0.331 -0.260 0.907 121 40 18 0 0
-0.2558 0.4248 -12.6167 0.568 -0.256 0.782 125 44 20 0 0
0.6574 0.2068 -13.5929 -0.320 0.529 0.786 13 7 9 0 0
1.4743 0.0886 -13.6991 0.730 -0.031 0.683 124 45 29 0 0
1.9818 0.0188 -13.7284 0.329 0.141 0.934 139 57 29 0 0
3.0166 -0.2757 -15.3087 0.792 0.607 -0.065 57 16 12 0 0
2.9788 -0.2805 -15.4072 0.816 0.548 -0.185 51 21 19 0 0
3.0659 -0.3090 -15.5770 0.200 0.419 0.886 10 8 10 0 0
4.9952 -0.5647 -15.5922 0.340 0.849 0.404 75 22 12 0 0
5.2106 -0.6925 -16.5857 -0.277 0.503 0.819 143 136 133 0 0
5.2502 -0.6961 -16.5698 -0.275 0.575 0.771 151 145 145 0 0
5.2375 -0.7022 -16.6471 0.582 0.531 0.616 158 152 152 0 0
-3.2086 0.7967 -12.4610 0.168 -0.062 0.984 102 44 32 0 0
-0.8724 0.4810 -12.5634 0.205 0.273 0.940 125 43 22 0 0
-0.8472 0.4760 -12.5807 0.186 0.224 0.957 123 41 20 0 0
-0.4104 0.4216 -12.5532 0.698 -0.468 0.542 129 47 25 0 0
-0.2668 0.3961 -12.6203 0.446 -0.321 0.835 124 41 17 0 0
1.9748 -0.0091 -13.7292 0.379 -0.046 0.924 140 55 28 0 0
3.0412 -0.3040 -15.2674 0.882 0.458 -0.108 54 12 9 0 0
2.9827 -0.3139 -15.4415 0.936 0.143 -0.323 48 20 16 0 0
4.7104 -0.4862 -14.9116 0.553 -0.033 0.833 109 66 57 0 0
4.7870 -0.5035 -14.9841 0.567 -0.291 0.771 96 41 26 0 0
4.9054 -0.5246 -15.0392 0.747 0.138 0.651 90 31 15 0 0
4.9531 -0.5877 -15.6017 -0.138 0.743 0.655 74 24 10 0 0
5.0453 -0.5946 -15.5511 0.891 -0.406 -0.205 72 25 15 0 0
5.2195 -0.6445 -15.8189 0.962 -0.269 -0.057 89 68 65 0 0
5.2383 -0.7240 -16.5809 -0.160 0.230 0.960 151 147 145 0 0
5.2523 -0.7399 -16.7203 0.352 0.709 0.611 168 164 163 0 0
-3.2216 0.7654 -12.4646 0.192 -0.107 0.976 102 45 34 0 0
-2.3373 0.6589 -12.3852 0.355 -0.310 0.882 114 47 30 0 0
-2.2482 0.6425 -12.4323 0.307 -0.174 0.936 113 46 29 0 0
2.8053 -0.1803 -14.0708 0.617 0.186 0.765 152 85 57 0 0
2.8751 -0.2028 -14.2020 0.477 0.425 0.769 107 62 48 0 0
4.2867 -0.4548 -14.8772 0.078 -0.392 0.917 118 71 61 0 0
5.0081 -0.6329 -15.7041 0.841 -0.525 -0.132 79 40 32 0 0
5.2117 -0.6714 -15.8227 0.977 -0.210 -0.030 90 70 67 0 0
5.1534 -0.7613 -16.7771 -0.177 0.471 0.864 159 155 154 0 0
5.7283 -0.8188 -16.6098 0.906 0.294 0.304 208 208 208 0 0
-2.3408 0.6240 -12.4204 0.219 -0.375 0.901 114 49 31 0 0
0.0926 0.2887 -12.6351 0.497 0.006 0.868 134 60 42 0 0
0.1170 0.2839 -12.6517 0.752 -0.094 0.653 147 79 65 0 0
0.4209 0.2215 -12.8776 0.391 -0.243 0.888 125 49 22 0 0
0.4673 0.1915 -13.1104 0.852 -0.123 0.509 44 15 9 0 0
0.6596 0.1150 -13.6118 -0.040 0.238 0.970 12 6 8 0 0
1.1542 0.0481 -13.6432 0.817 0.228 0.529 138 88 60 0 0
1.1695 0.0435 -13.6687 0.829 -0.096 0.551 128 79 61 0 0
1.1849 0.0389 -13.6941 0.919 0.013 0.395 122 63 45 0 0
1.4748 0.0033 -13.6780 0.581 -0.181 0.794 133 48 30 0 0
2.0462 -0.0745 -13.7191 0.533 0.035 0.846 143 61 36 0 0
2.0764 -0.0792 -13.7270 0.451 0.005 0.893 144 62 37 0 0
2.1360 -0.0929 -13.7856 0.665 0.398 0.632 162 77 51 0 0
2.1618 -0.1019 -13.8405 0.246 -0.023 0.969 158 76 51 0 0
4.7694 -0.5565 -14.9941 0.688 -0.121 0.716 93 44 28 0 0
4.9949 -0.6445 -15.5653 0.828 -0.545 0.127 75 30 16 0 0
5.1922 -0.7642 -16.4796 -0.424 0.279 0.862 131 125 121 0 0
5.2402 -0.7672 -16.4489 -0.348 0.213 0.913 139 134 130 0 0
5.1721 -0.7878 -16.7334 -0.173 0.170 0.970 160 156 155 0 0
5.2962 -0.8035 -16.7310 -0.091 0.493 0.865 174 173 171 0 0
5.6911 -0.8365 -16.5583 0.990 -0.086 0.115 206 206 206 0 0
5.7232 -0.8459 -16.6090 0.979 0.084 0.186 208 208 208 0 0
-2.9520 0.6593 -12.5266 -0.227 -0.365 0.903 104 45 31 0 0
-0.2856 0.3053 -12.6572 0.482 -0.068 0.874 128 45 23 0 0
-0.0551 0.2771 -12.6459 0.589 -0.306 0.748 136 56 32 0 0
1.1196 0.0287 -13.5896 0.604 -0.187 0.775 161 107 77 0 0
2.0722 -0.1070 -13.7248 0.451 0.005 0.893 142 58 29 0 0
2.0961 -0.1160 -13.7816 0.465 0.204 0.862 148 67 39 0 0
2.7014 -0.2125 -13.9668 0.842 -0.393 0.370 139 74 52 0 0
2.7315 -0.2171 -13.9735 0.534 -0.651 0.540 146 81 61 0 0
2.7422 -0.2216 -14.0034 0.541 -0.611 0.578 151 91 60 0 0
3.1502 -0.3925 -15.1433 0.656 0.742 0.137 49 14 6 0 0
3.1162 -0.3978 -15.2361 0.958 0.038 -0.283 46 11 3 0 0
4.6564 -0.5566 -14.8738 0.199 -0.820 0.537 110 65 56 0 0
4.8703 -0.6092 -15.1164 0.906 0.336 0.259 97 39 19 0 0
4.9357 -0.6220 -15.1584 0.636 -0.089 0.766 81 27 10 0 0
5.0748 -0.7044 -15.7784 0.749 -0.586 -0.310 82 53 45 0 0
5.0837 -0.7582 -16.2841 0.364 -0.842 0.400 83 69 63 0 0
5.2438 -0.7941 -16.4327 -0.326 0.253 0.911 143 139 135 0 0
5.2068 -0.8076 -16.6068 -0.243 0.506 0.827 154 153 150 0 0
5.1488 -0.8167 -16.7649 0.302 -0.263 0.916 161 158 157 0 0
5.1791 -0.8206 -16.7659 0.730 -0.333 0.597 166 162 161 0 0
5.4183 -0.8349 -16.6098 0.792 -0.073 0.606 180 179 177 0 0
-3.1344 0.6609 -12.4223 -0.026 -0.476 0.879 98 48 38 0 0
-2.5739 0.5890 -12.4315 0.778 -0.574 0.254 110 44 32 0 0
-2.3538 0.5625 -12.4187 0.450 -0.150 0.880 111 45 29 0 0
-2.3281 0.5572 -12.4375 0.535 -0.157 0.830 112 46 30 0 0
-2.2882 0.5513 -12.4455 0.428 -0.079 0.901 112 45 29 0 0
0.4673 0.1504 -12.9391 0.584 -0.105 0.805 84 17 4 0 0
0.4049 0.0752 -13.7288 -0.478 0.055 0.877 13 7 7 0 0
1.1357 -0.0089 -13.6489 0.593 -0.287 0.753 133 78 60 0 0
2.8292 -0.2579 -13.9766 0.925 0.060 0.374 138 84 45 0 0
2.8252 -0.2624 -14.0244 0.725 0.417 0.549 119 68 31 0 0
2.8628 -0.2714 -14.0647 0.375 0.272 0.886 154 91 62 0 0
3.1011 -0.4513 -15.4865 0.575 0.790 0.214 49 32 28 0 0
4.8753 -0.6353 -15.0999 0.906 0.336 0.259 91 34 16 0 0
4.9745 -0.6568 -15.1851 0.889 -0.275 0.365 82 29 15 0 0
4.9870 -0.6614 -15.2139 0.965 -0.150 0.214 80 27 13 0 0
4.9944 -0.6662 -15.2508 0.965 -0.150 0.214 77 23 11 0 0
4.9416 -0.6894 -15.5340 0.742 -0.658 0.126 73 25 15 0 0
4.9446 -0.6945 -15.5791 0.742 -0.658 0.126 74 26 15 0 0
4.9255 -0.7275 -15.9151 0.712 -0.676 -0.188 81 49 39 0 0
5.2158 -0.8286 -16.5263 -0.304 0.409 0.860 151 147 144 0 0
5.1537 -0.8381 -16.6909 -0.220 0.587 0.779 156 154 151 0 0
5.4135 -0.8623 -16.6082 0.808 -0.079 0.584 182 181 179 0 0
-3.1662 0.6306 -12.4397 -0.070 -0.531 0.844 97 49 41 0 0
-3.1301 0.6247 -12.4521 0.033 -0.505 0.862 98 47 37 0 0
-2.3910 0.5372 -12.4027 0.426 -0.159 0.891 111 45 30 0 0
-2.3305 0.5263 -12.4335 0.426 -0.159 0.891 111 45 29 0 0
0.1125 0.1937 -12.6760 0.688 -0.405 0.603 149 80 65 0 0
1.2570 -0.0659 -13.7643 0.768 -0.302 0.564 153 94 70 0 0
1.5513 -0.0960 -13.6999 0.281 0.212 0.936 180 109 80 0 0
2.8685 -0.2987 -14.0503 0.634 0.538 0.555 148 91 60 0 0
2.9956 -0.3442 -14.3284 0.837 0.510 0.198 116 70 55 0 0
3.1349 -0.4095 -14.7773 0.755 0.616 0.224 77 36 20 0 0
3.1476 -0.4141 -14.8062 0.836 0.532 0.135 70 25 11 0 0
3.2050 -0.4981 -15.5276 0.530 -0.759 0.378 11 3 4 0 0
3.2178 -0.5029 -15.5582 0.523 -0.804 0.281 8 3 4 0 0
3.2225 -0.5080 -15.6001 0.545 -0.779 0.312 4 4 3 0 0
4.9678 -0.6781 -15.1384 0.879 0.280 0.386 81 25 13 0 0
4.9926 -0.8063 -16.3148 0.169 -0.972 0.166 84 71 65 0 0
5.1712 -0.8761 -16.7595 -0.203 -0.224 0.953 168 164 163 0 0
5.2057 -0.8797 -16.7530 -0.203 -0.224 0.953 172 168 167 0 0
-0.4680 0.2441 -12.6053 0.211 -0.301 0.930 133 51 29 0 0
0.4446 0.0155 -13.6758 0.412 0.541 0.733 8 7 5 0 0
1.2469 -0.0944 -13.7681 0.887 -0.105 0.449 143 84 59 0 0
3.1650 -0.5222 -15.5262 0.550 -0.590 0.591 78 58 55 0 0
3.1728 -0.5272 -15.5638 0.586 -0.684 0.434 69 52 49 0 0
3.1840 -0.5321 -15.5966 0.749 -0.585 0.310 56 42 40 0 0
4.1372 -0.5825 -14.9597 -0.423 -0.490 0.762 74 41 36 0 0
4.5574 -0.6288 -14.9037 0.614 -0.051 0.788 112 65 50 0 0
4.5793 -0.6330 -14.9178 0.536 -0.150 0.831 110 62 48 0 0
4.9455 -0.7052 -15.1651 0.452 -0.202 0.869 81 24 13 0 0
4.9346 -0.7589 -15.6778 0.492 0.731 0.472 79 42 33 0 0
5.1656 -0.9039 -16.7593 -0.230 -0.020 0.973 168 164 163 0 0
5.1952 -0.9078 -16.7615 -0.367 0.008 0.930 173 169 168 0 0
-0.5055 0.2201 -12.5933 0.248 -0.041 0.968 125 43 21 0 0
-0.4713 0.2149 -12.6022 0.287 -0.056 0.956 121 39 17 0 0
-0.4383 0.2098 -12.6121 0.207 0.015 0.978 120 38 16 0 0
3.2050 -0.5288 -15.2718 0.723 0.689 -0.052 80 50 45 0 0
3.1796 -0.5659 -15.6428 0.966 -0.134 0.220 75 55 53 0 0
4.5875 -0.6641 -14.9444 0.476 0.082 0.876 105 55 42 0 0
4.8433 -0.8016 -15.9203 0.795 -0.573 -0.199 80 47 38 0 0
4.9254 -0.8824 -16.5712 -0.108 -0.325 0.939 101 93 88 0 0
4.9874 -0.8842 -16.5180 0.119 -0.611 0.782 106 98 95 0 0
5.5328 -0.9824 -16.8014 0.390 0.099 0.916 207 207 207 0 0
-3.5151 0.5585 -12.5978 -0.209 -0.476 0.854 204 205 204 0 0
-2.9628 0.5009 -12.5053 -0.245 0.086 0.966 101 46 35 0 0
-0.4728 0.1857 -12.5975 0.236 -0.146 0.961 126 44 22 0 0
0.3535 -0.0330 -13.6698 -0.347 -0.045 0.937 11 8 7 0 0
0.4856 -0.0439 -13.6216 0.420 0.451 0.787 9 8 6 0 0
1.2535 -0.1517 -13.7473 0.563 0.041 0.825 119 66 44 0 0
1.9516 -0.2366 -13.7411 0.170 -0.096 0.981 143 57 32 0 0
4.5472 -0.6870 -14.9494 0.487 0.021 0.873 108 60 45 0 0
4.5911 -0.6955 -14.9779 0.632 -0.039 0.774 101 48 33 0 0
4.8653 -0.7832 -15.4718 0.929 -0.047 0.367 77 25 14 0 0
4.8871 -0.7874 -15.4863 0.974 -0.202 0.102 76 24 13 0 0
-3.4895 0.5207 -12.6126 -0.209 -0.476 0.854 207 207 209 0 0
-0.4483 0.1516 -12.6087 0.236 -0.146 0.961 127 45 23 0 0
0.4094 0.0170 -12.8836 0.634 -0.341 0.694 91 18 4 0 0
1.8375 -0.2554 -13.7772 0.609 -0.355 0.709 138 56 32 0 0
3.2372 -0.5378 -14.7933 0.903 0.388 0.185 100 51 26 0 0
3.2390 -0.5428 -14.8367 0.944 0.307 0.124 110 56 33 0 0
3.1915 -0.6386 -15.7554 0.978 -0.138 0.159 64 44 38 0 0
3.2079 -0.6435 -15.7815 0.936 0.114 0.334 51 31 28 0 0
4.5384 -0.7137 -14.9542 0.612 0.124 0.781 111 59 46 0 0
4.5709 -0.7175 -14.9526 0.158 -0.005 0.987 107 55 41 0 0
4.8443 -0.7944 -15.3483 0.757 -0.653 0.014 78 24 12 0 0
4.8575 -0.8266 -15.6249 0.797 -0.573 -0.191 77 33 23 0 0
-0.5423 0.1375 -12.5685 0.134 0.046 0.990 122 40 18 0 0
-0.4486 0.1224 -12.6029 0.341 -0.012 0.940 124 42 20 0 0
0.4790 -0.1070 -13.6560 0.057 0.528 0.848 6 4 3 0 0
0.9145 -0.1519 -13.5885 0.830 -0.370 0.417 159 101 76 0 0
3.2406 -0.5601 -14.7352 0.892 0.420 0.169 127 85 55 0 0
3.2537 -0.5649 -14.7634 0.876 0.329 0.351 114 66 33 0 0
4.7963 -0.8236 -15.4158 0.981 0.011 -0.194 78 25 12 0 0
4.8227 -0.8386 -15.5222 0.487 -0.690 0.535 74 24 13 0 0
-0.4727 0.0980 -12.5793 0.449 0.417 0.790 123 41 19 0 0
-0.4469 0.0888 -12.6339 0.600 -0.007 0.800 127 45 23 0 0
-0.4217 0.0839 -12.6505 0.459 -0.046 0.887 126 44 22 0 0
1.8879 -0.3205 -13.7911 0.553 -0.171 0.815 136 61 39 0 0
2.0200 -0.3291 -13.7274 0.135 0.331 0.934 145 63 42 0 0
3.0588 -0.4776 -13.9440 0.807 0.551 0.214 136 87 57 0 0
3.0715 -0.4822 -13.9712 0.793 0.548 0.266 134 81 52 0 0
4.8399 -0.8585 -15.4360 0.762 -0.634 -0.129 77 25 12 0 0
4.9530 -0.8795 -15.5019 0.897 -0.246 0.367 81 41 34 0 0
5.0924 -0.9099 -15.6241 0.555 0.213 0.804 85 57 53 0 0
5.6597 -1.0915 -16.6347 0.182 -0.551 0.814 209 209 209 0 0
-0.5864 0.0799 -12.5944 0.171 -0.351 0.920 126 44 22 0 0
-0.2136 0.0289 -12.6547 0.343 -0.039 0.938 126 44 22 0 0
0.0367 -0.0061 -12.7016 0.003 -0.758 0.652 140 76 61 0 0
0.8102 -0.2092 -13.6816 0.645 0.018 0.764 158 96 65 0 0
0.8578 -0.2187 -13.7159 0.555 -0.210 0.805 109 55 32 0 0
2.0073 -0.3570 -13.7346 0.629 -0.427 0.649 130 53 30 0 0
3.0845 -0.5088 -13.9478 0.679 0.564 0.470 133 82 51 0 0
3.0991 -0.5134 -13.9726 0.722 0.584 0.370 146 91 62 0 0
3.1137 -0.5179 -13.9974 0.572 0.716 0.401 154 91 63 0 0
4.7661 -0.8896 -15.5450 0.923 -0.374 0.090 78 26 13 0 0
4.7739 -0.8948 -15.5823 0.780 -0.016 0.626 78 27 15 0 0
4.9178 -0.9025 -15.5002 0.403 0.319 0.858 79 42 31 0 0
-0.8210 0.0817 -12.5576 0.633 0.228 0.740 121 39 18 0 0
0.4478 -0.1340 -13.1383 0.658 0.016 0.753 6 4 5 0 0
3.0676 -0.5263 -13.8759 0.926 0.366 0.085 153 81 59 0 0
3.0832 -0.5357 -13.9421 0.504 0.386 0.773 162 104 70 0 0
3.1565 -0.5937 -14.3723 0.847 0.258 0.465 111 65 49 0 0
3.1703 -0.5983 -14.3989 0.720 0.383 0.579 111 63 49 0 0
4.9359 -0.9798 -15.9164 0.919 0.394 -0.005 94 72 66 0 0
5.4384 -1.1214 -16.6360 0.663 -0.016 0.749 201 201 201 0 0
-0.2974 -0.0234 -12.6779 0.420 -0.206 0.884 127 45 21 0 0
-0.2784 -0.0327 -12.7386 0.760 0.234 0.606 132 51 26 0 0
0.3994 -0.1671 -13.2184 0.970 -0.241 -0.039 29 24 23 0 0
0.3934 -0.1718 -13.2643 0.098 0.127 0.987 25 20 20 0 0
0.7739 -0.2623 -13.6635 0.692 0.268 0.670 155 90 62 0 0
0.8435 -0.2766 -13.7169 0.463 -0.135 0.876 117 59 41 0 0
3.0864 -0.5624 -13.9308 0.504 0.386 0.773 157 89 60 0 0
3.1358 -0.5710 -13.9551 0.713 0.521 0.470 126 73 42 0 0
3.1902 -0.5944 -14.1027 0.672 0.268 0.690 116 49 23 0 0
4.6113 -0.8793 -15.1344 -0.409 -0.801 0.438 100 40 27 0 0
4.9464 -0.9822 -15.6860 0.909 0.341 0.239 86 56 49 0 0
4.9532 -0.9876 -15.7255 0.902 0.362 0.235 87 59 50 0 0
4.9438 -1.0120 -15.9453 0.974 0.129 -0.185 100 82 76 0 0
4.8613 -1.0303 -16.1869 0.953 -0.040 -0.301 109 98 98 0 0
4.7980 -1.0848 -16.7208 0.637 -0.452 0.625 140 139 137 0 0
4.8180 -1.0895 -16.7409 0.443 -0.054 0.895 145 144 142 0 0
4.7868 -1.0984 -16.8493 0.424 -0.525 0.738 151 149 147 0 0
5.0003 -1.1056 -16.6966 0.231 -0.410 0.882 166 165 163 0 0
5.2033 -1.1320 -16.7207 0.055 0.178 0.983 187 186 184 0 0
0.2890 -0.1308 -12.7631 0.464 -0.685 0.562 133 58 33 0 0
0.2502 -0.1442 -12.9162 0.640 -0.284 0.714 90 17 2 0 0
0.3915 -0.2007 -13.2597 -0.050 0.444 0.894 26 20 19 0 0
0.3578 -0.2387 -13.6186 0.003 -0.628 0.778 12 6 9 0 0
0.3730 -0.2436 -13.6449 0.103 -0.527 0.844 9 4 4 0 0
0.7985 -0.2960 -13.6731 0.519 -0.298 0.801 140 100 71 0 0
0.9813 -0.3242 -13.7344 0.396 -0.111 0.912 118 49 31 0 0
1.0244 -0.3288 -13.7312 0.625 -0.273 0.732 154 90 70 0 0
2.6699 -0.5306 -13.8328 0.653 -0.626 0.428 166 99 86 0 0
3.1765 -0.6166 -14.0692 0.824 0.270 0.498 146 71 40 0 0
3.5531 -0.8199 -15.4370 0.118 0.443 0.889 118 43 7 0 0
3.6736 -0.8363 -15.4579 0.223 -0.106 0.969 133 57 20 0 0
4.8671 -1.0448 -16.0636 0.958 -0.110 -0.265 101 86 81 0 0
4.9219 -1.0465 -16.0240 0.972 0.068 -0.223 105 96 93 0 0
4.8838 -1.0679 -16.2444 0.728 0.666 -0.166 124 122 121 0 0
4.7611 -1.1220 -16.8288 0.034 -0.250 0.968 149 148 146 0 0
5.0301 -1.1431 -16.7435 0.453 -0.288 0.844 176 175 173 0 0
-2.0859 0.1439 -12.4883 0.149 0.546 0.825 108 40 27 0 0
0.2251 -0.1682 -12.8941 0.563 0.215 0.798 99 21 6 0 0
0.2524 -0.1730 -12.9080 0.865 -0.040 0.500 87 17 4 0 0
0.2501 -0.2634 -13.6765 0.446 -0.326 0.834 10 4 6 0 0
0.8148 -0.3297 -13.6912 0.545 -0.102 0.832 113 58 40 0 0
1.3518 -0.3790 -13.5887 0.595 -0.470 0.652 116 39 15 0 0
1.3960 -0.3883 -13.6246 0.740 -0.105 0.665 154 87 66 0 0
2.0861 -0.4862 -13.7855 0.773 0.559 0.302 154 82 64 0 0
3.0925 -0.6208 -13.9514 0.836 -0.194 0.513 149 76 46 0 0
3.1548 -0.6340 -14.0027 0.603 -0.169 0.780 122 71 38 0 0
3.2006 -0.6477 -14.0746 0.254 0.311 0.916 147 77 44 0 0
3.3684 -0.7300 -14.6094 0.834 0.535 0.136 52 10 4 0 0
3.3757 -0.7350 -14.6450 0.792 0.574 0.208 56 11 3 0 0
4.8875 -1.0640 -15.9686 0.976 0.055 -0.209 96 84 81 0 0
4.8926 -1.0942 -16.2201 0.948 0.227 -0.222 126 125 123 0 0
4.7482 -1.1381 -16.7321 -0.006 0.033 0.999 143 142 140 0 0
4.7834 -1.1414 -16.7260 -0.198 0.169 0.965 147 146 144 0 0
4.8276 -1.1439 -16.7043 -0.208 0.310 0.928 152 151 149 0 0
4.8093 -1.1519 -16.7903 0.017 -0.286 0.958 158 156 157 0 0
0.7875 -0.3538 -13.6708 0.655 -0.002 0.756 116 73 50 0 0
0.8038 -0.3587 -13.6956 0.539 0.095 0.837 121 62 46 0 0
1.3721 -0.4119 -13.6017 0.631 -0.383 0.675 136 68 47 0 0
1.3908 -0.4166 -13.6233 0.740 -0.105 0.665 148 82 57 0 0
1.4095 -0.4212 -13.6448 0.740 -0.105 0.665 144 92 63 0 0
1.6583 -0.4522 -13.6678 0.449 -0.103 0.888 122 50 31 0 0
1.7110 -0.4612 -13.6936 0.382 -0.060 0.922 149 74 34 0 0
2.3667 -0.5425 -13.7520 0.924 0.005 0.382 166 81 52 0 0
2.4540 -0.5554 -13.7769 0.266 -0.213 0.940 155 69 40 0 0
4.9000 -1.0897 -15.9384 0.973 -0.068 -0.221 100 98 96 0 0
4.8702 -1.0984 -16.0396 0.951 -0.147 -0.272 103 102 103 0 0
4.8382 -1.1073 -16.1448 0.954 0.020 -0.298 109 109 111 0 0
4.7522 -1.1654 -16.7152 0.124 0.134 0.983 145 144 143 0 0
4.7853 -1.1689 -16.7128 -0.026 0.239 0.971 150 149 148 0 0
7.4943 -1.4779 -16.7292 0.304 0.296 0.905 217 217 217 0 0
0.2405 -0.2304 -12.9065 0.828 -0.139 0.544 75 14 3 0 0
0.2324 -0.2398 -12.9928 0.835 -0.444 0.326 62 26 19 0 0
0.2887 -0.2493 -13.0190 0.512 -0.664 0.545 12 3 4 0 0
0.4823 -0.3407 -13.5991 0.269 -0.330 0.905 66 28 17 0 0
0.8017 -0.3876 -13.6910 0.539 0.095 0.837 110 53 34 0 0
2.1783 -0.5544 -13.7929 0.824 -0.331 0.460 152 78 57 0 0
2.3648 -0.5699 -13.7471 0.924 0.005 0.382 149 65 38 0 0
2.4029 -0.5789 -13.7871 0.785 -0.135 0.604 162 75 50 0 0
4.6386 -1.0292 -15.4460 0.038 -0.952 0.304 13 3 4 0 0
4.6664 -1.0329 -15.4515 0.179 -0.961 0.209 14 4 5 0 0
4.8697 -1.1253 -16.0309 0.945 -0.210 -0.252 102 100 101 0 0
4.7800 -1.2035 -16.7664 0.693 0.233 0.682 157 155 156 0 0
4.9700 -1.2246 -16.7641 -0.384 0.142 0.912 179 178 176 0 0
7.4503 -1.4954 -16.6995 0.024 -0.130 0.991 217 217 217 0 0
7.4715 -1.4991 -16.7104 0.246 0.117 0.962 217 217 217 0 0
7.4973 -1.5020 -16.7104 0.198 -0.153 0.968 217 217 217 0 0
-0.5445 -0.1438 -12.6702 0.419 -0.227 0.879 120 39 17 0 0
0.2862 -0.3070 -13.2544 0.227 -0.584 0.779 28 22 22 0 0
0.3008 -0.3118 -13.2806 0.327 -0.385 0.863 29 23 23 0 0
0.4834 -0.3748 -13.6326 0.700 -0.592 0.400 151 74 40 0 0
0.7866 -0.4116 -13.6582 0.723 -0.041 0.690 106 56 40 0 0
1.0570 -0.4381 -13.6287 0.512 -0.384 0.768 148 85 52 0 0
1.0838 -0.4428 -13.6423 0.608 -0.304 0.734 151 98 64 0 0
3.2269 -0.7269 -14.0192 0.378 0.516 0.769 125 71 38 0 0
3.5456 -0.9024 -15.1754 0.525 0.824 0.212 55 11 5 0 0
3.6841 -0.9577 -15.5053 -0.146 -0.179 0.973 155 111 103 0 0
4.9127 -1.2512 -16.7994 0.296 -0.680 0.671 178 177 176 0 0
4.9358 -1.2555 -16.8139 0.296 -0.680 0.671 181 180 178 0 0
7.4295 -1.5163 -16.6759 0.135 -0.215 0.967 217 217 217 0 0
7.4507 -1.5200 -16.6867 0.439 -0.261 0.860 214 214 214 0 0
7.4706 -1.5239 -16.7006 0.369 -0.314 0.875 214 214 214 0 0
7.4924 -1.5275 -16.7102 0.439 -0.261 0.860 215 215 215 0 0
-0.3088 -0.2070 -12.7288 0.968 -0.034 0.250 125 40 19 0 0
1.0452 -0.4669 -13.6342 0.332 -0.488 0.807 144 82 49 0 0
2.1686 -0.6046 -13.7479 0.472 -0.064 0.879 168 105 80 0 0
2.4597 -0.6369 -13.7491 0.608 0.068 0.791 145 61 35 0 0
3.2600 -0.7574 -14.0131 0.427 0.498 0.755 122 71 38 0 0
3.6177 -0.9084 -14.9267 0.692 0.709 0.138 56 11 4 0 0
3.9160 -0.9993 -15.4019 0.657 -0.236 0.716 196 170 169 0 0
3.9170 -1.0052 -15.4488 0.895 0.137 0.425 171 142 130 0 0
3.9300 -1.0102 -15.4783 0.901 0.156 0.406 129 92 67 0 0
4.7783 -1.2656 -16.8038 0.964 0.071 0.256 167 165 166 0 0
4.8380 -1.2796 -16.8646 -0.021 -0.256 0.966 176 176 176 0 0
4.8576 -1.2843 -16.8854 0.537 -0.767 0.352 178 178 177 0 0
7.4903 -1.5524 -16.7033 0.208 -0.082 0.975 211 211 211 0 0
7.5129 -1.5558 -16.7109 0.408 -0.043 0.912 211 211 211 0 0
7.5587 -1.5625 -16.7244 0.290 0.000 0.957 217 217 217 0 0
-1.7761 -0.0464 -12.4848 0.784 0.484 0.388 112 41 26 0 0
-1.6454 -0.0716 -12.5730 0.577 -0.409 0.707 116 40 23 0 0
0.8086 -0.4689 -13.6223 0.705 -0.428 0.566 117 51 30 0 0
1.0399 -0.4955 -13.6329 0.420 -0.272 0.866 143 89 55 0 0
2.3497 -0.6574 -13.7854 0.409 -0.092 0.908 148 71 48 0 0
3.2142 -0.7861 -14.0636 0.410 0.746 0.525 137 86 50 0 0
3.3268 -0.7968 -14.0507 0.477 0.633 0.610 150 85 52 0 0
3.6105 -0.9302 -14.8822 0.729 0.589 0.349 54 9 3 0 0
3.6254 -0.9350 -14.9079 0.944 0.116 0.309 57 10 4 0 0
3.5046 -0.9598 -15.2161 0.650 0.345 0.677 56 10 4 0 0
3.9128 -1.0268 -15.3981 0.728 -0.049 0.684 198 182 188 0 0
3.9977 -1.0506 -15.5157 0.535 0.445 0.718 63 23 7 0 0
4.7551 -1.2822 -16.7247 0.771 0.395 0.500 161 159 162 0 0
4.7916 -1.2919 -16.7707 0.783 0.100 0.614 168 166 169 0 0
4.8783 -1.3098 -16.8393 0.147 -0.271 0.951 180 180 179 0 0
4.9058 -1.3137 -16.8461 0.211 -0.151 0.966 182 182 182 0 0
7.4218 -1.5669 -16.6705 0.669 -0.533 0.519 217 217 217 0 0
7.4351 -1.5720 -16.6995 0.091 -0.355 0.930 216 216 216 0 0
-1.0253 -0.1776 -12.6370 0.587 -0.244 0.772 119 41 21 0 0
-0.9643 -0.1875 -12.6631 0.445 0.053 0.894 118 40 20 0 0
0.1194 -0.3361 -12.9151 0.552 -0.359 0.753 87 16 4 0 0
0.5594 -0.4712 -13.6192 0.381 0.101 0.919 115 45 26 0 0
0.7947 -0.4979 -13.6297 0.469 -0.219 0.856 118 54 25 0 0
2.3449 -0.6849 -13.7838 0.381 -0.050 0.923 154 79 61 0 0
3.2713 -0.8154 -14.0272 0.242 -0.319 0.916 137 85 43 0 0
3.3543 -0.8274 -14.0514 0.298 0.160 0.941 152 86 55 0 0
3.3652 -0.8322 -14.0807 0.860 0.239 0.451 137 67 37 0 0
3.4952 -0.8853 -14.3949 0.845 0.389 0.367 115 63 45 0 0
3.6225 -0.9565 -14.8575 0.670 0.627 0.398 53 8 2 0 0
3.6021 -0.9694 -14.9784 1.000 -0.004 -0.021 58 11 5 0 0
3.5558 -0.9898 -15.1836 0.908 0.264 0.326 55 10 6 0 0
3.9086 -1.0543 -15.3956 0.728 -0.049 0.684 174 154 155 0 0
4.0113 -1.0768 -15.4868 0.453 0.283 0.845 108 67 39 0 0
4.2735 -1.1170 -15.5819 0.628 0.344 0.698 12 4 5 0 0
4.3675 -1.1338 -15.6351 0.403 0.263 0.876 71 69 72 0 0
4.7906 -1.3196 -16.7625 0.828 0.143 0.543 170 168 171 0 0
4.8153 -1.3374 -16.8838 0.390 0.072 0.918 178 178 176 0 0
7.4109 -1.5935 -16.6838 0.669 -0.533 0.519 216 216 216 0 0
7.4341 -1.5968 -16.6902 0.165 -0.112 0.980 217 217 217 0 0
-1.6465 -0.1369 -12.6006 0.404 -0.470 0.785 111 38 23 0 0
0.1144 -0.3649 -12.9134 0.597 -0.005 0.802 84 16 7 0 0
0.1946 -0.4038 -13.1553 0.513 -0.397 0.761 9 7 9 0 0
0.2506 -0.4537 -13.5059 0.173 -0.364 0.915 11 5 5 0 0
0.2808 -0.4584 -13.5174 0.451 -0.286 0.845 10 4 4 0 0
0.6584 -0.5087 -13.5958 0.012 -0.143 0.990 137 69 44 0 0
1.0789 -0.5620 -13.6616 0.286 -0.345 0.894 117 49 28 0 0
1.8764 -0.6497 -13.6785 0.314 0.023 0.949 101 37 27 0 0
1.9063 -0.6539 -13.6871 0.385 0.081 0.920 101 38 24 0 0
1.9338 -0.6583 -13.6982 0.385 0.081 0.920 143 83 52 0 0
2.3496 -0.7120 -13.7714 0.180 -0.009 0.984 148 74 55 0 0
2.6021 -0.7444 -13.8136 0.139 -0.137 0.981 161 75 55 0 0
3.3965 -0.8789 -14.2074 0.869 0.486 0.089 86 20 2 0 0
3.4560 -0.9031 -14.3501 0.615 0.597 0.515 93 25 8 0 0
3.4731 -0.9077 -14.3719 0.491 0.548 0.677 87 23 6 0 0
3.4982 -0.9118 -14.3832 0.760 0.469 0.450 103 44 23 0 0
3.5142 -0.9165 -14.4065 0.859 0.379 0.345 127 67 36 0 0
3.5917 -0.9798 -14.8458 0.993 0.078 0.088 49 6 0 0 0
3.6431 -0.9938 -14.9135 0.909 -0.199 0.367 58 11 5 0 0
3.5798 -1.0156 -15.1417 0.967 0.214 0.137 55 10 6 0 0
3.6984 -1.0549 -15.3542 0.793 -0.250 0.556 133 83 61 0 0
3.8502 -1.0799 -15.4239 -0.069 -0.395 0.916 174 136 143 0 0
3.9253 -1.0863 -15.4109 0.943 0.102 0.317 158 123 119 0 0
4.3026 -1.1539 -15.6272 0.796 -0.230 0.560 22 19 20 0 0
4.3235 -1.1583 -15.6446 0.580 -0.187 0.793 54 53 54 0 0
4.3448 -1.1627 -15.6613 0.580 -0.187 0.793 73 73 75 0 0
4.3654 -1.1671 -15.6791 0.618 -0.202 0.760 76 76 79 0 0
4.7851 -1.3478 -16.7621 0.860 -0.103 0.499 170 168 171 0 0
4.8066 -1.3523 -16.7794 0.563 0.109 0.819 173 173 174 0 0
4.8057 -1.3661 -16.8904 0.691 0.192 0.697 179 179 178 0 0
-1.6389 -0.1721 -12.6272 0.898 -0.250 0.361 113 41 26 0 0
-0.1491 -0.3466 -12.7562 0.281 -0.345 0.896 126 41 18 0 0
0.0869 -0.3890 -12.8932 0.618 -0.272 0.738 89 20 6 0 0
0.6648 -0.5374 -13.5827 0.478 -0.518 0.709 135 65 45 0 0
1.0474 -0.5913 -13.6875 0.576 -0.499 0.647 125 57 35 0 0
1.0995 -0.5952 -13.6748 0.385 0.188 0.903 116 38 14 0 0
1.8864 -0.6770 -13.6605 0.357 0.393 0.847 115 45 28 0 0
3.4305 -0.9035 -14.1558 0.960 0.194 0.201 104 38 12 0 0
3.4800 -0.9340 -14.3551 0.714 0.326 0.619 91 23 8 0 0
3.5004 -0.9384 -14.3726 0.741 0.334 0.582 87 21 7 0 0
3.5180 -0.9429 -14.3938 0.858 0.346 0.379 93 31 13 0 0
3.5131 -0.9488 -14.4448 0.784 0.466 0.411 84 27 8 0 0
3.6329 -1.0157 -14.8732 0.972 -0.009 0.235 57 10 4 0 0
3.6366 -1.0213 -14.9144 0.993 0.067 0.096 57 10 4 0 0
3.5801 -1.0548 -15.2275 0.831 0.141 0.539 57 11 5 0 0
3.6061 -1.0589 -15.2384 0.897 0.099 0.430 61 13 5 0 0
3.6216 -1.0638 -15.2639 0.876 0.101 0.472 78 22 8 0 0
3.6334 -1.0690 -15.2949 0.559 0.118 0.821 93 35 17 0 0
3.6577 -1.0732 -15.3081 0.385 0.241 0.891 72 22 8 0 0
3.9117 -1.1146 -15.4223 -0.053 -0.367 0.929 134 104 104 0 0
3.9817 -1.1213 -15.4162 0.773 -0.330 0.541 150 96 87 0 0
4.3797 -1.2245 -15.8986 0.415 -0.513 0.751 39 40 42 0 0
4.7739 -1.3697 -16.7170 0.647 0.382 0.659 167 166 168 0 0
4.7949 -1.3742 -16.7351 0.647 0.382 0.659 173 172 174 0 0
4.9807 -1.3945 -16.7396 0.391 0.229 0.891 187 187 187 0 0
-1.1029 -0.2520 -12.5682 0.646 -0.206 0.735 116 39 19 0 0
-1.0744 -0.2568 -12.5829 0.679 -0.074 0.731 116 39 19 0 0
-1.0529 -0.2617 -12.6035 0.679 -0.074 0.731 117 39 19 0 0
-1.0340 -0.2666 -12.6262 0.692 -0.077 0.718 122 45 25 0 0
0.1607 -0.4570 -13.1345 0.254 -0.104 0.961 10 8 6 0 0
0.6495 -0.5666 -13.5914 0.796 0.155 0.585 126 56 35 0 0
1.8687 -0.7053 -13.6732 0.569 -0.286 0.771 136 60 35 0 0
3.6253 -1.0491 -14.9219 0.935 -0.355 0.001 58 11 5 0 0
3.5469 -1.0666 -15.1240 0.945 -0.322 0.065 58 10 5 0 0
3.5981 -1.0809 -15.1939 0.959 -0.019 0.284 57 10 4 0 0
3.6060 -1.0863 -15.2301 0.876 0.101 0.472 57 9 5 0 0
3.6209 -1.0912 -15.2566 0.876 0.101 0.472 61 10 4 0 0
3.6303 -1.0966 -15.2908 0.664 0.134 0.735 78 22 9 0 0
4.2256 -1.2022 -15.6286 0.610 -0.175 0.773 11 5 5 0 0
4.7931 -1.4020 -16.7282 0.849 0.297 0.437 174 174 176 0 0
4.9632 -1.4239 -16.7601 0.398 0.477 0.783 190 190 190 0 0
0.0466 -0.4270 -12.7616 0.667 -0.069 0.742 146 82 61 0 0
0.0108 -0.4627 -13.0692 0.925 -0.378 -0.042 51 19 14 0 0
0.0234 -0.4676 -13.0972 0.942 -0.150 0.300 23 8 8 0 0
0.0507 -0.4774 -13.1514 0.858 0.179 0.481 36 29 29 0 0
0.1462 -0.4862 -13.1418 0.317 0.080 0.945 12 10 8 0 0
1.8050 -0.7300 -13.6948 0.795 -0.203 0.572 141 68 42 0 0
1.8315 -0.7343 -13.7073 0.539 -0.273 0.797 147 70 40 0 0
1.9931 -0.7495 -13.6947 0.341 -0.044 0.939 114 39 22 0 0
3.4446 -0.9501 -14.0790 0.632 -0.051 0.774 144 75 42 0 0
3.6025 -1.0482 -14.7152 0.948 0.312 0.058 63 14 4 0 0
3.6060 -1.0835 -14.9869 0.882 -0.420 0.215 57 10 4 0 0
3.6482 -1.1165 -15.2097 0.907 0.255 0.335 56 9 5 0 0
3.6525 -1.1222 -15.2510 0.762 0.505 0.405 62 10 3 0 0
3.7164 -1.1417 -15.3510 0.208 0.410 0.888 74 23 14 0 0
3.8626 -1.1669 -15.4284 -0.159 -0.015 0.987 192 163 151 0 0
3.9522 -1.1780 -15.4424 0.503 -0.479 0.720 165 102 78 0 0
4.0234 -1.1844 -15.4343 0.663 0.058 0.747 98 25 8 0 0
4.6547 -1.4175 -16.7378 0.644 0.408 0.647 152 151 149 0 0
4.7813 -1.4239 -16.6844 0.857 0.396 0.329 169 169 171 0 0
4.8105 -1.4274 -16.6885 0.864 0.349 0.364 172 172 174 0 0
4.8260 -1.4326 -16.7161 0.502 0.656 0.563 177 177 179 0 0
-1.1366 -0.3064 -12.5457 0.486 -0.300 0.821 116 39 21 0 0
-0.9226 -0.3402 -12.6364 0.102 0.046 0.994 117 39 19 0 0
0.0191 -0.4510 -12.7416 0.500 0.056 0.864 142 76 56 0 0
0.0324 -0.4558 -12.7684 0.817 -0.157 0.555 132 63 42 0 0
-0.0028 -0.4868 -13.0358 0.816 -0.330 0.475 71 31 23 0 0
-0.0028 -0.4971 -13.1152 0.986 -0.143 0.086 20 9 10 0 0
0.1549 -0.5201 -13.1672 0.799 -0.440 0.410 21 17 16 0 0
2.5250 -0.8454 -13.7914 0.481 0.221 0.848 149 80 65 0 0
2.5811 -0.8535 -13.8098 0.441 -0.199 0.875 154 81 61 0 0
3.3541 -0.9653 -14.0577 0.161 -0.327 0.931 143 84 44 0 0
3.3925 -0.9685 -14.0518 0.430 -0.210 0.878 122 63 25 0 0
4.0188 -1.2119 -15.4325 0.896 -0.033 0.442 84 19 2 0 0
4.3839 -1.4341 -16.8580 0.905 -0.422 -0.051 107 106 104 0 0
4.8182 -1.4539 -16.6653 0.869 0.411 0.275 174 174 176 0 0
4.8392 -1.4584 -16.6833 0.542 0.519 0.660 177 177 179 0 0
5.0197 -1.4786 -16.6956 -0.060 0.567 0.822 193 193 193 0 0
-1.3686 -0.3122 -12.5383 0.241 0.415 0.877 108 35 21 0 0
-1.0342 -0.3605 -12.6470 0.585 -0.194 0.787 118 41 21 0 0
-0.8871 -0.3795 -12.6775 0.677 -0.009 0.736 116 36 18 0 0
0.0025 -0.4799 -12.7505 0.540 -0.253 0.802 143 77 58 0 0
0.0179 -0.4847 -12.7753 0.682 -0.413 0.604 127 53 32 0 0
-0.0178 -0.5264 -13.1227 0.988 -0.155 -0.016 25 16 18 0 0
0.1001 -0.5397 -13.1324 0.070 -0.229 0.971 12 9 7 0 0
0.1486 -0.5439 -13.1268 0.242 0.282 0.929 16 13 12 0 0
0.2505 -0.6102 -13.5548 0.180 -0.554 0.813 9 4 1 0 0
0.4114 -0.6382 -13.6438 0.174 -0.220 0.960 117 43 23 0 0
2.5861 -0.8803 -13.7967 0.099 -0.073 0.992 149 80 62 0 0
3.4625 -1.0073 -14.0844 0.230 -0.070 0.971 157 89 55 0 0
3.5068 -1.0157 -14.1140 0.802 0.271 0.532 126 54 22 0 0
3.7999 -1.2017 -15.3100 0.429 0.385 0.817 87 35 24 0 0
4.0113 -1.2460 -15.4835 0.632 -0.454 0.628 70 21 10 0 0
4.0481 -1.2553 -15.5263 0.532 -0.017 0.847 35 12 6 0 0
4.0480 -1.2617 -15.5753 0.702 -0.236 0.672 18 4 3 0 0
4.8288 -1.4871 -16.6913 0.620 0.457 0.638 176 176 178 0 0
4.8583 -1.4905 -16.6946 0.499 0.321 0.805 179 179 181 0 0
4.9103 -1.4912 -16.6590 0.383 0.674 0.632 183 183 185 0 0
5.0357 -1.5038 -16.6574 -0.059 0.712 0.700 193 193 192 0 0
-0.5458 -0.4457 -12.6880 0.396 -0.198 0.897 120 38 17 0 0
-0.0160 -0.5140 -12.7999 0.630 -0.694 0.349 113 39 20 0 0
0.1694 -0.5933 -13.2608 0.319 0.438 0.841 28 26 27 0 0
0.2449 -0.6395 -13.5537 0.675 -0.494 0.548 9 5 1 0 0
1.7570 -0.8097 -13.6852 0.496 0.061 0.866 122 62 42 0 0
2.0829 -0.8444 -13.6982 0.615 -0.053 0.787 115 41 14 0 0
2.1410 -0.8526 -13.7162 0.354 -0.098 0.930 115 52 30 0 0
2.5005 -0.8952 -13.7639 0.424 -0.362 0.830 154 92 76 0 0
3.3225 -1.0146 -14.0398 0.164 0.236 0.958 139 75 50 0 0
3.3430 -1.0190 -14.0569 -0.056 0.170 0.984 135 70 42 0 0
3.5260 -1.0464 -14.1250 0.646 0.265 0.716 118 46 15 0 0
4.3860 -1.4827 -16.7807 0.908 -0.367 0.201 100 99 97 0 0
4.9307 -1.5230 -16.6678 -0.136 0.194 0.971 187 187 188 0 0
-0.5860 -0.4703 -12.6781 0.668 -0.037 0.743 118 37 16 0 0
-0.5520 -0.4749 -12.6873 0.312 -0.051 0.949 121 39 18 0 0
0.0835 -0.6138 -13.2552 0.869 -0.164 0.468 28 24 25 0 0
0.2430 -0.6633 -13.5079 0.429 -0.594 0.681 6 4 3 0 0
0.2142 -0.6696 -13.5769 0.469 -0.568 0.676 8 6 4 0 0
0.2196 -0.6749 -13.6128 0.613 -0.736 0.287 16 4 3 0 0
1.2232 -0.7829 -13.6702 0.301 -0.209 0.930 145 83 51 0 0
1.2909 -0.7912 -13.6817 0.313 -0.499 0.808 140 53 19 0 0
2.0970 -0.8766 -13.7171 0.452 -0.054 0.891 135 61 33 0 0
2.4944 -0.9226 -13.7639 0.496 -0.075 0.865 154 79 48 0 0
2.7431 -0.9532 -13.8072 0.352 -0.347 0.869 167 92 70 0 0
3.4496 -1.0552 -14.0427 0.357 0.492 0.794 140 79 40 0 0
3.7632 -1.2216 -15.0613 0.988 -0.021 0.151 89 36 16 0 0
4.0339 -1.3238 -15.6279 0.836 0.060 0.545 13 3 6 0 0
4.1094 -1.3229 -15.5638 0.234 -0.608 0.759 12 3 4 0 0
4.2770 -1.3915 -15.9543 0.935 0.342 0.091 9 9 11 0 0
4.3889 -1.4198 -16.0833 0.591 0.062 0.804 19 17 18 0 0
4.4097 -1.4242 -16.1014 0.697 -0.080 0.713 21 19 20 0 0
4.4248 -1.4294 -16.1287 0.838 -0.230 0.494 25 23 24 0 0
4.6355 -1.5231 -16.6769 0.749 -0.085 0.657 143 142 140 0 0
4.8558 -1.5527 -16.7333 0.467 0.078 0.881 185 185 187 0 0
5.1341 -1.5737 -16.6818 0.679 -0.683 0.271 201 201 201 0 0
-2.4267 -0.3317 -12.7815 -0.147 -0.612 0.777 211 212 214 0 0
-0.6059 -0.4946 -12.6506 0.883 -0.229 0.409 120 41 19 0 0
-0.0851 -0.5625 -12.7722 0.330 -0.293 0.897 129 62 42 0 0
0.6997 -0.7541 -13.6241 0.296 0.035 0.955 122 44 18 0 0
0.7311 -0.7584 -13.6337 0.296 0.035 0.955 123 42 14 0 0
1.2110 -0.8117 -13.6761 0.218 -0.421 0.881 149 82 43 0 0
1.2708 -0.8203 -13.6961 0.173 -0.574 0.801 135 47 19 0 0
2.4281 -0.9421 -13.7500 0.578 0.158 0.801 166 99 74 0 0
2.6973 -0.9772 -13.8125 0.431 -0.048 0.901 156 86 69 0 0
3.7980 -1.2268 -14.8645 0.923 0.228 0.310 83 26 6 0 0
3.8263 -1.2305 -14.8710 0.978 -0.147 0.146 89 32 10 0 0
4.5743 -1.5368 -16.6088 0.590 -0.704 0.396 114 113 111 0 0
4.8087 -1.5717 -16.6960 0.396 0.078 0.915 178 177 180 0 0
4.8345 -1.5756 -16.7058 0.560 0.410 0.720 181 181 183 0 0
-0.0070 -0.6909 -13.4492 0.586 0.263 0.766 30 30 30 0 0
1.2579 -0.8491 -13.7029 0.265 -0.219 0.939 133 46 18 0 0
1.9980 -0.9198 -13.6891 0.846 0.117 0.520 129 79 63 0 0
2.3377 -0.9575 -13.7217 0.447 0.223 0.866 126 52 24 0 0
2.4691 -0.9725 -13.7373 0.497 0.040 0.867 133 54 22 0 0
3.8220 -1.2575 -14.8690 0.978 -0.147 0.146 97 54 26 0 0
3.8265 -1.2634 -14.9090 0.987 -0.148 0.065 101 62 38 0 0
4.2602 -1.4207 -15.7614 0.817 -0.503 0.282 10 8 11 0 0
4.2693 -1.4400 -15.8976 0.869 -0.125 0.479 7 5 8 0 0
4.5543 -1.5669 -16.6325 0.590 -0.704 0.396 113 112 110 0 0
4.8232 -1.5971 -16.6611 0.692 0.005 0.722 177 176 180 0 0
5.1803 -1.6285 -16.6342 0.823 0.231 0.519 204 204 206 0 0
5.1972 -1.6335 -16.6587 0.823 0.231 0.519 205 205 207 0 0
5.2094 -1.6465 -16.7464 0.311 -0.814 0.490 206 206 208 0 0
-0.1182 -0.6207 -12.7897 0.672 -0.190 0.715 131 61 39 0 0
0.4096 -0.7948 -13.6947 0.219 0.082 0.972 124 46 24 0 0
0.4498 -0.7989 -13.6961 0.214 -0.276 0.937 121 43 18 0 0
1.2601 -0.8772 -13.6938 0.367 0.125 0.922 130 49 25 0 0
2.0035 -0.9469 -13.6761 0.758 -0.207 0.618 127 82 73 0 0
2.1905 -0.9704 -13.7156 0.528 -0.229 0.817 140 56 29 0 0
2.8548 -1.0492 -13.8208 0.346 -0.046 0.937 155 79 64 0 0
3.8198 -1.2844 -14.8639 0.984 0.066 0.164 83 52 31 0 0
3.8223 -1.2905 -14.9067 0.987 -0.148 0.065 106 75 63 0 0
3.9753 -1.3850 -15.4935 0.798 -0.018 0.602 79 32 21 0 0
4.4775 -1.5256 -16.1706 0.740 0.529 0.416 38 33 32 0 0
4.5257 -1.5908 -16.6169 0.624 -0.616 0.482 103 102 101 0 0
4.7385 -1.6359 -16.7965 0.996 0.084 0.016 177 176 179 0 0
5.2101 -1.6659 -16.6801 0.923 0.242 0.300 206 206 208 0 0
5.1971 -1.6752 -16.7584 0.035 -0.526 0.850 206 206 208 0 0
-2.1231 -0.4591 -12.7993 -0.221 -0.664 0.714 209 212 214 0 0
-0.1537 -0.6451 -12.7766 0.303 0.068 0.951 144 77 58 0 0
-0.1266 -0.6497 -12.7911 0.537 -0.193 0.821 119 47 25 0 0
0.0035 -0.7491 -13.4262 0.699 0.134 0.703 35 36 32 0 0
0.3966 -0.8244 -13.7009 0.445 0.144 0.884 122 44 21 0 0
0.4412 -0.8283 -13.6980 0.211 0.165 0.964 121 43 20 0 0
1.0546 -0.8811 -13.6535 0.681 0.121 0.722 145 106 85 0 0
1.5603 -0.9358 -13.6984 0.125 -0.299 0.946 130 55 25 0 0
1.9943 -0.9749 -13.6794 0.774 0.159 0.613 116 65 45 0 0
2.0302 -0.9785 -13.6809 0.646 0.149 0.749 140 91 77 0 0
2.9047 -1.0839 -13.8378 0.662 0.191 0.725 153 82 69 0 0
2.9281 -1.0881 -13.8518 0.560 0.127 0.819 153 85 70 0 0
3.5431 -1.1704 -14.0219 0.829 0.176 0.530 160 98 66 0 0
3.5587 -1.1751 -14.0449 0.829 0.176 0.530 143 83 46 0 0
3.6379 -1.1923 -14.1152 0.403 0.291 0.868 132 60 25 0 0
3.6506 -1.1972 -14.1421 0.603 0.467 0.647 115 42 12 0 0
3.6614 -1.2023 -14.1716 0.840 0.411 0.353 98 28 7 0 0
3.6989 -1.2353 -14.3865 0.911 0.106 0.399 69 13 4 0 0
3.8188 -1.3048 -14.8110 0.973 0.057 0.225 64 31 19 0 0
3.8312 -1.3354 -15.0257 0.986 0.147 -0.079 114 61 30 0 0
3.8349 -1.3414 -15.0673 0.954 0.297 0.033 110 58 26 0 0
3.9722 -1.4124 -15.4895 0.809 0.071 0.583 51 15 7 0 0
4.4883 -1.6160 -16.6158 -0.491 -0.483 0.725 92 91 87 0 0
4.7286 -1.6722 -16.8581 0.900 0.349 0.260 181 181 183 0 0
5.1736 -1.6981 -16.7352 0.884 -0.466 0.026 206 206 207 0 0
-0.1559 -0.6739 -12.7724 0.706 0.027 0.708 128 61 42 0 0
0.0049 -0.7782 -13.4183 0.880 -0.049 0.473 75 72 68 0 0
0.3743 -0.8487 -13.6750 -0.017 -0.082 0.996 118 41 19 0 0
0.3960 -0.8535 -13.6947 0.308 -0.103 0.946 123 44 21 0 0
0.4237 -0.8580 -13.7087 0.489 0.003 0.872 122 45 22 0 0
0.7862 -0.8935 -13.7161 0.265 -0.158 0.951 110 34 16 0 0
1.0318 -0.9048 -13.6291 0.440 -0.535 0.721 159 103 74 0 0
1.7291 -0.9773 -13.6743 0.077 -0.296 0.952 104 36 18 0 0
1.9726 -0.9978 -13.6551 0.523 0.371 0.767 167 95 53 0 0
2.0068 -1.0015 -13.6585 0.510 0.419 0.751 152 92 59 0 0
2.8157 -1.0936 -13.7690 0.626 0.065 0.777 157 96 87 0 0
3.6815 -1.2327 -14.1812 0.888 0.317 0.334 95 23 6 0 0
3.8353 -1.3618 -15.0117 0.992 0.127 0.016 97 36 8 0 0
-1.1533 -0.5995 -12.6987 0.067 -0.107 0.992 111 35 19 0 0
0.8202 -0.9263 -13.7160 0.642 -0.395 0.657 117 37 12 0 0
1.9670 -1.0255 -13.6544 0.387 0.038 0.921 156 65 35 0 0
1.9974 -1.0295 -13.6621 0.453 -0.010 0.891 164 86 52 0 0
2.0229 -1.0337 -13.6751 0.453 -0.010 0.891 157 88 52 0 0
2.8118 -1.1205 -13.7666 0.862 0.188 0.470 194 140 130 0 0
2.8860 -1.1327 -13.8038 0.334 0.076 0.940 148 74 56 0 0
3.8415 -1.3814 -14.9480 0.962 0.264 0.074 76 20 3 0 0
3.8347 -1.3886 -15.0043 0.999 -0.048 0.005 70 14 2 0 0
3.8337 -1.3952 -15.0525 0.994 -0.109 0.033 65 12 5 0 0
3.8939 -1.4415 -15.3456 0.732 0.195 0.652 51 11 7 0 0
4.4629 -1.6820 -16.6920 -0.470 -0.587 0.659 93 91 87 0 0
4.4093 -1.6968 -16.8350 0.121 -0.758 0.640 100 99 96 0 0
4.4361 -1.7006 -16.8444 0.287 -0.790 0.542 110 109 107 0 0
4.5246 -1.6959 -16.7503 0.974 -0.149 -0.172 121 118 117 0 0
-0.5585 -0.6949 -12.7666 0.622 0.105 0.776 122 48 25 0 0
-0.3353 -0.7372 -12.9207 0.202 -0.337 0.920 112 36 16 0 0
-0.2716 -0.7516 -12.9815 0.484 -0.274 0.831 79 13 4 0 0
-0.0230 -0.8664 -13.6364 0.710 -0.322 0.626 77 72 68 0 0
0.3810 -0.9123 -13.6962 0.308 -0.103 0.946 127 47 24 0 0
0.8288 -0.9603 -13.7419 0.570 -0.391 0.722 139 55 13 0 0
1.4458 -1.0201 -13.7595 0.682 0.070 0.728 141 73 44 0 0
3.7146 -1.2880 -14.1659 0.954 0.153 0.258 109 43 15 0 0
3.8345 -1.4218 -15.0431 0.999 -0.022 0.043 51 11 7 0 0
3.8329 -1.4286 -15.0924 0.999 0.036 -0.020 49 11 9 0 0
3.9736 -1.4933 -15.4615 0.960 0.216 0.178 25 4 2 0 0
4.1245 -1.5582 -15.8253 0.360 -0.874 0.325 14 10 11 0 0
4.1109 -1.5739 -15.9464 0.375 -0.554 0.743 6 4 5 0 0
4.3818 -1.7360 -16.9252 0.218 -0.873 0.436 108 105 103 0 0
4.7695 -1.7563 -16.8122 -0.305 -0.683 0.664 183 183 185 0 0
-0.3473 -0.7722 -12.9647 0.319 -0.589 0.743 98 21 4 0 0
-0.1408 -0.8489 -13.3741 0.703 -0.395 0.592 88 83 76 0 0
-0.1286 -0.8541 -13.4031 0.832 -0.377 0.406 96 92 83 0 0
2.2196 -1.1163 -13.7310 0.707 0.089 0.701 127 63 45 0 0
2.2393 -1.1208 -13.7503 0.707 0.089 0.701 126 62 40 0 0
2.6658 -1.1611 -13.7578 0.503 0.040 0.863 130 51 19 0 0
3.7330 -1.3246 -14.2216 0.942 0.254 0.220 105 54 28 0 0
3.7416 -1.3300 -14.2541 0.925 0.298 0.236 113 68 40 0 0
3.7513 -1.3353 -14.2853 0.925 0.298 0.236 111 78 52 0 0
3.8546 -1.4464 -15.0064 0.921 0.384 0.074 45 10 6 0 0
3.8844 -1.4498 -15.0108 0.936 0.350 -0.033 46 11 9 0 0
3.8979 -1.4882 -15.2749 0.727 0.342 0.596 42 9 5 0 0
3.9178 -1.4927 -15.2939 0.891 0.059 0.451 40 9 6 0 0
4.0958 -1.6031 -15.9606 0.375 -0.554 0.743 14 12 15 0 0
4.7450 -1.7874 -16.8444 -0.179 -0.428 0.886 183 183 184 0 0
-0.4179 -0.7871 -12.9037 0.063 -0.097 0.993 140 77 60 0 0
-0.3938 -0.7918 -12.9214 0.192 -0.254 0.948 116 45 26 0 0
-0.3701 -0.8021 -12.9788 0.219 -0.672 0.708 98 20 4 0 0
-0.2931 -0.8105 -12.9884 0.484 -0.274 0.831 72 12 4 0 0
-0.3115 -0.8224 -13.0841 0.489 -0.569 0.662 79 38 30 0 0
-0.2872 -0.8271 -13.1018 0.683 -0.274 0.677 73 44 36 0 0
-0.1369 -0.8495 -13.1631 0.600 -0.190 0.777 72 69 64 0 0
-0.1054 -0.8539 -13.1739 0.428 -0.196 0.882 102 99 92 0 0
-0.1442 -0.8841 -13.4112 0.518 -0.467 0.716 92 88 79 0 0
0.8060 -1.0188 -13.7516 0.591 -0.273 0.759 144 71 36 0 0
2.5235 -1.1689 -13.7083 0.169 0.189 0.967 122 47 26 0 0
3.8772 -1.4772 -15.0128 0.953 -0.158 0.257 44 10 7 0 0
3.8827 -1.4832 -15.0518 0.917 0.095 0.388 44 10 7 0 0
4.0339 -1.6311 -15.9962 0.241 -0.240 0.940 22 17 20 0 0
4.0807 -1.6323 -15.9748 0.375 -0.554 0.743 29 24 28 0 0
4.0888 -1.6385 -16.0128 0.197 -0.303 0.932 23 21 24 0 0
4.1107 -1.6428 -16.0296 0.016 -0.011 1.000 9 9 11 0 0
4.4809 -1.6660 -15.9559 0.395 0.182 0.900 33 33 35 0 0
4.4236 -1.7781 -16.7816 0.939 0.133 -0.318 92 87 83 0 0
4.4288 -1.7850 -16.8270 0.970 0.143 -0.196 101 96 92 0 0
5.1269 -1.8015 -16.4961 0.041 -0.501 0.864 201 201 201 0 0
5.1201 -1.8102 -16.5620 0.066 0.324 0.944 203 203 203 0 0
-0.4345 -0.8168 -12.9123 0.514 -0.223 0.828 129 62 48 0 0
-0.4087 -0.8214 -12.9285 0.195 -0.173 0.965 106 33 17 0 0
-0.4070 -0.8270 -12.9662 0.370 -0.455 0.810 104 26 7 0 0
-0.1368 -0.9422 -13.6020 0.689 -0.193 0.699 86 82 73 0 0
0.8765 -1.0435 -13.6726 0.701 -0.504 0.504 155 86 51 0 0
1.9890 -1.1453 -13.6852 0.121 -0.215 0.969 113 46 28 0 0
2.5357 -1.2007 -13.7288 0.526 0.148 0.837 121 44 23 0 0
2.5624 -1.2046 -13.7395 0.222 -0.084 0.971 115 38 21 0 0
2.8532 -1.2415 -13.8147 0.767 -0.226 0.600 192 136 122 0 0
3.7622 -1.3863 -14.2553 0.922 0.327 0.207 73 35 19 0 0
3.9545 -1.5218 -15.0817 0.982 0.051 0.180 43 9 4 0 0
3.9674 -1.5611 -15.3483 0.981 0.070 0.184 77 38 22 0 0
4.0236 -1.6598 -16.0028 0.249 -0.293 0.923 28 23 26 0 0
4.0511 -1.6635 -16.0111 0.268 -0.202 0.942 47 42 46 0 0
4.1361 -1.6741 -16.0319 0.100 0.070 0.992 17 15 18 0 0
4.1667 -1.6773 -16.0351 0.082 0.056 0.995 10 8 11 0 0
4.2309 -1.6833 -16.0366 0.565 0.239 0.790 19 19 21 0 0
4.4854 -1.6923 -15.9395 0.625 -0.053 0.779 33 33 35 0 0
4.5223 -1.6944 -15.9313 0.893 0.175 0.414 35 34 36 0 0
4.7122 -1.8163 -16.6638 0.731 0.675 0.099 158 158 158 0 0
5.0779 -1.8284 -16.5183 -0.087 -0.259 0.962 199 199 199 0 0
5.1148 -1.8301 -16.5075 0.159 -0.512 0.844 201 201 201 0 0
5.1371 -1.8342 -16.5222 0.678 0.225 0.700 203 203 203 0 0
-0.4572 -0.8411 -12.8870 0.570 0.029 0.821 131 69 52 0 0
-0.4439 -0.8463 -12.9144 0.514 -0.223 0.828 112 43 28 0 0
-0.4275 -0.8569 -12.9783 0.346 -0.501 0.793 100 22 5 0 0
-0.4103 -0.8619 -13.0025 0.228 -0.611 0.758 88 19 4 0 0
-0.3188 -0.8867 -13.1179 0.553 -0.131 0.823 51 25 21 0 0
-0.2578 -0.8956 -13.1419 0.779 -0.180 0.601 89 80 77 0 0
0.6103 -1.0515 -13.6883 0.339 -0.423 0.840 119 41 19 0 0
0.8328 -1.0685 -13.6692 0.591 -0.300 0.749 139 58 23 0 0
0.8820 -1.0776 -13.7016 0.394 -0.139 0.909 146 108 83 0 0
1.3281 -1.1218 -13.7330 0.461 0.063 0.885 124 57 26 0 0
2.0128 -1.1769 -13.6933 0.141 -0.367 0.919 106 39 17 0 0
2.5572 -1.2319 -13.7385 0.366 0.150 0.918 123 41 22 0 0
3.7678 -1.4118 -14.2401 0.922 0.327 0.207 130 82 52 0 0
3.9739 -1.5394 -14.9986 0.901 -0.422 0.100 52 11 7 0 0
4.2281 -1.7108 -16.0317 0.629 0.105 0.771 12 12 14 0 0
4.6100 -1.7752 -16.2425 0.849 -0.511 0.136 70 69 67 0 0
4.7419 -1.8389 -16.6036 0.385 -0.595 0.705 157 157 157 0 0
-0.7456 -0.8418 -12.8599 0.946 -0.301 0.119 116 37 15 0 0
-0.4824 -0.8656 -12.8640 0.688 0.111 0.717 127 68 50 0 0
-0.4575 -0.8816 -12.9595 0.766 -0.396 0.506 102 25 7 0 0
-0.4463 -0.8869 -12.9889 0.466 -0.468 0.751 98 21 3 0 0
-0.4359 -0.8922 -13.0191 0.228 -0.611 0.758 87 18 7 0 0
-0.3761 -0.9068 -13.0841 0.769 -0.072 0.635 79 36 29 0 0
-0.3541 -0.9116 -13.1039 0.620 -0.117 0.775 80 45 38 0 0
-0.2768 -0.9256 -13.1529 0.562 -0.146 0.814 80 69 67 0 0
1.8218 -1.1941 -13.7320 0.257 -0.426 0.867 142 58 27 0 0
2.0403 -1.2082 -13.6972 0.207 -0.042 0.977 102 38 21 0 0
2.1792 -1.2219 -13.7073 0.514 0.198 0.835 151 65 33 0 0
2.2059 -1.2259 -13.7186 0.430 -0.027 0.902 176 97 61 0 0
3.6537 -1.3865 -13.9481 0.803 -0.110 0.586 130 52 22 0 0
3.7565 -1.4326 -14.2035 0.976 0.086 0.198 133 82 48 0 0
3.7640 -1.4382 -14.2375 0.976 0.086 0.198 130 71 38 0 0
3.7788 -1.4494 -14.3059 0.976 0.086 0.198 98 27 3 0 0
3.7863 -1.4550 -14.3402 0.976 0.044 0.211 84 21 5 0 0
3.8088 -1.4590 -14.3541 0.946 0.279 0.163 72 15 4 0 0
3.8163 -1.4647 -14.3884 0.946 0.279 0.163 64 13 4 0 0
3.9088 -1.5398 -14.8504 0.914 0.399 0.073 54 14 12 0 0
3.9145 -1.5459 -14.8887 0.914 0.399 0.073 57 15 12 0 0
3.9104 -1.6859 -15.8559 0.951 -0.310 0.025 6 1 3 0 0
4.5909 -1.8050 -16.2645 0.783 -0.618 0.071 70 69 68 0 0
4.4326 -1.8597 -16.7373 0.947 -0.209 -0.244 82 76 73 0 0
4.4275 -1.8683 -16.7996 0.525 0.542 0.657 92 86 82 0 0
4.4439 -1.8736 -16.8264 0.019 0.733 0.680 102 98 92 0 0
4.8616 -1.9017 -16.7665 -0.209 0.284 0.936 194 194 194 0 0
-0.8199 -0.8684 -12.8790 0.630 -0.049 0.775 119 41 19 0 0
-0.7940 -0.8731 -12.8958 0.642 0.057 0.764 120 43 20 0 0
-0.7564 -0.8773 -12.9023 0.442 0.512 0.737 124 49 26 0 0
-0.4894 -0.8949 -12.8640 0.916 0.135 0.377 122 64 49 0 0
-0.4782 -0.9059 -12.9324 0.957 -0.223 0.186 98 25 8 0 0
-0.4564 -0.9165 -12.9917 0.465 -0.586 0.664 95 21 4 0 0
-0.3923 -0.9194 -12.9739 0.455 -0.259 0.852 83 17 6 0 0
0.6157 -1.1147 -13.7108 0.367 -0.131 0.921 116 38 16 0 0
2.1489 -1.2514 -13.7346 0.513 -0.291 0.808 134 51 20 0 0
3.9393 -1.5292 -14.5708 0.999 -0.029 -0.037 49 13 8 0 0
3.9454 -1.5351 -14.6077 0.980 -0.197 -0.025 48 12 7 0 0
3.9643 -1.6702 -15.5206 0.937 -0.327 0.125 6 1 4 0 0
3.9526 -1.6932 -15.6847 0.945 -0.249 0.212 6 2 3 0 0
3.9829 -1.7181 -15.8373 0.934 0.353 -0.048 6 3 3 0 0
4.7407 -1.9013 -16.6396 0.288 -0.643 0.710 162 161 160 0 0
4.8576 -1.9295 -16.7633 -0.175 0.414 0.893 193 193 193 0 0
-0.7975 -0.9027 -12.8926 0.722 -0.235 0.651 124 47 27 0 0
-0.7550 -0.9066 -12.8949 0.508 -0.345 0.789 129 57 36 0 0
-0.4856 -0.9354 -12.9329 0.952 -0.173 0.253 94 22 7 0 0
2.2043 -1.2802 -13.7064 0.492 0.080 0.867 140 57 25 0 0
2.9767 -1.3611 -13.8053 0.519 0.239 0.821 147 72 49 0 0
3.6346 -1.4401 -13.9580 0.631 -0.411 0.658 149 79 17 0 0
3.9507 -1.5407 -14.4569 0.985 -0.171 0.026 53 12 6 0 0
3.9447 -1.5480 -14.5103 0.983 -0.178 -0.039 54 13 6 0 0
3.9473 -1.5544 -14.5518 0.948 -0.316 -0.036 53 12 5 0 0
3.9394 -1.6791 -15.4034 0.715 0.032 0.698 10 3 4 0 0
3.9601 -1.7485 -15.8628 0.888 -0.181 0.422 5 4 2 0 0
4.5213 -1.8698 -16.3596 0.869 -0.476 -0.137 62 61 62 0 0
4.3547 -1.9272 -16.8470 0.643 0.753 0.141 83 75 72 0 0
4.4972 -1.9284 -16.7715 -0.423 -0.085 0.902 110 108 102 0 0
4.5436 -1.9288 -16.7476 -0.402 -0.124 0.907 122 121 117 0 0
5.1269 -1.9425 -16.5004 0.514 -0.372 0.773 203 203 203 0 0
-0.8060 -0.9324 -12.8939 0.722 -0.235 0.651 115 42 24 0 0
-0.5413 -0.9554 -12.8975 0.271 -0.409 0.871 106 45 34 0 0
-0.4206 -0.9789 -12.9867 0.717 0.055 0.695 69 11 4 0 0
-0.1944 -1.0864 -13.5826 0.567 -0.488 0.663 87 77 70 0 0
1.4237 -1.2392 -13.6867 0.275 0.129 0.953 100 37 23 0 0
2.2077 -1.3070 -13.6957 0.393 -0.103 0.914 123 54 27 0 0
2.2313 -1.3112 -13.7105 0.397 0.096 0.913 141 62 29 0 0
3.1577 -1.4328 -14.0003 0.812 -0.549 0.195 180 152 152 0 0
3.9440 -1.5476 -14.3244 0.987 -0.161 0.020 55 12 5 0 0
3.9438 -1.5542 -14.3692 0.987 -0.161 0.020 53 10 5 0 0
3.9142 -1.6668 -15.1451 0.879 -0.475 0.049 33 15 13 0 0
3.9712 -1.7816 -15.8870 0.957 0.115 0.265 7 6 5 0 0
3.9796 -1.7878 -15.9244 0.937 -0.173 0.303 8 6 7 0 0
3.9802 -1.7952 -15.9737 0.710 -0.313 0.631 8 6 7 0 0
4.7773 -1.9814 -16.7733 0.850 0.486 0.201 184 184 183 0 0
5.0221 -1.9875 -16.6742 0.226 0.260 0.939 203 203 203 0 0
5.0423 -1.9920 -16.6931 0.374 -0.780 0.502 205 205 205 0 0
-0.8353 -0.9573 -12.8739 0.659 -0.154 0.736 112 50 38 0 0
-0.8136 -0.9622 -12.8943 0.659 -0.154 0.736 116 47 30 0 0
-0.5614 -0.9855 -12.9090 0.163 -0.497 0.852 108 47 36 0 0
-0.5313 -0.9899 -12.9216 0.307 -0.519 0.797 91 27 16 0 0
0.2536 -1.1812 -13.7618 -0.140 0.133 0.981 118 43 24 0 0
2.2169 -1.3395 -13.7198 0.220 -0.098 0.971 109 43 20 0 0
2.2491 -1.3430 -13.7248 0.223 -0.089 0.971 136 60 31 0 0
3.7412 -1.5120 -14.0193 0.564 -0.111 0.818 155 83 44 0 0
3.9333 -1.5681 -14.2869 0.972 -0.048 0.231 57 14 8 0 0
3.9805 -1.8225 -15.9641 0.750 -0.214 0.625 8 6 7 0 0
4.1245 -1.8467 -16.0458 0.282 -0.171 0.944 47 47 49 0 0
4.2920 -1.8597 -16.0382 0.279 -0.052 0.959 52 51 54 0 0
4.3183 -1.8633 -16.0477 0.360 -0.106 0.927 23 21 24 0 0
4.3438 -1.8670 -16.0583 0.328 -0.289 0.899 23 21 23 0 0
4.3804 -1.8690 -16.0514 0.504 -0.273 0.820 30 28 31 0 0
5.0082 -2.0249 -16.7430 0.277 -0.878 0.390 205 205 205 0 0
-0.8657 -0.9881 -12.8941 0.171 -0.462 0.870 138 114 107 0 0
-0.8209 -0.9919 -12.8945 0.542 -0.177 0.821 119 75 65 0 0
-0.7813 -0.9959 -12.8993 0.394 -0.246 0.886 115 56 42 0 0
0.1809 -1.2088 -13.7853 0.311 -0.038 0.950 117 43 24 0 0
0.2394 -1.2112 -13.7691 -0.157 -0.333 0.930 116 42 23 0 0
2.2117 -1.3670 -13.7188 0.178 -0.012 0.984 120 50 31 0 0
2.2432 -1.3705 -13.7246 0.178 -0.012 0.984 106 39 19 0 0
2.7423 -1.4063 -13.6874 0.395 -0.024 0.918 139 63 42 0 0
2.7695 -1.4100 -13.6969 0.344 -0.236 0.909 140 59 35 0 0
2.7964 -1.4200 -13.7486 0.367 0.133 0.921 130 48 20 0 0
3.9319 -1.5941 -14.2810 0.762 -0.608 0.222 62 11 4 0 0
3.9006 -1.6936 -14.9602 0.890 -0.441 0.117 32 17 17 0 0
3.9115 -1.6992 -14.9915 0.933 -0.354 0.069 15 8 7 0 0
3.9125 -1.7061 -15.0369 0.950 -0.313 0.023 8 6 7 0 0
4.2760 -1.8892 -16.0543 0.573 -0.209 0.792 40 40 42 0 0
4.3925 -1.9018 -16.0740 0.413 -0.597 0.688 33 33 35 0 0
4.6176 -1.9276 -16.1219 0.907 0.041 0.418 37 37 39 0 0
4.6271 -2.0131 -16.6851 0.725 -0.058 0.686 147 147 146 0 0
4.7235 -2.0370 -16.7914 0.720 0.424 0.549 177 177 177 0 0
-0.8132 -1.0269 -12.9209 0.045 -0.554 0.831 153 135 127 0 0
-0.4421 -1.0673 -12.9873 0.732 -0.580 0.356 88 37 23 0 0
0.5666 -1.2680 -13.7680 0.445 -0.574 0.687 120 45 26 0 0
1.6173 -1.3509 -13.7480 0.474 -0.160 0.866 114 43 25 0 0
3.1479 -1.4935 -13.8625 0.678 0.016 0.735 164 96 75 0 0
3.4366 -1.5332 -13.9688 0.479 -0.658 0.581 157 73 39 0 0
3.9208 -1.6212 -14.2885 0.852 -0.457 0.255 111 60 35 0 0
3.8786 -1.6880 -14.7521 0.791 -0.561 0.244 61 39 31 0 0
