ply
format ascii 1.0
element vertex 696
property float x
property float y
property float z
property uchar diffuse_red
property uchar diffuse_green
property uchar diffuse_blue
end_header
1.7946991429037222 -1.2656277137069536 -13.730268871827146 125 69 40
1.7286984092541093 -1.2758649537760038 -13.720682047104606 130 65 32
1.6646549388953478 -1.2858490585772138 -13.712429459105655 159 86 47
1.6026687172763339 -1.2955682076240473 -13.705602381950406 155 83 43
1.5478627522813957 -1.3043865114285926 -13.70424822607496 131 63 26
1.5012425833892475 -1.312181505325808 -13.70921025971279 120 53 22
1.4694512530523252 -1.318131974303239 -13.725806456327543 111 44 21
1.4372901809994305 -1.3241262285340594 -13.742066657477356 112 43 25
1.3464523993244821 -1.3373828066585731 -13.71153508160006 120 47 28
1.309769937579028 -1.3439254761402912 -13.723956825791898 128 53 33
1.2679270586791107 -1.351102693961428 -13.732177062052834 131 57 35
1.2801952388352582 -1.3515946473838514 -13.783797425729698 128 56 34
1.2022349088617634 -1.3632244843814498 -13.762849910061277 128 56 34
1.1455849420781608 -1.3722154649560365 -13.758869170188474 128 56 34
1.1186722475509354 -1.3775372426293808 -13.778838271325295 128 56 34
1.056382434135461 -1.3872098228158343 -13.770018002255334 126 51 32
0.9902409505432637 -1.3973466572086026 -13.757866895842767 123 49 30
0.9148022164758149 -1.4086150108752784 -13.737902401845517 121 49 30
0.8736925073160142 -1.4156600865153517 -13.745845765188022 117 46 27
0.841598257664276 -1.4215959563383826 -13.761116349546352 115 44 26
0.8401585128458207 -1.4237763026814672 -13.801634353198452 116 42 26
0.8217765071054117 -1.4280338758412081 -13.828231975992924 117 41 26
0.8044078399814003 -1.4321685216756268 -13.855689546450538 122 46 24
0.7906669046968187 -1.4358614094281537 -13.886190735033463 140 67 40
0.7328585505864149 -1.444931292101454 -13.87994458080752 164 104 75
0.7009150977577798 -1.4508410964319212 -13.895181385710659 165 116 91
0.6499419428657216 -1.4590652619995952 -13.894391474413172 141 93 70
0.6023974799720708 -1.4668656720948838 -13.8963484354286 121 70 42
0.5553593441729694 -1.4745985871877512 -13.898608699663049 132 72 39
0.5119207814196542 -1.481888693625228 -13.903795734886288 145 77 43
0.4773549018593002 -1.488097803979555 -13.916415448118027 127 54 26
0.4339254715072087 -1.4953777430464947 -13.921421698471004 120 44 27
0.38791144157019186 -1.502965406123638 -13.92411363800769 115 39 27
0.4143842303899188 -1.501783138322366 -13.988806675647659 114 38 23
0.3030645154970868 -1.5172561550563446 -13.935311945763697 114 38 23
0.25587122094884407 -1.5249697512243763 -13.936646795478843 113 38 22
0.22492114566200438 -1.5307192022375011 -13.951897355949134 108 37 21
0.19372644947963114 -1.5364959414817367 -13.966890658709033 98 34 21
0.17521151178540606 -1.5407449991271145 -13.992862667722873 93 33 22
0.1378400815242875 -1.5472611365593831 -14.002408264037141 97 36 22
0.16421186748200167 -1.546120364037561 -14.067624148239492 106 40 23
0.1381995858547862 -1.5512743359639565 -14.087138330635643 115 51 30
0.14986710118686197 -1.5519126110629429 -14.139777611837282 117 54 35
0.12562882938814468 -1.5568568916693735 -14.160911986568024 94 33 18
0.15406459193025412 -1.55550228191008 -14.228639886701238 84 23 10
0.13978589452681334 -1.5592623101279082 -14.258724358682517 85 22 7
0.10985358564094572 -1.5648921394221926 -14.274918594335523 95 27 8
0.09966389297347966 -1.5681666848714348 -14.308692689244701 109 36 13
0.08033444470697404 -1.5725325222255297 -14.334347492429856 122 51 22
0.06014746572227114 -1.5770010570303974 -14.359246914802512 115 49 23
0.07495814016268287 -1.5773114028184207 -14.415664128921271 98 32 11
0.06240141292573487 -1.580879563087264 -14.447564171809292 127 50 25
0.05129613529627797 -1.5842780303037682 -14.480828752342193 130 44 20
0.06933881926156715 -1.584226708459814 -14.540621488295802 119 37 21
0.05158947349429521 -1.5884206000642245 -14.568027915172806 110 38 25
0.040864590904036824 -1.591785359507934 -14.60187414569512 108 39 22
0.04056072039341352 -1.5939226376534803 -14.645327351584001 116 51 32
0.07083473171769494 -1.592459073446654 -14.71698853469664 100 49 33
0.08904826130508336 -1.592429841888923 -14.777817273341926 53 24 15
0.19212355000324788 -1.5910334811930726 -15.096447035071256 15 9 9
0.2006535143866035 -1.5922021834142122 -15.14954141739726 27 21 21
0.17760311856126165 -1.5970711165961002 -15.173114651452408 20 16 17
0.1591751052895516 -1.6014001679870367 -15.201044594180086 13 10 11
0.14335732608324658 -1.6054258688609084 -15.231466332172145 14 12 13
0.12651493429327232 -1.609572778624181 -15.260954331839043 9 8 10
0.11327680214027058 -1.6133017598992692 -15.29390268425644 4 4 6
0.1271117712101022 -1.6138858756351027 -15.352726030823352 5 5 7
0.11359533793039134 -1.6176558026514363 -15.385587738926521 5 5 7
0.1764078434761771 -1.6125748108119577 -15.491725198749302 6 6 8
0.09445608312799703 -1.6242885616548124 -15.459060271882773 8 8 10
0.05998006226975239 -1.6304925146376752 -15.471875764088754 10 10 12
0.03708355887612402 -1.6353548945456255 -15.495831723166654 11 11 14
-0.022497948781599497 -1.6444527576855823 -15.48418673882615 12 12 15
-0.05513770763891923 -1.6504337938521243 -15.498557178070712 14 12 16
-0.04254721688605123 -1.6512022834084883 -15.557019650083319 15 13 17
-0.05405774539014274 -1.6547531946139793 -15.592089719251598 14 14 16
-0.06550597169710581 -1.6583000257601066 -15.62728503461401 13 13 15
-0.08131183172427026 -1.662350131808006 -15.658254866081148 12 12 14
-0.1264003505292859 -1.6697592164495958 -15.660352360156796 11 10 12
-0.1715285068894783 -1.6771667698596955 -15.6622842846296 10 8 9
-0.22388664896523558 -1.685395101703961 -15.656909299262026 9 7 8
-0.2715388954586002 -1.693077752077528 -15.65605202972721 8 6 7
-0.2715470143212775 -1.695317670328001 -15.702638862134625 8 6 7
-0.300457994433212 -1.7008575085952988 -15.72040542421038 9 7 8
-0.3294688176151741 -1.7064070139552394 -15.738036378844079 10 8 9
-0.37822017763587557 -1.7141988346863604 -15.735743537701516 11 9 10
-0.4065442487581272 -1.7196641432396125 -15.75393882113567 11 9 10
-0.4330949210568198 -1.7249267905038348 -15.773898535603426 10 8 10
-0.42420818512854996 -1.726174818796834 -15.829847193201136 20 18 21
-0.43827571261983334 -1.7300282537385971 -15.862587831431739 48 47 49
-0.4063258879564069 -1.7286853085406737 -15.942411956914253 73 73 75
0.15477606057430737 -1.6795376230783743 -16.812299389674386 93 91 92
0.08784652128180603 -1.6894298572731778 -16.792399752772607 97 95 96
-0.003040971565849482 -1.7019889275462328 -16.74718488172738 101 99 100
-0.09451398663865529 -1.7145939685408946 -16.70095163508599 105 103 104
-0.1445396988748735 -1.722556207234631 -16.69790671921205 109 107 108
-0.223125987743944 -1.7336923034262337 -16.664572665683185 114 112 113
-0.2812542883278635 -1.7425363685907775 -16.652547866679694 119 117 118
-0.3836402613519345 -1.7562874970368878 -16.593354373580947 125 123 124
-0.4754168477248246 -1.7711990734594307 -16.594097700999836 139 137 138
-0.5381029133325317 -1.7805037402817385 -16.57628428493509 145 143 144
3.4519315946457176 -0.9741822393073607 -14.004347999139716 176 165 161
3.0787480091020587 -1.028300862374396 -13.86047332053868 114 63 54
2.8949816428640816 -1.0539306220124056 -13.767943797952263 112 63 50
2.82935549161959 -1.0643546114364921 -13.761925076080411 117 65 50
2.744219178609879 -1.0772736643457739 -13.741277738091581 124 67 49
2.6696702371877263 -1.0888224519429883 -13.728222302271547 134 70 41
2.6123734616794323 -1.0981503189460253 -13.727791588892122 150 84 52
2.5535786177823807 -1.1076629545436574 -13.72609279879471 136 69 39
2.4938076891745764 -1.1172930962370549 -13.723506502931144 120 54 31
2.456412609691162 -1.124055834069345 -13.737572893949448 116 50 33
2.406675303116322 -1.132391799389032 -13.74227539640433 117 52 33
2.3424102937270668 -1.1425759607196584 -13.735879218283785 118 55 36
2.234305259243164 -1.1583408519298881 -13.696064224425925 119 59 40
2.078324919861257 -1.1841197376552077 -13.703085758912309 129 60 34
2.0313341543375785 -1.1920647824331416 -13.709004033398584 115 51 26
1.988695779875858 -1.1994521458811747 -13.71816286649143 103 42 22
1.9368544000737389 -1.2080028019166424 -13.720131412966488 109 46 29
1.9800479413607137 -1.2045016110690263 -13.795519350361602 116 54 35
1.8982134356463511 -1.2168485348708658 -13.774161277480573 114 55 38
1.798986564356868 -1.2313835719845967 -13.738994683922925 117 59 38
1.7264442420001584 -1.242528518504537 -13.724313779842287 149 83 52
1.6557557759694905 -1.25342856255195 -13.71085660142769 162 90 50
1.5939151693756886 -1.2632015470220093 -13.704128148780358 128 58 24
1.537610933291047 -1.272267903081978 -13.701580435206873 137 72 35
1.481245500820962 -1.2813346638695724 -13.698829056101177 156 92 50
1.4569686689928343 -1.2863546333901643 -13.721346612283982 128 60 32
1.4245844195057202 -1.2923939620696274 -13.73741405191576 113 43 23
1.3381664883642355 -1.3052212962895968 -13.710371237680967 118 48 29
1.3067127416808288 -1.3111335834149873 -13.726965348003066 127 51 32
1.2747411655533325 -1.3171088740982848 -13.743102750811172 131 57 36
1.2504211097791638 -1.322123092606696 -13.765348109256903 130 57 35
1.1693808156127528 -1.3342396021531153 -13.741846225934296 130 56 34
1.1340647271064315 -1.340622471194509 -13.755047840354521 129 55 34
1.0956584349844913 -1.3473887585160962 -13.765682130133689 127 53 32
1.0496772127599066 -1.355097508897735 -13.770078495877872 123 48 30
0.9702903395567608 -1.366969234159884 -13.747107606528767 120 47 29
0.9325919561870197 -1.3736310966225656 -13.757977298430413 117 45 27
0.9082678067591887 -1.3786237189663983 -13.77974931704441 115 44 26
0.8928312446043591 -1.38250993028701 -13.808826858072333 116 45 28
0.8299977918043631 -1.3922903539199367 -13.79881270681485 119 46 27
0.8080258810223659 -1.3969860843872222 -13.822431866812124 126 50 30
0.7833751650690495 -1.4020143221821153 -13.843828327574746 143 69 40
0.7615841704007709 -1.4066874599345314 -13.867594698897385 162 98 71
0.7178924888996292 -1.4140735506317146 -13.873072896979272 167 117 97
0.6737363806086014 -1.4215122084971181 -13.87805774334172 139 97 81
0.6311547509426392 -1.4287511629906047 -13.884258191022145 119 69 47
0.5689084161752129 -1.438414514955194 -13.873791583990108 142 79 48
0.5349270365497425 -1.444580443041644 -13.887010641606933 143 73 38
0.490240198006501 -1.4520635481278055 -13.891099519051275 122 49 24
0.4424641707573844 -1.4599219343870373 -13.892451595147543 118 44 28
0.3860733490630368 -1.468834490596456 -13.886333718180829 115 42 27
0.38548078095716143 -1.47087894061119 -13.927743853705522 113 40 22
0.38297899492115306 -1.473162913107942 -13.967623852300953 115 40 22
0.3588010261448984 -1.4781113634116063 -13.988963814052035 116 41 23
0.270484373013546 -1.4909222428724933 -13.954985124565804 116 40 23
0.18856340757998424 -1.5029341847109072 -13.926205344304101 114 39 23
0.1593052127653527 -1.5084883296934377 -13.942800903863361 105 36 21
0.1346914191200197 -1.513473011699194 -13.963399428136807 96 34 20
0.12435579090679738 -1.5167134173079075 -13.996440428870905 91 32 18
0.14909834758713725 -1.5156770580959442 -14.060230950360047 97 35 18
0.13603441247711334 -1.5192597085287238 -14.09108456844596 106 43 25
0.1566412600911189 -1.5187447360148683 -14.151614496290016 115 52 33
0.14782715712528827 -1.5218187644970729 -14.186395945455734 113 50 32
0.08340972380717471 -1.5316528692371052 -14.172028761142714 91 29 13
0.07837730331893855 -1.5342674783281383 -14.210160243740614 85 23 7
0.06282238534255846 -1.5381623421047221 -14.239011200868589 86 22 5
0.02306736717848068 -1.5449907678509176 -14.246288282915106 95 29 11
0.015796245757637273 -1.5478832122492652 -14.282561301336983 111 41 19
0.0005243379417114724 -1.5517466495815018 -14.311725793013672 123 55 29
0.03665544823845934 -1.549402783346413 -14.387221512021904 119 54 30
0.04868446022030426 -1.5499815279442766 -14.441250468116746 109 40 16
0.01320292840742443 -1.556295786953222 -14.45241954625153 128 53 28
0.007942703703301746 -1.5589674937836657 -14.49097476424808 124 43 25
0.023195567864123134 -1.5591757220482594 -14.548308926807593 108 33 22
0.02236109308424261 -1.561326496205006 -14.59114044755427 97 32 20
-0.019717175521294372 -1.5684338379697977 -14.596288767176809 105 42 27
-0.011185467569685414 -1.5694669062195175 -14.647845768427187 112 51 32
0.03033102335976512 -1.5665561437643456 -14.729969236349529 100 49 32
0.1400834456192781 -1.5660177690956594 -15.099218331664911 11 8 8
0.11407808189403124 -1.5712318618199266 -15.119867290469564 11 8 9
0.07279355835702894 -1.5782600460298957 -15.126085939898545 12 10 11
0.05189603177120272 -1.5828643961336766 -15.15148901439876 17 15 16
0.037288887755075883 -1.5867236069629878 -15.182869496649754 10 10 11
0.06417887490370155 -1.5856716419812253 -15.253776965867745 5 5 7
0.048305498306691064 -1.589690132272162 -15.284151627780833 5 5 7
0.0662534709636331 -1.5897147159031328 -15.346929901535706 5 5 7
0.14402448049041716 -1.5826901025709654 -15.467346799715674 6 6 8
0.06927475389371374 -1.5936709430809963 -15.441520197620651 7 7 9
0.03567468352615499 -1.5997928721152126 -15.455126460012657 9 9 11
0.04419771081348589 -1.6009575151931104 -15.509450667279038 10 10 12
0.009853438104901358 -1.6071667763208153 -15.522332240205841 11 10 13
-0.049670672426946005 -1.6163280188711793 -15.510633152700057 12 11 15
-0.09154366649834245 -1.6234104498964728 -15.515963893174046 13 12 15
0.013691877201335245 -1.6132627329406308 -15.665248208414386 12 12 14
-0.02002932876583241 -1.6194011771824568 -15.67878540899351 11 11 13
-0.10905555277520573 -1.631997767426003 -15.637789604665237 10 10 12
-0.20079409285261995 -1.6448932082089596 -15.593739310405493 8 8 9
-0.16105638143369383 -1.6424456664330005 -15.679540973508985 7 6 7
-0.1980719067504273 -1.6489507680143856 -15.689446496916812 6 5 6
-0.23350558132033772 -1.655268105503699 -15.700847025424881 7 6 6
-0.2722590917027272 -1.6619676504315852 -15.708857967842341 8 6 7
-0.288231114303632 -1.6660198244283098 -15.739606583868376 8 6 7
-0.3468455225437861 -1.6750153308220028 -15.72753935920883 9 7 8
-0.3614799468180694 -1.6789105948434133 -15.759591715811702 11 9 10
-0.3979064428008652 -1.685327437307445 -15.769663975738014 11 9 10
-0.40787864087836745 -1.6886858123525574 -15.806473658266725 14 12 14
-0.39598017541475183 -1.6895252613033147 -15.865592436353156 35 33 35
-0.3943160459110189 -1.6915532277071794 -15.914479868274526 65 64 65
0.16337701420955852 -1.641227500166356 -16.778995264463 90 88 90
0.12350548810019202 -1.6481247007694921 -16.78733039076979 93 91 92
-0.02761590563112204 -1.6700382655517352 -16.729028243639544 101 99 100
-0.10767649792783018 -1.6814851129443127 -16.694687425876964 104 102 103
-0.16839591161413026 -1.6907177142458287 -16.680359330851275 109 108 109
-0.23918964446522573 -1.701083280535536 -16.65517387492845 114 113 114
-0.3007773216907452 -1.7103916515168889 -16.639444942872295 119 118 119
-0.2854322494225858 -1.71565134181822 -16.80449439244539 138 137 139
-0.4450909556887961 -1.7383366612312148 -16.732986825560584 147 146 149
-0.5441609004534573 -1.751819344074329 -16.67599122249582 151 150 153
-0.7687177916237484 -1.7863097262191034 -16.630352001325136 163 163 166
3.3244075607270034 -0.9570613899253404 -13.959857216378472 132 107 100
3.1015962116920823 -0.9900930189604427 -13.882540752642647 114 63 54
2.9896660092105645 -1.0066509143281421 -13.842925181914154 112 62 50
2.8200720122011136 -1.0307009167174181 -13.760342120640662 114 62 48
2.722122842766125 -1.045398094438963 -13.730183923118716 122 67 50
2.6501406823168487 -1.0567036894351474 -13.71898888132587 146 79 53
2.5874918900879624 -1.0667867748616429 -13.714534463517104 134 69 41
2.529683882680228 -1.076233431010868 -13.713524587657497 128 64 35
2.4720848256995085 -1.0856459845406015 -13.712519293663382 134 67 40
2.4297899080031433 -1.0930677580008246 -13.72286656624226 123 56 36
2.383597394037958 -1.1009904894432403 -13.730191237573706 118 52 33
2.319306523998266 -1.1112508249708408 -13.723728776804444 118 53 35
2.29048928056494 -1.1169153898810835 -13.74398645692662 117 57 39
2.175974326822751 -1.133652140553711 -13.699033838782032 121 59 39
2.097488602861179 -1.1457182707998572 -13.681157523352043 130 62 38
2.0606010152278804 -1.1524064977020039 -13.694860675171377 129 60 34
2.019823596135237 -1.1595932708035888 -13.705516526207223 122 56 30
1.9725364475353206 -1.1676148011091467 -13.711081939009752 105 43 23
1.9213498889577014 -1.176133101842819 -13.713527283140046 105 43 26
1.9699323318579385 -1.1718163132386856 -13.793087874266412 113 52 34
1.8827676105763445 -1.1849558967971512 -13.767567043090597 117 57 39
1.7908514071455768 -1.1986919782277865 -13.738052635349451 118 60 41
1.7167724620366984 -1.2101254749614634 -13.72215461391654 139 82 57
1.648309349167567 -1.220828381839064 -13.710420750790478 134 77 45
1.585164410376719 -1.230840563960361 -13.702655133108056 128 66 29
1.5222517880267983 -1.2408144414903275 -13.694886169214236 160 94 50
1.4639161269429435 -1.2501946015934664 -13.690548431308013 165 98 52
1.4094941815156528 -1.2590672035355521 -13.689147394440944 132 64 36
1.3993029171672813 -1.2622876597349426 -13.722760665398198 110 43 25
1.3298306880701842 -1.2730706889620351 -13.709166872631265 114 47 28
1.2920122845141142 -1.2798103359709727 -13.720665807773724 121 48 30
1.2423237209194733 -1.2880578942462586 -13.722573459002646 128 53 33
1.240391955488552 -1.2902247914398433 -13.76276658762793 131 57 35
1.1482189585886857 -1.3038652859342934 -13.730258726384694 131 56 34
1.1123314611499566 -1.3103432027301896 -13.742960626981624 128 54 33
1.0848159089288405 -1.3157559926270015 -13.76239227492376 125 51 31
1.0361879088965367 -1.3238440324148062 -13.764618170001409 120 47 30
0.9770806086027539 -1.333253608741062 -13.758166086928755 118 46 28
0.9261615812789783 -1.341618914918746 -13.758241541405855 116 44 27
0.8941478380818122 -1.3475876014212445 -13.77370120729812 113 42 26
0.8607592544929901 -1.3537278271345063 -13.787982356974727 119 44 27
0.8293346406829674 -1.3596177167810828 -13.803832052306115 129 51 27
0.7954884965415312 -1.3658109469184134 -13.817632201734165 143 70 39
0.7727220945577615 -1.370605632118851 -13.840579589973167 157 96 66
0.7338266688741459 -1.3774305553312696 -13.85008826942517 159 113 95
0.6844860914540254 -1.3855654413873149 -13.85078933244462 146 104 89
0.6388875563466234 -1.3932240333467574 -13.854493854513358 127 76 52
0.6138461014699361 -1.3982965289257223 -13.875359626874031 148 84 53
0.5391428110717831 -1.4095975681878572 -13.854355366275033 140 67 32
0.5086582740299965 -1.4153452802257684 -13.870470170275418 127 51 23
0.46662792858663327 -1.4225366948099807 -13.876755872264242 118 44 24
0.4273888807329973 -1.429374411126093 -13.885316345673221 114 40 24
0.3823394201700019 -1.4369343894616673 -13.888837346236887 114 40 25
0.3606775254432053 -1.4415688579778376 -13.912244617538978 115 41 23
0.3211576616959171 -1.448431175006203 -13.92033758472203 117 42 23
0.2999366749948127 -1.453008809520385 -13.9440832160302 118 43 24
0.24523393885657896 -1.4617557369994996 -13.938949292549486 118 43 24
0.1826215839245764 -1.4714790967906197 -13.926808083725373 115 40 24
0.13983615147881512 -1.4787288022888907 -13.931665951560152 108 36 21
0.1012482092071485 -1.4854524526445567 -13.940071218058948 101 36 21
0.11398376878884253 -1.4858052711323908 -13.993184181464187 95 34 19
0.1204269692286335 -1.4869460312902938 -14.040965083808889 94 34 16
0.13024934392674048 -1.4876750133876318 -14.091856497252074 100 38 21
0.11209128202524976 -1.4918727443783701 -14.118276750202714 112 47 29
0.17126069948631084 -1.4865147509542633 -14.212991140984261 121 57 38
0.05234178953680413 -1.5031641964818638 -14.150426078877238 109 48 30
0.05534791608245815 -1.504751264762801 -14.195640194141848 84 23 7
0.03296641127233624 -1.5094728160775681 -14.218371874858612 85 23 8
-0.007889560943633356 -1.5164687200040938 -14.224599837451173 87 23 8
-0.049892311189370986 -1.523601175793626 -14.229702840635088 100 33 16
-0.030522014761351635 -1.5251619061479662 -14.332739397424259 126 58 37
0.015959792497972636 -1.5214411600667301 -14.41775593714135 125 58 35
0.007795532040881348 -1.524431804085395 -14.453608670760936 117 50 26
-0.030871088416983383 -1.5311590861402211 -14.461812094486785 131 57 36
-0.03328573863398976 -1.5334497854489209 -14.502972283981013 120 47 32
-0.011426184383065419 -1.5327801807016195 -14.566426595455253 106 41 28
-0.04959115528022018 -1.5394459807773584 -14.575084132215606 105 47 33
-0.07095548804470386 -1.5440597853105857 -14.599104212178423 108 51 34
-0.058860519961257296 -1.5445989993409366 -14.653981618841229 115 56 35
0.04536665655800398 -1.533937757793016 -14.794243229586518 88 45 28
0.13144388813423902 -1.5358375853931558 -15.14268887847704 11 9 10
0.09383827988564786 -1.5424617794882325 -15.152438378899744 14 12 13
0.057474667170549054 -1.5489323683366438 -15.163282048900173 20 18 19
0.023373599449690197 -1.5551267879191577 -15.176198362212364 21 20 22
0.028303011718091575 -1.5566184955455065 -15.226203450117112 7 7 9
0.035028356849418074 -1.5579011556803173 -15.278074650103877 6 6 8
0.030877944919338596 -1.560498122199272 -15.319696023873476 5 5 7
0.11538628829486974 -1.5524577839752565 -15.446543981970756 5 5 7
0.03741216685184501 -1.5639274505168799 -15.417532176470505 6 6 8
0.03841128210887046 -1.5659237607763845 -15.46447717012078 7 7 9
0.006976741823684129 -1.5718068676005394 -15.480144052985823 8 8 10
-0.030876248680809404 -1.5784549106378467 -15.489529017615014 9 9 11
-0.049484838925577534 -1.5828014527217247 -15.517575237407703 9 9 11
-0.05142757112309315 -1.5851614704067534 -15.561925727966297 9 9 11
-0.09056629070329425 -1.591958183168444 -15.569953213355898 9 9 11
-0.12348978043565229 -1.5980110317180676 -15.583995328015938 8 8 10
-0.1611252843515958 -1.6046213802841764 -15.593337284682537 6 6 8
-0.16364659511427337 -1.6070583343723122 -15.637294968384703 5 5 6
-0.14049211577968723 -1.6064551908471791 -15.70681435676162 5 5 5
-0.17987603615599213 -1.6132736377824242 -15.714439137001024 6 6 6
-0.23399585767102327 -1.6218316883653368 -15.707281033411473 6 6 6
-0.2500927333513161 -1.6258865972067793 -15.73795301504097 8 6 7
-0.30021384346820135 -1.6339609502936874 -15.734553406531493 9 7 8
-0.3281494824931661 -1.639411288865602 -15.753301925049943 10 8 9
-0.3330388031675948 -1.6421450399380544 -15.795258857934853 13 11 12
-0.35699447172222065 -1.6471273487724827 -15.818039454844858 19 17 18
-0.3625469779235315 -1.64994610312684 -15.859476957725407 41 39 40
-0.3620348854679536 -1.6520574407724804 -15.907183571616034 64 62 63
-0.36405956091903047 -1.6588460424942022 -16.04747450841945 79 77 78
0.09752739558182988 -1.6161962348122827 -16.767847960841795 94 92 93
0.02317855275750702 -1.6271258777627675 -16.740038110724733 97 95 96
-0.041393260176695534 -1.6369069353235042 -16.722158438041227 100 98 99
-0.11431829568409757 -1.6476448551462013 -16.695263245020072 105 104 105
-0.12884193968194246 -1.6516080198675058 -16.72955563514173 109 109 111
-0.24034175361345422 -1.6667869600581797 -16.66151127491585 114 114 116
-0.3022303116562597 -1.676211741163227 -16.64546480455814 120 120 122
-0.4019546997379102 -1.6899900351150907 -16.58900453619807 125 125 127
-0.2582483719360642 -1.6757017988653256 -16.791331253054086 132 132 134
-0.2926170663689227 -1.6819511704732846 -16.804486657264675 137 137 139
-0.4618276320578918 -1.7036941188218107 -16.67313971101921 142 142 144
-0.6192662969270231 -1.7308544405320125 -16.70151942141324 157 155 160
-0.6618708296403204 -1.7380035989022051 -16.704837938485593 160 159 164
2.7869719275859763 -1.0001987061258957 -13.741163966757334 115 63 51
2.73023427007777 -1.0095900456470173 -13.74146390319924 121 67 50
2.6430333350503608 -1.0229911630801807 -13.71898009270247 145 80 58
2.5850077924824513 -1.0325360242025874 -13.717961308771011 126 63 39
2.527185503326848 -1.0420472665602096 -13.716941987641947 138 75 44
2.473624425367742 -1.0509911293098197 -13.718965429885689 155 87 53
2.4097052519314603 -1.061290472090446 -13.713065951656763 127 60 34
2.35192352725993 -1.0707755859650843 -13.711615012871489 120 52 32
2.288746091366262 -1.08096192992193 -13.705928828271666 120 54 34
2.267537077663932 -1.0856364401374363 -13.731905113839655 118 55 38
2.182362969557122 -1.0986933924891797 -13.709217702991786 119 57 38
2.112819097512012 -1.1096911998673296 -13.698180504123094 126 61 39
2.057939273542738 -1.1187609888684038 -13.698158682305941 130 63 37
2.0097434610847387 -1.1269504793783 -13.703124674636824 126 60 33
1.9616785034119903 -1.1351177582135683 -13.708077702348799 113 49 26
1.907035859562309 -1.1441385242839726 -13.707837652180887 105 42 24
1.9742347445385509 -1.1372611090501783 -13.801821675575509 111 49 31
1.8705099251713175 -1.1526781260015755 -13.76344450991518 118 56 38
1.808476884658993 -1.1626492851063885 -13.757179815418095 119 57 40
1.701311844477912 -1.178484968933142 -13.71547065830335 121 61 45
1.632620981882738 -1.1893009332064892 -13.703525638782326 121 64 42
1.5739563726638695 -1.1988048443828068 -13.69924974543887 150 84 44
1.5139920453494122 -1.20847000699979 -13.693783436661299 163 92 45
1.4542731176671868 -1.2180955773905442 -13.688338648314346 142 73 35
1.3953476285410078 -1.2276105773900916 -13.68335100295786 125 59 29
1.3762768922717825 -1.2319569850640668 -13.709889949250108 115 50 29
1.3185698795345884 -1.2413032799901316 -13.705628707906929 113 47 27
1.2766772800256332 -1.2485976236562177 -13.71385397472265 116 47 28
1.2338493820624148 -1.2560087075667623 -13.72123817744569 122 49 31
1.194436206458934 -1.2629747495646786 -13.731274639900107 131 56 36
1.0939207512967952 -1.2778173587794026 -13.691920850916837 131 56 36
1.0854278740027983 -1.280785317544882 -13.726679470341345 127 55 35
1.0670397431515237 -1.285030295530136 -13.753471608742124 123 52 33
1.0160263906839706 -1.2934732542679426 -13.753721697421629 118 47 31
0.9711910952774074 -1.301115959114868 -13.758880010951579 115 46 28
0.9265329745856263 -1.308731082378666 -13.7640761582391 115 45 27
0.8778074805919474 -1.316863338577723 -13.765824934022355 114 42 24
0.8431527084674055 -1.323185804905094 -13.77903708611548 124 47 24
0.8162333449703931 -1.3285146338398306 -13.798580104018416 143 67 36
0.7889964924120223 -1.3338830952706389 -13.817837726917356 157 94 63
0.7558567750681142 -1.3400053921553499 -13.832166381926754 153 105 83
0.7099082579431988 -1.347762027548977 -13.835767721931333 134 95 80
0.6614472146129495 -1.3558342512738848 -13.837153784671546 132 84 63
0.6191354617427969 -1.3631163066067102 -13.843566528999204 152 86 51
0.5707949316584378 -1.3711623063080425 -13.844812486169058 140 64 28
0.5226039806771716 -1.3791834824174996 -13.846056209663269 129 51 22
0.4876193012396204 -1.3855186626985385 -13.85833919862121 122 46 24
0.44742007691510555 -1.3925138520673241 -13.866136353761998 118 42 24
0.4021968619234597 -1.4001430972372226 -13.869570831440486 117 41 25
0.36137421874681763 -1.4072087622260234 -13.8766443422128 116 40 24
0.3486257586349799 -1.4107108642789514 -13.907642323922271 118 42 25
0.21664129895193085 -1.4330826855976757 -13.92001651353716 118 43 24
0.16242244313043397 -1.4418216710855427 -13.915071485638206 117 41 24
0.002966453462608598 -1.4657114306491545 -13.860278678621901 104 35 20
0.0020804229777020566 -1.4677030057778664 -13.901279379863695 101 35 20
0.020931395813756026 -1.4672148728118768 -13.959668233788417 97 37 19
0.06853522809923618 -1.4631199569191207 -14.043513801301726 94 35 20
0.08717631485523114 -1.4626801399737224 -14.102205420592284 103 39 24
0.011627057780043693 -1.4740737955881544 -14.077907863731362 116 51 36
0.08348528661336996 -1.4688867319760899 -14.22656608479187 98 40 24
-0.02030826952568532 -1.4838048336495546 -14.176850038088485 86 24 10
-0.1242607902091164 -1.4987237975102026 -14.126569306536512 88 23 10
-0.027385394127776408 -1.4943256804227245 -14.384641582533003 125 60 39
-0.035577282915470576 -1.4972879383631685 -14.4203789914944 127 63 39
-0.04935153238177037 -1.5009477384291796 -14.451113679885594 123 57 33
-0.06464204042767818 -1.5047979044368116 -14.48050959989489 130 62 43
-0.05529926677013641 -1.505591989379753 -14.532469063036134 119 54 39
-0.10760279765552294 -1.5140383165916567 -14.528055446995072 111 54 39
-0.12667450882698272 -1.5183603421096952 -14.554049015378105 108 55 38
-0.07171481305332872 -1.5135202016562475 -14.648351454604025 113 53 34
-0.04860791921332375 -1.5126371927758915 -14.713596856681189 118 59 35
0.06258271676708027 -1.5170468475166332 -15.21996402512533 20 19 21
0.028017063730039204 -1.5233240525520855 -15.232497739222659 7 7 9
0.04289687934568143 -1.5235508101423916 -15.292186986740944 7 7 9
0.026883434656328475 -1.5275615188413896 -15.32249513992668 6 6 8
0.08777640858010738 -1.5221868558493645 -15.426711613949456 6 6 8
0.04067044957420585 -1.5300017417340748 -15.427356299274365 6 6 8
0.025064048321094212 -1.5339736621985616 -15.45829752235786 6 6 8
0.009318585170815297 -1.5379643220348826 -15.489144408811713 7 7 9
-0.06188017753964381 -1.5486974894126344 -15.466148561525316 8 8 10
-0.10044197782292041 -1.5554553350026132 -15.474685603237457 8 8 10
-0.13616884097900428 -1.5660259137966512 -15.578357741729452 5 5 7
-0.12467164403907915 -1.5667246720654548 -15.636111691935811 5 5 7
-0.12948885268833088 -1.5694028982532977 -15.677932109992042 4 4 6
-0.13801246777448828 -1.5725329951558442 -15.716180716847333 5 5 5
-0.16760688102774335 -1.5782066005136173 -15.733560132713366 5 5 5
-0.2171500874654786 -1.5862804721681667 -15.731008255190499 6 6 6
-0.20965777706580546 -1.587487310437942 -15.785343168936768 9 6 7
-0.24137814194041507 -1.5934133770208438 -15.800524364144154 11 8 9
-0.27783663161131766 -1.5999058125558672 -15.810888734122887 15 12 13
-0.29462826765854544 -1.6040368921400099 -15.841013521434016 29 27 28
-0.27620775559192445 -1.603952668365591 -15.906796672388763 52 50 51
-0.32760823864035427 -1.6229397400167103 -16.139926254091602 80 78 79
0.026113983244643535 -1.591959127995793 -16.750652102495266 96 94 95
-0.14477158251120148 -1.6188404230175826 -16.720355932834416 110 110 112
-0.32017935516849416 -1.6484014763273553 -16.73299770590208 132 132 134
-0.38940632855270163 -1.658751626761017 -16.70873278719226 137 137 139
2.7808683919311026 -0.966175922459787 -13.741922468180784 115 63 52
2.7386005453019138 -0.9736918707495936 -13.752941279569026 115 62 50
2.6395032965041496 -0.9887995899681772 -13.721630840685208 129 71 52
2.582519946953374 -0.9982681342172204 -13.721388052250738 132 69 45
2.5234559308379874 -1.008007853008687 -13.719441358496201 148 80 51
2.460867754438695 -1.0182106179749364 -13.714693683779982 141 75 40
2.402472464823659 -1.0278469769147636 -13.712926218059515 125 59 29
2.3420974122548417 -1.037740111812921 -13.709509111412732 121 55 30
2.276873317618697 -1.0482712173155377 -13.702257242375289 118 52 30
2.2474933188210224 -1.0540279640859973 -13.722022298328884 119 54 37
2.2030138734544593 -1.061789751267264 -13.73026600864744 118 56 38
2.122585333214638 -1.0743202932707154 -13.710968281289125 122 60 38
2.036721258236434 -1.087560618275316 -13.687250336795334 129 64 38
2.0018243310690167 -1.0940316981782285 -13.702390792202976 125 60 32
1.9483441412235791 -1.1029621721801914 -13.703163878108722 122 56 32
1.8950383838785605 -1.1118634758240908 -13.703933476903316 108 46 27
1.8398225874703868 -1.1210113539421345 -13.703085198883475 108 45 28
1.833382589682543 -1.1237060340413871 -13.739992996216195 115 52 35
1.7614669087179022 -1.1350514019904445 -13.72594586874159 120 57 39
1.6930304743994888 -1.1459277326090263 -13.714393648829457 117 56 37
1.6241979232492598 -1.1568470800145756 -13.70232130482787 134 69 44
1.5629500868200967 -1.1667576867928788 -13.696000549368225 164 98 55
1.5011081242236148 -1.176738693903352 -13.689033365755048 139 72 33
1.4451842135759936 -1.1859331337122934 -13.686565581247935 128 63 37
1.3875611673005848 -1.1953441464461785 -13.682595468891304 149 86 52
1.3498800042379209 -1.2021284778027987 -13.69432773930391 144 80 50
1.3242607121356746 -1.207326538327563 -13.715614006540369 115 48 29
1.2767919622722603 -1.2153895645796358 -13.71940085792659 111 44 25
1.2388780864119475 -1.22219530350886 -13.73073971101709 118 48 30
1.1634850367943352 -1.233905553726987 -13.71183679934433 127 52 34
1.0986755077159946 -1.2442200727102308 -13.701228696574336 130 55 36
1.0834227644837062 -1.248046897027861 -13.730546082147736 125 55 36
1.0615455756203165 -1.2527405847567137 -13.75451802579904 119 52 33
1.0030107952581222 -1.2622192108491705 -13.748636927817682 117 49 30
0.9561594737280306 -1.270166475952398 -13.752127052083894 116 48 28
0.9155009828166536 -1.2773015620053774 -13.760573503680618 117 48 27
0.8683923056528338 -1.285272678961314 -13.763632582289826 126 51 28
0.8375890802532284 -1.2911171187952466 -13.78000869930958 139 68 35
0.8064382791807745 -1.2970049418179774 -13.796056605419032 152 95 59
0.7743974562427152 -1.303006490625292 -13.811324013826262 144 97 75
0.744545669120968 -1.308721851045143 -13.828363839010786 122 75 60
0.6741146423685374 -1.3196979233235406 -13.81153569724988 134 82 57
0.6253661698312465 -1.3278541967641644 -13.812602616283158 152 87 54
0.5767697666835723 -1.3359850800805015 -13.81366741489147 140 64 31
0.5324275206971167 -1.3435599614201876 -13.818180684926684 130 55 27
0.5073783742844533 -1.348636408880176 -13.838858357681895 122 47 27
0.469279359657496 -1.3553975049247804 -13.848482052792399 119 44 27
0.432989518627684 -1.3619216842419308 -13.859561721016613 118 41 25
0.01598738582139614 -1.4320730227548861 -13.87735693489091 108 36 21
-0.021599896255744433 -1.4387216391193813 -13.886358765357858 106 36 21
-0.009306514151858458 -1.4389909268765857 -13.938974710971117 101 37 20
-0.006975517051214908 -1.4405401252361323 -13.98301178885704 91 33 19
0.005685854256995526 -1.440776619255872 -14.036273902080852 94 35 22
0.020930929423021105 -1.4406914970256972 -14.091995612048365 108 44 31
-0.012164326903842948 -1.4467719234232395 -14.105068438935398 113 55 39
0.007832300823213068 -1.4460934486410733 -14.165270602711491 111 55 40
0.06383897125016791 -1.4408460009533173 -14.257786777779321 100 38 26
-0.04697571084164398 -1.456807751617003 -14.201577447445239 93 27 13
-0.14118534898495128 -1.4706417943967607 -14.159794780636663 88 24 8
-0.09700737044805052 -1.4706796462176819 -14.327736754202402 120 61 41
-0.0637450148514036 -1.4683650753558857 -14.400913125948211 126 64 41
-0.05788252680104211 -1.4695250298180018 -14.449456814045568 131 67 42
-0.07347351014974635 -1.4733994429413404 -14.478576911106519 128 63 40
-0.08792110332124015 -1.477131179280462 -14.50877754166234 134 67 51
-0.09825716292056974 -1.4803466795426181 -14.542791323322184 119 58 44
-0.12029571619284951 -1.485038000851243 -14.566099184830911 110 55 38
-0.1053359967663221 -1.4850764843117439 -14.623551869372434 105 53 37
-0.1112009262143081 -1.4877401263943097 -14.661928925523704 118 59 38
-0.025812742652415288 -1.478953199250148 -14.785095640109265 111 57 35
0.02288623257344824 -1.494612605739658 -15.325294182884008 7 7 9
0.0509158417306077 -1.4931466422924453 -15.397973475746511 7 7 9
0.034359761146763645 -1.4972200230623995 -15.427967124667743 6 6 8
-0.01618547584618657 -1.5055041510757374 -15.425145459402279 5 5 7
-0.06441530119154582 -1.513495022510018 -15.424413468865843 5 5 7
-0.09917707894313388 -1.5198150669123422 -15.43663124800036 6 6 8
-0.13508120213275987 -1.5262731974665733 -15.447668076212388 6 6 8
-0.2065908171617199 -1.539142882185257 -15.469812237944375 4 4 6
-0.04620105523992901 -1.5214278660133183 -15.673654123203633 4 4 6
-0.05797000014227738 -1.5249294590985611 -15.708753081665717 4 4 6
-0.06580335226670009 -1.5279503745095433 -15.747808207013072 4 4 5
-0.1363960127500059 -1.5386770646249734 -15.724699028661254 4 4 4
-0.16446422863438315 -1.544178422256276 -15.74361895012374 6 6 6
-0.1983711890444777 -1.5503935549613463 -15.75668447266869 8 8 8
-0.22244151851324556 -1.555402456838422 -15.77952837974708 13 9 10
-0.20717394248457843 -1.5556033140231775 -15.84183696828312 18 14 15
-0.21723761204049286 -1.558906567492845 -15.878876011772702 29 25 26
-0.3217492800013799 -1.5883579868387352 -16.153194140052683 79 77 78
-0.40961119671917157 -1.626794730758027 -16.694764290885608 137 137 139
-0.6982697333815553 -1.6741923910392262 -16.68064792459736 161 160 165
2.9528947762213598 -0.9079845527987103 -13.874369969504796 115 63 52
2.8027743200886848 -0.9301714717687022 -13.805807428996385 112 62 50
2.6558291426304024 -0.9519043599762143 -13.739050173738462 118 64 49
2.5951839817472253 -0.9619314987507128 -13.736119132755007 140 77 54
2.527622982965415 -0.9728871211250354 -13.727850233835209 141 75 44
2.4583730654801643 -0.9840626540971931 -13.718118706978025 129 63 35
2.3891795586298628 -0.9952218175166423 -13.708225999391093 139 72 39
2.320455764727611 -1.0063088044866682 -13.698483683297205 135 67 37
2.2639757085637715 -1.0157355037402866 -13.697807244482782 119 50 30
2.195624866321669 -1.0267559382115086 -13.687969185206963 121 54 30
2.1857127575471287 -1.029896058663115 -13.722429732101677 122 57 34
2.111671877211063 -1.041670597763368 -13.707971618101492 120 57 37
2.0263583212948735 -1.0549515061612331 -13.684649052776965 125 63 41
1.9930902586951769 -1.061225023562153 -13.701030404820433 128 62 36
1.944217937403022 -1.069592363635892 -13.705341791633266 131 66 38
1.8869210654583544 -1.0790853386885244 -13.703025162113367 121 58 33
1.8285615797330381 -1.0887141127536597 -13.69972867271441 106 45 26
1.8418345111046905 -1.0887360510751198 -13.75195656483563 112 50 33
1.7642924002827813 -1.1009268495426032 -13.73354402650169 122 59 36
1.6915099270154634 -1.1124699499667137 -13.71860277135723 123 59 38
1.6157758792339258 -1.1243978666908856 -13.701116998425187 130 68 41
1.5524911098437633 -1.1346518130686392 -13.69317953452859 152 89 51
1.4910771980895996 -1.1446479069532662 -13.686530561817932 126 62 33
1.429903323970759 -1.1546042637789755 -13.679892050701323 148 81 49
1.3743653677623637 -1.1638015400999735 -13.677546910160022 170 103 61
1.3404585090712962 -1.1701105053987737 -13.692264233383627 149 85 52
1.3148150056940784 -1.175317178251487 -13.713524753221753 119 52 32
1.272702257188083 -1.1827139756259633 -13.721586243276654 111 44 27
1.2309296594140733 -1.1900616184811674 -13.729829100317552 114 46 30
1.138215819311509 -1.2041712688562687 -13.696959688810706 123 49 32
1.0880100122409289 -1.212625171853153 -13.698089865215264 125 51 34
1.052069674333712 -1.2191816210829856 -13.710643734541714 121 51 35
1.0276940109313575 -1.2242028502271445 -13.73252834634575 119 50 34
0.9858347891517143 -1.2315386747959323 -13.740158620756402 116 48 30
0.9451122852470135 -1.2387201125261067 -13.74862488830296 119 49 28
0.9044737121320177 -1.2458866820306431 -13.757072147611996 128 55 28
0.8631445426806295 -1.2531407109598363 -13.764864047617248 143 72 38
0.8259020147239102 -1.2598513838743686 -13.775933372660624 154 97 63
0.795597972703523 -1.2656438131410688 -13.79266712529707 144 99 76
0.7622289748287017 -1.2718385097165772 -13.806820727018293 121 76 59
0.6985932916368895 -1.2820166110161189 -13.795750741136242 134 80 56
0.6543099858224952 -1.2896396452990213 -13.800620160232873 155 87 54
0.5992483574745853 -1.2986751639042606 -13.7963662882232 140 63 31
0.550186122492204 -1.3069156250922165 -13.796984730527896 130 54 31
0.5003425885085457 -1.3152529786880764 -13.79681393668378 123 50 31
0.45190072767944844 -1.3234006329383445 -13.797689664100496 119 46 29
0.4527644388828316 -1.3250809202605993 -13.840161763745078 118 45 30
0.4135249220086381 -1.3320175768697229 -13.848709425008625 119 44 29
0.39012952668114753 -1.336877480057459 -13.870658931509908 119 43 29
0.17956103055828976 -1.3662075264983282 -13.732811482092526 119 43 27
-0.06865324303124698 -1.4146352876203951 -13.892755808934622 104 39 20
-0.039214350675989884 -1.4126171028186647 -13.96049210403878 93 36 19
-0.022843983137694757 -1.4123031162834632 -14.016970746782594 93 36 24
-0.008647730408855026 -1.4122789359446035 -14.071722956658975 106 41 26
-0.035029960717792186 -1.417510524742206 -14.090684953524082 113 52 35
-0.01230137270938858 -1.4163952908160056 -14.153289997901265 113 55 39
-0.03130384512676798 -1.4206775825601583 -14.178913084994235 116 57 43
0.023026664677314734 -1.4155011347841375 -14.270133483139638 104 44 28
-0.07468875215320558 -1.4299375059026196 -14.225379719102762 92 28 13
-0.16934250570424592 -1.4439627094226477 -14.182986132953864 86 23 7
-0.2662556678133292 -1.4582622997901944 -14.138174904133654 98 38 20
-0.13182105237674513 -1.442806527474051 -14.302277809968817 120 62 44
-0.15551689148693182 -1.4476949422744232 -14.323720226450831 121 63 43
-0.13294781558290047 -1.446646307176092 -14.387253748664895 128 67 48
-0.09072730983686483 -1.4430883430368142 -14.468956415703232 136 71 51
-0.057551854518504975 -1.4407035743793293 -14.542720234759834 134 68 47
-0.11787645732172436 -1.45029734407241 -14.53095208115452 131 66 49
-0.13790832358200156 -1.4547304212228314 -14.556073538695156 117 56 44
-0.15091475739705995 -1.4582664857782528 -14.587692334041078 106 53 42
-0.16685374656609664 -1.4621789409132369 -14.616644620149987 112 56 41
-0.1149467907227466 -1.4574411722384208 -14.708631498563252 126 64 42
-0.05095953745527826 -1.478332496000064 -15.444175345224783 4 4 6
-0.10901851169123589 -1.4876063509234996 -15.433789461899798 4 4 6
-0.15443251934760482 -1.4952845996964323 -15.435538210341903 4 4 6
-0.20476735154628578 -1.5035743922246634 -15.432346170537947 4 4 6
-0.20075815111706952 -1.505049816907554 -15.482306574636212 3 3 5
-0.06924474326995433 -1.4905748264044716 -15.657853675710527 3 3 4
-0.08622108177680232 -1.4947025705890133 -15.687774579810107 3 3 3
-0.11814862478095467 -1.500699234695106 -15.702935766666027 4 4 4
-0.13504410823456148 -1.5048179788006144 -15.732962252223142 5 5 5
-0.14779459729126465 -1.5084215022784846 -15.76714834967508 9 7 8
-0.170593845603614 -1.5132789586178028 -15.791363765285084 14 12 13
-0.2004097605738746 -1.5190094027599805 -15.808556850018077 21 19 22
-0.16679834890983258 -1.5168549712004264 -15.889380173380244 28 27 29
-0.8370613381778176 -1.6590217144059345 -16.586496621340224 164 163 168
2.9636266498877415 -0.8713159119828944 -13.887629350466248 115 63 52
2.8084140100769543 -0.8944326504399203 -13.815294995864758 114 63 49
2.6380203979910135 -0.9196091167365148 -13.731087871497774 116 63 49
2.5809358352232126 -0.92921412061631 -13.730780310309429 136 76 56
2.5094935845945203 -0.9407812194512193 -13.71957924292147 133 68 44
2.442815124133773 -0.9516867595052843 -13.71174111777879 136 68 39
2.381452862849689 -0.9618564142156498 -13.70771282364726 156 85 48
2.3196339429591077 -0.9720814414405878 -13.703170378799953 138 66 39
2.258168449314926 -0.9822509330387188 -13.698723563118538 120 49 32
2.200939568047718 -0.9918344257928773 -13.697323544477209 119 51 31
2.162934147150888 -0.9987869429357612 -13.710415041213139 122 57 35
2.1032920257766774 -1.0086886714754943 -13.706908628240193 121 57 36
2.0683919386804606 -1.0152101585348534 -13.72219742337962 121 59 38
1.9988422057226654 -1.0264502675780771 -13.71080258092341 132 67 42
1.937830317026064 -1.0365191104854978 -13.70577831642524 135 69 42
1.8646904364514603 -1.0482307813261464 -13.69120515090207 132 66 41
1.814244336475764 -1.0568474417425635 -13.69399997177631 106 43 24
1.8207135584454575 -1.0577261509595874 -13.740931090582674 108 45 28
1.7587950017352982 -1.06789530323782 -13.734656456508883 120 56 35
1.6928746853529262 -1.0785998657391769 -13.725072334728655 124 59 38
1.6344673333820223 -1.0882775571289245 -13.721184576821516 118 57 34
1.5466034290001316 -1.1019390364724864 -13.693953619920922 125 63 36
1.478986271671869 -1.112846884434024 -13.682400233540282 142 75 42
1.425108835060362 -1.1218872542481224 -13.681513847351091 164 95 56
1.3792931005080673 -1.1298317178864756 -13.686882111306643 151 84 48
1.3353138541008418 -1.137523562381205 -13.693604472287278 126 63 37
1.2994798202189228 -1.1441117073445854 -13.706731118419027 119 59 34
1.2617538586457453 -1.1509524502515203 -13.718280489009494 114 45 28
1.2239025085469626 -1.1578071072048082 -13.72965793179285 115 46 28
1.13145609492486 -1.1720122757080116 -13.696982265318244 117 48 28
1.0875533581106422 -1.1796699353251263 -13.703196997265314 119 50 32
1.038717924347738 -1.187986747976681 -13.705313021933852 118 49 33
1.0221331615288216 -1.1919639990995516 -13.733513579622247 117 48 32
0.9802680363062501 -1.1993374160967305 -13.741136352540789 118 50 33
0.9264880532195692 -1.208305835671279 -13.738926173784709 131 54 30
0.8912780158182585 -1.2147778389068062 -13.75179041222957 144 73 40
0.8561216555547864 -1.2212400579339904 -13.764637000263209 155 96 62
0.8205579904703271 -1.2277542207212564 -13.777085929476371 152 105 83
0.7813268481140243 -1.2347563740188914 -13.786437583336028 127 84 69
0.7531887043903946 -1.2402720757949637 -13.80490892681527 136 83 56
0.6806173086017209 -1.2517223050598458 -13.786386601294126 156 89 56
0.6236750861932272 -1.2610760043577791 -13.780659924382412 140 65 33
0.5731885107095884 -1.2695615224705763 -13.780165886207492 134 55 32
0.5234357765015467 -1.2779434230637197 -13.78014919576637 126 50 35
0.4720984566732698 -1.2865306727342718 -13.778663309006863 122 49 33
0.4562367012361035 -1.2903909912133191 -13.806980282065158 120 47 32
0.40471713901612905 -1.2989940537217655 -13.805139378860776 120 47 32
0.3749094385220104 -1.3047062033059171 -13.821588042580027 122 47 31
0.3813082923342783 -1.3056098107360872 -13.868830073597227 122 46 32
0.25284284297264037 -1.3244103944907575 -13.80103349663288 121 45 29
-0.1314774092443809 -1.3891962456658922 -13.801833677078966 116 44 27
-0.0980853507138395 -1.3865439683113705 -13.872725605899 118 45 28
-0.08341975603886098 -1.3863679155155784 -13.92743311179455 101 39 21
-0.06392487721496831 -1.38556462824461 -13.986584870628988 93 33 21
-0.10430298866564236 -1.3926368199821615 -13.992999358915709 107 42 25
-0.08519261829699509 -1.3918953247246644 -14.052079792197283 111 49 31
-0.07293723993799173 -1.3920618521710415 -14.10527339403749 108 51 35
-0.059038543033449464 -1.392020385501916 -14.160109038380327 113 56 42
-0.06482623990094893 -1.3963552954702223 -14.240202244491641 105 47 31
-0.15486528877243888 -1.4099221175998569 -14.201978287785504 92 29 14
-0.22025647732797893 -1.4202543339310416 -14.185643084458366 89 27 11
-0.29572491977719473 -1.4318922574646038 -14.159959186971008 103 45 28
-0.24058622055540813 -1.4264861625985155 -14.252548577188511 119 63 45
-0.22216495907355327 -1.4258812359781867 -14.312116849119803 122 64 46
-0.19156883789301116 -1.4237002201243234 -14.383013244420152 133 71 52
-0.1509652209456407 -1.420229126966568 -14.463350749800728 141 74 52
-0.1688179260528786 -1.4243692116796811 -14.490340387516154 139 71 50
-0.1420822422825534 -1.422720304144541 -14.55841620267775 129 65 47
-0.1586403910017884 -1.4266993046070815 -14.586765358333622 117 59 45
-0.22225713945782388 -1.43677970617305 -14.571554211342283 112 55 41
-0.23817632507265607 -1.440673163778924 -14.600430516417504 125 64 45
-0.16474496467145627 -1.433005742280209 -14.712584891035952 110 61 42
-0.03440170684164823 -1.433089712575629 -15.238110798547803 10 8 11
-0.1435759309859801 -1.4585643295304078 -15.406899143838025 2 2 4
-0.13731060357348124 -1.4596936546305797 -15.458985727894449 3 3 5
-0.11379029243674665 -1.4625219240839173 -15.620877988484036 3 3 5
-0.10843867987354106 -1.463795510187238 -15.672733658150563 2 2 2
-0.07373492273581217 -1.4613492608456768 -15.753805511386432 3 3 3
-0.06833923805278097 -1.4626343061964044 -15.806111372795472 9 7 8
-0.15545875541162424 -1.4756498180397761 -15.766471090527642 17 14 15
-0.18607271885389132 -1.4814962409029364 -15.782882324375393 27 24 25
-0.22970780221474207 -1.4889877199262893 -15.786210523815619 33 31 34
-0.13712813516493938 -1.4792622880520387 -15.926213422946054 35 34 37
