ply
format ascii 1.0
element vertex 707
property float x
property float y
property float z
property uchar diffuse_red
property uchar diffuse_green
property uchar diffuse_blue
end_header
3.214415431866766 -2.8385841074346443 -15.552432337673942 4 4 6
3.222454718562055 -2.8651219049655436 -15.561046742873799 4 4 6
3.229357528552695 -2.8868545999798263 -15.576922213542296 4 4 6
3.2361166072156102 -2.9079808774867164 -15.593705628571406 4 4 6
3.235995064503551 -2.8999178523487137 -15.655235142519953 5 5 7
3.23957397627954 -2.9075259577514307 -15.692918053443947 5 5 7
3.2479914251014086 -2.935673821771119 -15.69902644391981 6 6 8
3.2495890381783807 -2.934838218360576 -15.749904372447933 6 6 8
3.247880415783324 -2.919905918996414 -15.822853407763098 7 7 9
3.2516666670712207 -2.928319475161496 -15.859784560394278 7 7 9
3.246067924953824 -2.8967280162742153 -15.959289751270418 10 10 12
3.254224034284802 -2.9237122041276455 -15.96754038254589 13 13 15
3.2628936493833014 -2.952897956497643 -15.97226531116396 16 16 18
3.269117401512463 -2.9716528703509866 -15.993337855874504 17 18 20
3.273927872833755 -2.9843665340850434 -16.02396953749237 24 25 27
3.28333710517376 -3.0167366672078852 -16.023508426865554 40 41 43
3.292484307255048 -3.048003984277207 -16.024680683967645 49 50 52
3.3015413678053154 -3.0789023119663916 -16.02633120372908 36 38 40
3.3118263626417246 -3.1150805199685037 -16.01942741646082 13 14 17
3.3221478133537494 -3.151439852404007 -16.012073530699666 19 21 22
3.33313379912465 -3.1906770587257594 -15.999925225014238 29 29 33
3.3442502669072565 -3.2305045661485474 -15.986632502924316 30 31 35
3.3525920843875214 -3.2584337495032667 -15.992410539022522 32 32 36
3.3614618845974302 -3.2886473536004956 -15.99439617272148 35 35 40
3.38044779457563 -3.3624371500849994 -15.925273977439833 35 36 41
3.410587711242305 -3.468566463166491 -15.904157427643124 77 77 83
3.4099433346480974 -3.45781290873483 -15.972889871750635 31 31 34
3.409173207972656 -3.4464678116890033 -16.042907500013875 40 39 42
3.410019723369174 -3.4420677243944438 -16.10171312849266 55 55 56
3.4163852636297296 -3.461525729657577 -16.121046024699837 70 70 68
3.41039043361583 -3.4274219869349807 -16.229822565908208 72 72 70
3.4072439165931607 -3.405584034293023 -16.318606919736993 81 79 77
3.4057545855074114 -3.3908713332109564 -16.395849258209243 93 89 86
3.400743785461276 -3.3608054456411587 -16.499326116514883 100 95 92
3.3961641833155793 -3.332532290524613 -16.60029267485159 109 104 101
3.3994831864484674 -3.3385466788558738 -16.643618199668467 116 114 110
3.411346816205997 -3.3817464228407994 -16.62383615009885 126 126 123
3.427917918566859 -3.445500869809522 -16.56873708202256 138 137 135
3.4345914075797563 -3.466156067519073 -16.586946150467117 150 149 148
3.4384350821620675 -3.4744587228597297 -16.62635680546618 157 157 157
3.446032620622706 -3.499143170995618 -16.637677756178405 164 164 164
3.442815945429276 -3.4679541198865618 -16.799777732951416 174 174 172
3.452123613043941 -3.500084693471112 -16.79843757284283 180 180 179
3.466714324303349 -3.5553976301808987 -16.756540912416092 185 185 185
3.475174727029462 -3.583871905649189 -16.761209568111475 190 190 191
3.483471152568571 -3.6116406842178543 -16.7670239915234 195 195 197
3.493462244232604 -3.646872047836161 -16.759617490571475 198 198 200
3.503283021533496 -3.6813808243659434 -16.75331915292714 200 200 202
3.515670155939805 -3.7272157158945287 -16.726798405422127 202 202 204
3.523220770972354 -3.7517808405401674 -16.737782808863773 203 203 205
3.5368740112415047 -3.8032738425421053 -16.700718830199378 204 204 206
3.5544759087217592 -3.8722570538169343 -16.632028480839413 205 205 207
2.0413553012274837 0.9064412593390676 -14.145769620679875 188 173 169
2.0629273097707315 0.8280605538872576 -14.107719914270074 149 118 111
2.0925896641062467 0.7180373094104331 -14.036686672102569 130 88 73
2.110055612716809 0.6555936871489001 -14.014358093725392 149 100 74
2.125156305644444 0.6023612751252214 -14.001342135226775 159 109 79
2.1411610140853754 0.5455676608005415 -13.984428500271147 135 92 63
2.155885682970218 0.4937519720281234 -13.972496088714411 146 112 94
2.178137108988175 0.41245547101813873 -13.929523412084702 111 67 60
2.194251601222297 0.3551354581832138 -13.911354114583968 100 51 44
2.2104301239560464 0.29753441190349594 -13.892668890634768 103 51 38
2.2105910597422516 0.3026642835439741 -13.939983485765623 106 49 33
2.221830735436797 0.26438787115312046 -13.94150068914966 111 49 34
2.248758140410854 0.16457635192010844 -13.877577331093605 114 49 32
2.2435523732020313 0.19076357912391373 -13.947332718155817 115 50 32
2.271900006378576 0.08529774086769137 -13.87678966813821 115 48 31
2.2860430161213823 0.035534957213298135 -13.865379117059106 117 48 32
2.304055686691907 -0.029453375725015718 -13.837436602920565 120 52 33
2.312497390651162 -0.05686705332358155 -13.849689967871475 120 52 33
2.3253320739697045 -0.10155786732582062 -13.843237780652963 122 54 35
2.3425168762755133 -0.1633794767106389 -13.818077430639615 125 55 37
2.3530296440840055 -0.19898286884560523 -13.821141994661392 125 54 36
2.3652183543876135 -0.24119699769271286 -13.81690848873584 124 53 35
2.3781674079099733 -0.28642459286574784 -13.809244871946362 125 54 36
2.4007813438002943 -0.3697537851415742 -13.759672949828959 124 51 32
2.4181184336731723 -0.43233804659399233 -13.732500481839566 128 55 36
2.426238874045392 -0.45861390700946014 -13.745074990596224 129 56 37
2.4352716205655507 -0.48849446756219006 -13.753625801983933 128 56 37
2.4411653537792835 -0.5059942093731324 -13.77583757931005 126 54 35
2.445492116795348 -0.5173042501010867 -13.804946229052451 128 54 35
2.4623801131098904 -0.5782289031476999 -13.778797876398938 130 55 36
2.4790538000612155 -0.6383429755301764 -13.753293230168914 130 53 34
2.4846470007690824 -0.6546811070836664 -13.776615165020207 130 56 33
2.4882923854541694 -0.6633109874157563 -13.808628238995166 125 53 32
2.499970073260806 -0.7037186622466054 -13.804876986752678 122 51 34
2.5133163532610237 -0.7507512873410951 -13.7934997930062 113 46 31
2.527717805839661 -0.8019881428010374 -13.777176962464285 109 46 33
2.543955032261613 -0.8605285239720164 -13.752340847857068 107 41 29
2.552126123266123 -0.8871243932211295 -13.763693468805908 134 65 39
2.5648632689106226 -0.9318378940551622 -13.754272495239931 166 91 44
2.5822101004864493 -0.9948671897623864 -13.723670868918772 134 54 29
2.5822448999334786 -0.9892046080136705 -13.771827650079409 124 46 31
2.5992985038173084 -1.0511175745145938 -13.74216721167041 132 56 26
2.6077923768731166 -1.0790546007038833 -13.751548299563769 162 86 32
2.615361120428543 -1.1033213405428803 -13.765133902718048 171 102 62
2.623432297642251 -1.1295909196752962 -13.776356730477602 177 113 89
2.6373897523976297 -1.1792908996714067 -13.76018097162599 135 70 40
2.648584768604218 -1.218021123783953 -13.756645473903124 146 83 53
2.6611347690228055 -1.2621666996309981 -13.746621247122368 141 81 58
2.674229054866554 -1.3085047151499332 -13.733847792808465 154 85 67
2.682763708584379 -1.3366891060559496 -13.742330769104356 142 68 50
2.6946525580988725 -1.3782614536078812 -13.734896784893188 139 62 39
2.7030223098984205 -1.4058109975052986 -13.743967851440832 131 54 29
2.70784932053981 -1.4192231622269524 -13.76982445787121 139 61 33
2.718157535011299 -1.4545252078792696 -13.769569241656702 139 60 32
2.7304478000485615 -1.497764219534381 -13.759693550194442 135 58 38
2.7414178709319756 -1.5357476404051527 -13.755967416788668 116 46 33
2.7551854878430477 -1.584940968779688 -13.738601304624734 103 42 27
2.7573554503869357 -1.5877442584543502 -13.777095935740665 125 61 34
2.768138637896382 -1.6250226355546227 -13.77391610703247 161 85 45
2.7782182047902966 -1.659499831344199 -13.774014809906731 157 73 31
2.789259107515293 -1.6978456128447617 -13.769289194629067 162 76 37
2.8016171240354155 -1.7414926562085427 -13.757945825778968 174 94 56
2.813438064710487 -1.7830092066119665 -13.749041188417891 166 93 56
2.823307237096634 -1.816712973981069 -13.749585721118029 132 68 43
2.8328128458178337 -1.848971225366805 -13.751808742899172 115 61 46
2.8429627065164187 -1.8838317428218412 -13.750718040379017 121 72 58
2.8577539589609966 -1.9373692020181954 -13.726342221741223 148 99 86
2.860838480082283 -1.9438505122871899 -13.760266646075932 128 75 61
2.8682397539053635 -1.9676924394711222 -13.772617730464056 122 53 37
2.8755280034284674 -1.9910842372131796 -13.785496859692781 131 56 34
2.88215357269365 -2.011810788042741 -13.801689089996872 133 56 33
2.8911640957054825 -2.042152594112401 -13.8057647075148 129 52 28
2.8996313701287106 -2.0703153128131087 -13.812507887868726 131 55 32
2.9094782933238403 -2.104054612722342 -13.81212235992312 119 42 22
2.9199112718316256 -2.140175419105848 -13.808603263027518 119 44 20
2.927953703225434 -2.166658174740931 -13.817231237269855 133 60 34
2.934633474901319 -2.1876418548752667 -13.832826544031303 134 64 38
2.9436096440066493 -2.2179134159566143 -13.83650816301503 149 73 51
2.9554212075159296 -2.2596683077404522 -13.825351074214737 161 88 63
2.966420402593097 -2.298159276740316 -13.818227490177735 204 143 109
2.9712712704087942 -2.3117703292421847 -13.843107441851563 176 123 81
2.9774745631549786 -2.3308561545000126 -13.860930793084847 156 112 68
2.9790494059407195 -2.331176673595639 -13.903144109528142 105 65 38
2.9921258294793764 -2.378134570787906 -13.8846984370938 106 59 47
3.008744026857163 -2.4394984857110797 -13.84720210143569 123 71 43
3.0112110567729693 -2.4434406125225134 -13.884677501526742 168 101 55
3.0366921555624518 -2.522591011987327 -13.951625845155165 163 105 86
3.057231096509711 -2.593948214931051 -13.942634159041807 114 40 23
3.053324263714452 -2.571861050133256 -14.015258757930106 111 27 6
3.061447707338164 -2.5988009588342678 -14.022387842353151 102 20 4
3.0696365158354233 -2.62601694665336 -14.029080295737025 97 19 7
3.0736938160139315 -2.6363705432888924 -14.058475710054413 89 13 3
3.0754578109310726 -2.637343990856852 -14.10064146213437 93 17 3
3.0799101275203764 -2.6492881139562607 -14.128046963205737 101 26 7
3.089807456835441 -2.6834987259100087 -14.125172338230737 103 35 17
3.0992558996202564 -2.7158898325921665 -14.12465954811884 94 42 29
3.0795199995967426 -2.6287721280612173 -14.28781087532876 88 51 39
3.0833353103265018 -2.6380415139665834 -14.319340244282476 77 45 37
3.0874745616262858 -2.6486279102161268 -14.349132220719667 61 38 33
3.0883860428773358 -2.6459620099842827 -14.397314343703355 57 44 42
3.087707007306606 -2.636741440915735 -14.45476216434833 51 44 43
3.087588782713408 -2.6297910924044787 -14.509283879870411 50 45 44
3.08747760989101 -2.622838898787701 -14.56402193908347 50 44 45
3.085761334144001 -2.6092548297394993 -14.628253064427035 49 43 44
3.0823698994166424 -2.588738536336783 -14.702482337324906 50 41 42
3.07467893021031 -2.5504718059884173 -14.802022573520588 48 41 41
3.075657892219878 -2.5478544557497305 -14.851723512644494 41 38 39
3.0863127519244373 -2.5850978929892214 -14.845177365806926 41 41 41
3.0967241646688373 -2.6213589196549965 -14.839875716706004 35 35 35
3.0974913599965133 -2.6178353407670913 -14.89108950357355 29 29 30
3.1104676783284755 -2.66470631037185 -14.870514874857706 27 27 30
3.1144093249085247 -2.6742758516832774 -14.903144747568497 21 21 25
3.115995584410734 -2.674093807606461 -14.949869409102453 16 15 19
3.115869209163645 -2.666801372321757 -15.00700815364236 14 13 16
3.1213858672473465 -2.68283877557524 -15.030653462732154 12 11 14
3.124046288234683 -2.6870392764787923 -15.071488445971095 9 9 11
3.1248803240700305 -2.683649616625307 -15.123491742680809 6 6 8
3.1243778328804943 -2.6746872264513213 -15.183820641889714 14 13 15
3.123872652420675 -2.6656775916461415 -15.24446640876472 49 49 51
3.1170430130964797 -2.6303644477888035 -15.343953406006772 25 25 27
3.1352141471765846 -2.698882330723716 -15.291128633692432 21 21 23
3.144588466456333 -2.7308806391769007 -15.291775035132494 18 18 20
3.1413091335300685 -2.71023961350778 -15.370238132614343 16 14 15
3.1476617260131627 -2.729653581858071 -15.389583341909013 8 6 7
3.149168055301254 -2.7288744097470987 -15.439003615677734 6 6 7
3.1513410541367195 -2.7308481722931726 -15.484494110870504 5 5 7
3.166300482746342 -2.771890680913118 -15.568984741653079 4 4 6
3.176736277026417 -2.808336092800011 -15.562842177369596 5 5 7
3.1979969331063973 -2.861213109434055 -15.72834525286911 5 5 7
3.2063123110458984 -2.8888062775218257 -15.735503308878354 5 5 7
3.2131347009051274 -2.9101391685682536 -15.752254570613696 5 5 7
3.217750670846374 -2.9222002158734597 -15.783350300181198 6 6 8
3.206583571902019 -2.8604302744128 -15.979584754530574 7 7 9
3.216446874154788 -2.8945007040724926 -15.976907970619553 12 12 14
3.225921153795082 -2.926951213797177 -15.976636748369673 14 14 16
3.2365665411010855 -2.964358935239699 -15.968452275899438 16 16 18
3.241978505476743 -2.979701833791781 -15.994898511551202 17 18 19
3.2494334596057084 -3.0036675865290388 -16.007748111238392 33 34 36
3.2582257622785424 -3.0332919620165297 -16.011580103119762 29 30 33
3.267066483780073 -3.0631351091548353 -16.014969829526862 28 29 34
3.281391224522065 -3.1162062372787167 -15.981182617119437 16 17 21
3.2843152489735443 -3.1210317921327375 -16.0243240714602 15 16 18
3.2955169216306572 -3.160925355680397 -16.01128855014799 26 27 29
3.3054857099261423 -3.195618105274023 -16.006434665390778 31 31 33
3.3154869612553046 -3.2304705494108212 -16.001175842587894 32 32 34
3.32858328845563 -3.278494465811325 -15.974418295331255 33 33 35
3.3295921326144047 -3.2751694353474115 -16.030865313092285 34 35 39
3.363292805189301 -3.4109053295332448 -15.860757274541157 38 39 44
3.3686658227093687 -3.4261978213438082 -15.886513375174863 45 46 50
3.3751474530455794 -3.446207939346663 -15.904570688410786 61 62 64
3.3785920957472473 -3.4532681428644745 -15.943936832287223 74 74 77
3.3788411470145885 -3.4466721650198764 -16.00597426650683 26 25 30
3.375321741568487 -3.4239421343719636 -16.094995122634774 43 43 44
3.378104657060347 -3.42808395309548 -16.13980997539192 56 56 56
3.377027500796929 -3.415691096699323 -16.212334101759016 70 70 68
3.3720084218318056 -3.3863747805965163 -16.313473030736997 71 70 68
3.3708208955990435 -3.3733966387452456 -16.387726597082178 81 79 75
3.3691043573901 -3.3501120522102674 -16.532748172002236 98 94 91
3.366196256993685 -3.3295933353402223 -16.62077265198561 109 105 102
3.3711738222049954 -3.3428985713968133 -16.65181069590294 116 115 111
3.383907492071874 -3.3895506886542117 -16.62614346297227 127 126 122
3.395360108475222 -3.430731134688493 -16.609541082850207 140 136 135
3.401548809896356 -3.4492700134788024 -16.631504229444424 150 147 147
3.40784374647763 -3.4682644980053894 -16.652700227445195 157 157 157
3.414333596526855 -3.488098296330924 -16.672460411137248 164 164 164
3.416820510539703 -3.4824183273387526 -16.79064724449318 173 173 172
3.425117541781499 -3.510030443444127 -16.79712459731348 179 179 178
3.4378085590462484 -3.5566756256751377 -16.770299529331666 185 185 185
3.44458298582669 -3.5777317904979675 -16.787988762901946 190 190 191
3.4549009251369207 -3.614154294075087 -16.778678142471144 194 194 196
3.4771695562007556 -3.694173207431991 -16.74683714245995 201 201 203
3.4878487027423235 -3.7322547354582882 -16.73400251155831 202 202 204
3.499386437906536 -3.774102475924538 -16.714267960003234 203 203 205
3.50792261163718 -3.8029178239759185 -16.71753886370409 204 204 206
3.519747190847597 -3.846079667687575 -16.695033883160498 205 205 207
3.535379566721884 -3.9058906818347765 -16.642376130793288 205 205 207
1.9907937782705853 0.9696087358165171 -14.134953768966291 190 175 173
2.013415587567157 0.887702028155295 -14.09368298769222 155 127 119
2.031486763502314 0.8233576340882429 -14.070084306197941 139 99 82
2.0516796606834315 0.7507664676133343 -14.03774220928329 158 106 89
2.0722808513387 0.676554175682277 -14.003422820355027 163 106 86
2.096139563381017 0.5896804643045535 -13.955679631261722 151 92 69
2.110693843386867 0.5388157049671003 -13.944934667932682 133 84 61
2.1272607413658298 0.48012422656342046 -13.925861267530554 109 60 41
2.142764949457007 0.42552479267811716 -13.91083530577826 141 94 77
2.1633941377401413 0.3510126657568682 -13.874752254254087 111 54 43
2.178639874152127 0.29735512480633286 -13.860250010101218 103 47 36
2.1692450157004455 0.3393580613203344 -13.946311187031622 104 48 33
2.1819207895072146 0.2956700532275951 -13.942231439211344 107 47 30
2.1993172335021374 0.23361723581150873 -13.918557067594438 112 48 33
2.2221864088602556 0.15025337659624682 -13.871989584519936 114 48 32
2.232147008393461 0.11704728533582642 -13.878481766272827 116 49 32
2.255455560884605 0.03189258930411487 -13.829386979031874 116 47 31
2.2693167611662384 -0.016538968336162974 -13.819248656104453 120 49 33
2.2706793234550764 -0.016320141740474803 -13.861222580952754 122 51 33
2.2841609723327814 -0.06329885609039909 -13.852454982778895 123 52 34
2.299631836903476 -0.11805227003212337 -13.835119354783295 123 53 34
2.3173735893824765 -0.18168835379836157 -13.807941410277834 125 53 36
2.329321119215327 -0.22275875279523305 -13.805025081799744 126 55 37
2.3452617584006914 -0.27942873728082773 -13.78497144199649 124 52 35
2.358955360489404 -0.32735675324752744 -13.77424765453325 126 54 37
2.3796631923713587 -0.40270245232309065 -13.733285189830623 126 53 34
2.3842821015565097 -0.41523176322906963 -13.761052455215308 126 53 34
2.402977240547676 -0.48277651418259904 -13.728193841177184 127 54 35
2.41402616003893 -0.5204608306818086 -13.728060176055234 126 54 35
2.424338682561693 -0.5552792190349285 -13.730992867235944 127 55 35
2.43374461713553 -0.5865619981204171 -13.737763821111596 128 54 35
2.4231801143880856 -0.5396605307993463 -13.831685236597343 128 53 34
2.4356433509355617 -0.5829051423405893 -13.825178944666789 128 53 35
2.4474675853925993 -0.6236655310515742 -13.821310490328916 123 52 32
2.46512214894898 -0.6873017865174109 -13.791566027139314 125 57 40
2.481555984294527 -0.7461878359018073 -13.766899027200289 109 46 31
2.4957103835301977 -0.7961633741164507 -13.75206310993386 104 44 32
2.5064339921709933 -0.8326971120374838 -13.752287588932518 108 43 34
2.518292556037112 -0.8737028455606506 -13.747311954687058 112 42 32
2.5270287794648336 -0.9024592833871381 -13.756180755178118 134 60 35
2.5368017039689477 -0.935298725207133 -13.760315556794936 170 91 41
2.547850770560908 -0.9731682333577885 -13.758588165260925 145 61 27
2.5555359383885294 -0.997819293826895 -13.771961728605206 131 48 34
2.5654048373341136 -1.031070025066465 -13.775370936399757 129 47 23
2.574499526869536 -1.0612841995794913 -13.782206471438595 165 87 34
2.5851594830955866 -1.0976743042773682 -13.78179777938696 177 121 75
2.5993205811455047 -1.1478786517007533 -13.76518449832896 163 113 87
2.6166794034945466 -1.210719614280606 -13.733602269589467 149 90 69
2.626050318787768 -1.242088288701293 -13.738601773551453 142 75 56
2.6381368406226966 -1.2841854311176686 -13.730914528046295 147 77 59
2.650643542340103 -1.327962298291883 -13.721094015809188 139 63 45
2.6607937935328465 -1.3624527587903543 -13.722082549958964 140 63 41
2.6642598481788533 -1.3705403324761196 -13.754262237970593 137 57 31
2.676180137820332 -1.4120450652142216 -13.746796573606249 135 54 29
2.683774700633859 -1.436458664707077 -13.759553696840669 139 62 32
2.6953721612238457 -1.4767188862603708 -13.753329751727703 134 63 37
2.707034401007699 -1.517255102507428 -13.74662995439282 115 49 36
2.717326845924448 -1.5523849950067374 -13.746283947889786 105 44 30
2.7278263485155887 -1.5883503827750172 -13.744819785476285 131 65 38
2.7326479665972774 -1.6018184524464694 -13.770449876583278 160 81 41
2.7436345785239515 -1.6397371181781883 -13.766460922401816 158 68 25
2.757575143230788 -1.6893972024866475 -13.748056254823092 160 73 38
2.7664181786507864 -1.7188455613505997 -13.754096670999022 181 105 72
2.776517928914001 -1.753296192437805 -13.753943198733147 155 83 47
2.7870209411810576 -1.7893642968062746 -13.75169592743244 123 60 34
2.796312241246872 -1.8206304579492194 -13.75523781373618 113 64 51
2.8056505668233687 -1.852095484615714 -13.758447109180887 129 83 70
2.8150062380524385 -1.883641589999475 -13.761467057894503 130 81 66
2.8279550743874884 -1.9295086779047477 -13.746616923970413 141 92 78
2.8299137128266563 -1.9316151423123609 -13.78606161311155 129 66 47
2.8416085699943716 -1.9725148904483252 -13.777184410503676 129 49 26
2.851270110320731 -2.005327149439064 -13.778276933407742 140 56 29
2.8524656190088993 -2.0043729926390172 -13.821681562596305 126 47 24
2.8614163422583814 -2.0343583113882113 -13.826256550254069 117 42 23
2.8758139170038124 -2.0861095963117897 -13.803251429851166 113 42 23
2.877860104752165 -2.0885369372673015 -13.842502853557258 119 47 28
2.8865799295777888 -2.117629292066317 -13.847990527158348 118 50 30
2.899839882229122 -2.1648927444349644 -13.83024372266781 125 65 46
2.9086345659391006 -2.194314429547684 -13.83509183826659 138 84 63
2.9163778748132883 -2.2195369779463032 -13.845244392364418 148 86 71
2.9272966231864963 -2.2574874026002387 -13.838984886171426 156 92 80
2.9366900490350245 -2.28934354128834 -13.84044021295611 196 140 122
2.9449808104908244 -2.3167910721630784 -13.84749864137523 183 127 93
2.9514492771058642 -2.3369358106233467 -13.863963617352843 169 106 63
2.9583327516831104 -2.358747980501934 -13.878249253892182 143 101 62
2.9567050593587654 -2.3463778787186644 -13.937107648339786 83 43 24
2.9734907205286234 -2.4079717824856006 -13.89942452690013 124 74 56
2.990500327303602 -2.4705109632856956 -13.860172752907223 149 87 50
2.989469620594985 -2.460522583163397 -13.916041716596219 163 91 48
3.002036875936108 -2.5052354980819445 -13.89992531540665 197 122 90
3.0064743695930316 -2.517236435016759 -13.926914902548134 161 84 57
3.0121693823133686 -2.5342971207190814 -13.947238284801774 179 117 93
3.020589119381813 -2.5623405610898775 -13.952948868965237 150 92 71
3.028037903149552 -2.586477600656364 -13.963803762992164 109 39 20
3.0317753695319736 -2.595642518517267 -13.994671586291144 100 21 3
3.0374984713641817 -2.6128150208205696 -14.014856443814322 96 20 5
3.0447322385336983 -2.636089161387499 -14.02683181979289 85 14 4
3.052074023518471 -2.6598049342972088 -14.038174074713297 83 11 4
3.055529221754677 -2.667806685903156 -14.070774949813124 89 13 4
3.0737286336971072 -2.7354632862528003 -14.0223672233691 94 16 1
3.0811634179251737 -2.7595877985212143 -14.032918361180762 102 26 7
3.0796588916486938 -2.747502952231974 -14.092938690561514 101 34 17
3.0796794091510864 -2.7415657282226533 -14.14477573725122 98 45 31
3.0780986184902392 -2.7291064641097718 -14.2057833445138 96 54 40
3.078256890251032 -2.7236694419279495 -14.257356688249429 101 63 51
3.078416424549208 -2.7182102887128057 -14.30915814785007 98 65 55
3.0775728941766705 -2.7086486098656426 -14.366851621763265 83 54 46
3.0744373152453366 -2.6897376293166957 -14.437791535958123 72 47 40
3.075626557461294 -2.68837371078918 -14.48454772186693 69 44 38
3.0671200020191387 -2.6475286294450697 -14.586750798706209 69 44 39
3.0653068089766555 -2.633869638082299 -14.651273965433308 66 42 37
3.0587017635884184 -2.600649504331493 -14.74362101245951 59 37 35
3.059893555582649 -2.5991535449341727 -14.791591616859499 55 41 41
3.065884350752756 -2.617208622615391 -14.812035914014979 39 34 35
3.0711579486184024 -2.632335098403898 -14.836652231835345 30 29 29
3.0786241770775105 -2.6564109276967063 -14.848548531570984 26 27 27
3.09260132376319 -2.7070972562242197 -14.822364423482664 21 24 26
3.0932508214489403 -2.7033291751156074 -14.873987679778516 16 20 22
3.0956653810084527 -2.706754707294291 -14.915462762170918 16 17 20
3.0982281658186674 -2.7107680927131366 -14.95622583014671 15 14 18
3.1022179724765127 -2.72060814828268 -14.988691435863988 15 14 19
3.102420581544568 -2.7149153640815493 -15.043776171284506 12 13 15
3.1029524940867916 -2.710542767165073 -15.097156636964922 7 7 9
3.1025483613298284 -2.7023004198990765 -15.156392117720902 15 15 17
3.103019522289076 -2.697618192495641 -15.210657174777705 40 41 42
3.104029675894083 -2.695120787003062 -15.261925773928755 43 44 44
3.112592090201898 -2.723642843072044 -15.267703756610093 26 24 25
3.1200531693720714 -2.7476456891893726 -15.280078353584399 13 10 11
3.115145358397264 -2.7207440293363874 -15.367833534691306 9 7 8
3.1217176232219424 -2.741065672682441 -15.385825635385626 7 5 6
3.1275801096116513 -2.75846311483867 -15.408170040187843 5 5 5
3.132666151381402 -2.7726559461619846 -15.435325184800455 4 4 6
3.137757355112759 -2.786863229823367 -15.462507478732949 4 4 6
3.1458362218814786 -2.8133994076814544 -15.471196352480376 4 4 6
3.1565674561633132 -2.850902663885253 -15.46327901468797 4 4 6
3.1689954133501037 -2.8678801240721663 -15.682399077693237 4 4 6
3.1674251644805063 -2.8543904306858314 -15.752608587417445 4 4 6
3.171777181778474 -2.8654361359319847 -15.785326395998322 4 4 6
3.176390321309258 -2.877554744586403 -15.816467950097767 5 5 7
3.1760147219417028 -2.8689312912896874 -15.879831499674788 6 6 8
3.1750224323018634 -2.8505675042060368 -16.00910364756824 10 10 12
3.1846853315799684 -2.8836299756036414 -16.008077019394015 13 13 15
3.1958083217157176 -2.9227939891833445 -15.9973538730004 15 15 17
3.2068427009527056 -2.9616144405755582 -15.986988519522152 19 19 21
3.212805482757911 -2.9792992966833127 -16.009803395526166 27 29 30
3.2231418210455685 -3.0152421947738857 -16.003733121258303 28 29 31
3.2308078737873336 -3.040050063909729 -16.015191200326633 36 37 39
3.238516163219428 -3.0650413003432346 -16.026309541935472 27 28 32
3.2535808482597854 -3.1208184402046193 -15.988190470727295 14 14 19
3.253683272166268 -3.114000540934871 -16.050036660936215 25 25 28
3.2698559437906343 -3.174476290565001 -16.00396858115927 29 29 31
3.276522557514661 -3.19515278750501 -16.021674261202254 31 32 34
3.294431865751821 -3.2630010571928416 -15.963077935669943 32 32 34
3.304288367302886 -3.2971065689649706 -15.958746356873988 34 34 36
3.3037770517684195 -3.2876711324692094 -16.025123989432725 36 37 41
3.324485232721983 -3.367413637819104 -15.946230915893032 39 40 45
3.3306244614685374 -3.3859417100189795 -15.966960465200836 46 47 50
3.336491989315982 -3.4033242240347583 -15.98958200392525 69 70 72
3.3417383428216243 -3.4180861194378656 -16.01654284529419 61 60 64
3.3466940160042298 -3.431615275867526 -16.04558961434308 24 23 28
3.34737356265014 -3.4270911256252194 -16.104621154480643 46 46 48
3.346795827497789 -3.4172222213584833 -16.172785244293785 61 61 61
3.351955230821862 -3.431555053054341 -16.200890544604373 71 70 69
3.3393769302608396 -3.3708647438165595 -16.354553980058025 73 72 70
3.338626955815318 -3.3601157077958854 -16.42524573490347 84 80 77
3.3485310949308853 -3.394445771999715 -16.420377914223344 93 89 86
3.3499151568189363 -3.392684088773496 -16.4762979457767 100 96 93
3.3608020661648417 -3.4311989869656916 -16.46423080808349 109 105 102
3.344812857600565 -3.355652351941006 -16.645745781464896 117 115 111
3.354664308432668 -3.389738004828594 -16.641436980148374 127 127 123
3.367987696445982 -3.4386059302194685 -16.611711096468785 141 138 136
3.3727449790927433 -3.4510713496457193 -16.6441005439482 151 148 148
3.3851811938225738 -3.4884172283323798 -16.687700577696855 164 164 164
3.394442541378178 -3.520065346183853 -16.687065304978443 168 168 168
3.402696681027471 -3.5395555831280596 -16.761711349500498 179 179 179
3.410471309241926 -3.564868647717926 -16.77200421521567 187 187 187
3.4216526413082606 -3.604764326230373 -16.756683771592005 191 191 192
3.4913049465873214 -3.8558362097860783 -16.63925874873918 204 204 206
3.5028977403114787 -3.8977385003377645 -16.61872778174387 205 205 207
3.505533366514215 -3.9011080856408515 -16.66718926623279 205 205 207
1.9370457375611174 1.044429542487479 -14.135651890474687 188 172 168
1.9610379084136516 0.9578329221791764 -14.090043123036859 159 127 120
1.9822137043711479 0.8819877750236822 -14.055033786537123 148 103 92
2.001704213576867 0.8125670004567054 -14.02628481251267 159 109 93
2.0182456072633843 0.7544273790980016 -14.008840178327626 151 104 86
2.0359767805015063 0.691692876609987 -13.986444261409872 135 80 65
2.062174127384881 0.5964150111449822 -13.93018248364224 130 64 45
2.0815550109722483 0.5272682732985059 -13.900553278610989 141 74 49
2.090016232582196 0.5000510628277297 -13.914202680968348 140 89 62
2.106437271562454 0.4422268336910786 -13.895921750782922 106 58 38
2.121933829399031 0.3879302138127958 -13.881105921642343 143 87 66
2.1452803599244197 0.30340533190670094 -13.834410048519928 117 50 36
2.144796564234535 0.31055411811894107 -13.883679601700333 105 45 31
2.141833739983239 0.3272695416799687 -13.943200583929803 119 61 42
2.159336785032242 0.26518074411426706 -13.919648081772682 117 55 36
2.1824099951761995 0.18159601613432041 -13.873056889096475 116 50 34
2.2001856938961217 0.11838404463946528 -13.84774152092374 118 50 34
2.211062884315899 0.08174236972054771 -13.850494796149807 118 49 33
2.2331055984402237 0.0020128213265104833 -13.80707733554635 121 49 34
2.237183483335695 -0.008429584422069425 -13.83759461646688 121 49 34
2.26792456761134 -0.11652492881248033 -13.804756894274385 124 52 34
2.277199095575643 -0.14705768193138624 -13.813459274149814 125 52 35
2.291974612117015 -0.1988624338452274 -13.799024002180982 125 52 35
2.3029631683941636 -0.2360479688447814 -13.800295658747025 126 53 36
2.3193251177864007 -0.2940342173573587 -13.778768391221648 125 52 35
2.3334959691071706 -0.3435708731559064 -13.76624896568071 126 53 35
2.3425835592202677 -0.37345046374160873 -13.775113715190273 128 55 36
2.363504730968284 -0.4491718096080648 -13.733471578301542 127 54 35
2.375962250115771 -0.4921433328106213 -13.727619631671404 127 54 35
2.392994635538939 -0.5528671885698353 -13.701974156776885 127 55 35
2.4040180521404784 -0.5903218607544929 -13.701896977265182 128 55 36
2.4116923327771493 -0.6147978376575525 -13.716155212196096 129 55 36
2.3998723040058425 -0.5636183384903743 -13.814843658868224 132 57 38
2.4121103756255784 -0.6057904641393428 -13.809474479987422 124 51 34
2.425574629390885 -0.6527437012356225 -13.79859403409187 118 50 32
2.4420177795284865 -0.7112949370832853 -13.774479032321011 111 47 33
2.4573370333581064 -0.7655090791790675 -13.7550111685334 104 43 31
2.469193022718669 -0.8062827447703764 -13.750541795945898 119 54 31
2.482523601596034 -0.8528111934840039 -13.739399140369718 148 76 45
2.491106668983762 -0.8808829054508935 -13.749105469920401 121 47 27
2.5000948006706407 -0.9105389476091981 -13.756947238509177 126 51 28
2.510120339205212 -0.9442447643987126 -13.760083862144068 158 77 36
2.520390844710063 -0.9789171502585035 -13.762017443285245 159 77 32
2.5284451632439295 -1.0049613832342414 -13.773794151434728 149 68 38
2.539184007032288 -1.0414824510956393 -13.773420955978498 138 58 31
2.550887866476738 -1.0817837675260291 -13.768553968399093 147 70 29
2.562591689237713 -1.122102710076998 -13.763528122615469 177 115 72
2.578291473767964 -1.1780465303418053 -13.740149084535439 141 86 55
2.592433530964274 -1.2279352223495001 -13.723603789528413 158 94 74
2.6035690561154325 -1.2660975311171097 -13.720601870138854 143 70 52
2.614318177314509 -1.3027650014499876 -13.71923090223507 138 62 39
2.6269273401598685 -1.3467249786458515 -13.709142966546302 136 58 34
2.627638809011231 -1.3441362572672881 -13.753939568905189 134 56 29
2.637696523296823 -1.3781276055167568 -13.75549902490074 136 57 30
2.64990325115744 -1.4205510242259578 -13.746928055541296 138 60 35
2.6597871850956127 -1.453890881945326 -13.749034914678793 128 56 34
2.6724707509168177 -1.4982210684327537 -13.737895732403096 117 50 33
2.6823349193677846 -1.5315133202926727 -13.739827750847418 108 44 26
2.690134032061285 -1.5567134256587671 -13.751400456784456 143 73 42
2.701061878752069 -1.594203747941834 -13.748098841496496 159 79 39
2.7118887407953127 -1.6313138750349916 -13.745129739885847 153 66 27
2.7185306681603554 -1.6519933154408681 -13.761980425398633 171 85 50
2.7328674380409494 -1.7029288609313493 -13.741985827595355 173 94 59
2.741439243553343 -1.7312162496066348 -13.7494196139351 151 81 50
2.7511211927404307 -1.763880920521931 -13.751428510646921 127 67 42
2.7610622916882415 -1.7975783979325293 -13.752072746723487 116 63 48
2.769693848130744 -1.8261309898801645 -13.758949594157027 124 78 66
2.7806189304877966 -1.8637309203180097 -13.754583015307002 126 77 63
2.79043921389715 -1.8969921888355152 -13.755458181111806 119 63 46
2.802159679666118 -1.9377621842325627 -13.74690164671224 138 74 55
2.8065626525034943 -1.9496745910221698 -13.774146207924215 133 58 34
2.81495761098175 -1.9773418623349972 -13.781753397410903 136 53 27
2.824574540355014 -2.0098443210076677 -13.78323734869593 127 46 21
2.833852905378222 -2.0410215974851083 -13.786288287746178 117 43 24
2.835296582058314 -2.041232724291821 -13.828287568349431 109 42 19
2.8497196540484206 -2.0927700725413754 -13.805530845647105 125 59 27
2.8538471568691897 -2.1035917105889723 -13.83416264747093 131 66 30
2.862683132732212 -2.1330493450818357 -13.83915440456504 127 62 35
2.87396346325912 -2.1722005943257576 -13.831704252826231 127 72 57
2.881853092841141 -2.197932552083108 -13.841268978986973 141 96 83
2.890891017736837 -2.2282246461118245 -13.84493221907697 163 122 112
2.8997167715846506 -2.2576861637109094 -13.849578468646975 178 138 131
2.9111755522528524 -2.2976093823902275 -13.840644666083904 173 134 125
2.9227276300400624 -2.3379239177520565 -13.831045113276772 200 150 128
2.9255489307939984 -2.343570400939594 -13.866281970617539 168 98 57
2.931633202656581 -2.36217480391612 -13.884749872225857 173 119 74
2.9404725734529755 -2.391736566559773 -13.88891295428152 127 84 49
2.942316872043973 -2.393474458929073 -13.929427790581258 96 49 32
2.9629113841460155 -2.4698432586821264 -13.872060665607474 119 69 44
2.9606760385511546 -2.4553344356445574 -13.933949759928527 158 96 58
2.975768661976764 -2.5098476065506983 -13.90491605529612 164 94 54
2.9809726571871478 -2.524968806147653 -13.927795498584674 170 94 61
2.987663050472647 -2.546016005462155 -13.942828363112096 175 107 80
2.996101215953628 -2.574041536598637 -13.948542868000489 156 91 67
3.0017896929694086 -2.5910961084882853 -13.968848382228426 123 48 30
2.9992753431930073 -2.5753750175424974 -14.033104619434154 92 16 3
3.0049459559357885 -2.5923377719654157 -14.053688758005183 87 16 5
3.019264825061245 -2.643888282670389 -14.027646402610742 79 14 3
3.027420641585402 -2.6708104340881844 -14.034651884259121 78 12 3
3.027253722346939 -2.6644186495198987 -14.086779991588038 83 14 3
3.040559795934959 -2.7119720473989135 -14.065719690478097 88 16 1
3.056431208064187 -2.7698379359510925 -14.030356910198464 97 21 3
3.061589773768319 -2.784785216763158 -14.053411732905637 101 28 11
3.0595011139108674 -2.7706505127530807 -14.116412035179458 99 39 24
3.0496755374608635 -2.7254212096576573 -14.222482549325349 96 46 29
3.0496688276150405 -2.719561749216898 -14.274717153854157 102 55 39
3.050011704119196 -2.71508057914704 -14.325244561085018 101 58 44
3.0503558227886876 -2.7105791235050116 -14.375991274440516 109 66 53
3.0512702223231023 -2.708346546634984 -14.423769829664222 102 60 47
3.0519170504634503 -2.705013785525943 -14.473260011848062 98 55 43
3.045112391035078 -2.6716452351669444 -14.56502193844498 91 48 37
3.04031923710677 -2.646324904774053 -14.645908329481465 86 45 34
3.0426969002008506 -2.649868261534385 -14.686480000931123 85 44 37
3.0445888264479044 -2.651434686277245 -14.729977280239869 108 73 68
3.048246528137707 -2.6601090166315657 -14.763543904473623 70 46 41
3.0559775722908022 -2.6852228167230434 -14.773819660704842 54 40 37
3.0619925997573656 -2.703408750244596 -14.793927532131324 41 30 28
3.0743078406935664 -2.7470672964807887 -14.777601796650746 33 25 24
3.075804697159842 -2.7469865646873854 -14.823829734335936 26 20 19
3.0834108295563754 -2.7716137415799107 -14.834663069738834 23 19 18
3.0874099608305747 -2.7816379209959843 -14.86652905787379 19 16 15
3.0899837808802313 -2.785875403945891 -14.906852026948435 16 15 15
3.088049426032209 -2.7718154353850615 -14.973874468114143 14 14 15
3.085231370699782 -2.7541315106024946 -15.046464016049267 13 12 14
3.082877886710495 -2.7382905472033814 -15.116683465915646 14 12 14
3.0828271290918394 -2.731762075851117 -15.173566227304896 16 13 14
3.083211854370911 -2.7269731165699467 -15.228120390528161 27 23 23
3.091061671906681 -2.752514219048919 -15.23818284190924 18 13 13
3.088673521043755 -2.736402593331939 -15.309770657891306 9 4 4
3.095513563360449 -2.757821874122584 -15.326023051322824 6 4 5
3.105956031005855 -2.79391961515364 -15.320428339238763 5 3 4
3.097204070473647 -2.7517923098984385 -15.43137651115989 4 4 4
3.102304928098207 -2.7660949012328135 -15.458446546306305 3 3 5
3.1056701599455727 -2.773307331270151 -15.496205005756371 3 3 5
3.1174321326437617 -2.81479547241596 -15.482483344400382 3 3 5
3.121699025521169 -2.8256829342594516 -15.514763614426641 3 3 5
3.1137544685425995 -2.786629362735524 -15.622749356735024 3 3 5
3.1116060645440635 -2.7712175845908744 -15.695362429840312 3 3 5
3.1332148388877474 -2.8330080516771217 -15.799296719053087 4 4 6
3.1448898632618008 -2.874186022226148 -15.785707607697981 4 4 6
3.1478768270339788 -2.879711980133453 -15.827059359135172 5 5 7
3.1469624602120803 -2.869188256313138 -15.893442890060765 7 7 9
3.1359058925035637 -2.8169224851517027 -16.025062533729873 9 9 11
3.146430723794446 -2.853361088802723 -16.018921219506325 11 11 13
3.1565428122097456 -2.888121403658583 -16.015251904441648 13 13 15
3.167457574994731 -2.926207565642218 -16.0062201286592 18 18 20
3.177624951999599 -2.9612360867689773 -16.001831341551117 22 22 24
3.1835772493337076 -2.9788964341097888 -16.024735849965946 23 24 25
3.1996824111753854 -3.0384630944839097 -15.981258349335723 20 21 23
3.2098171544383707 -3.0734207201298283 -15.976511945859114 12 13 16
3.2180999772476717 -3.100743779660215 -15.983790621019931 15 16 20
3.2270760190286696 -3.1309439038287907 -15.986395647058622 26 25 30
3.2342507699166396 -3.1537027600134317 -16.00083502414315 29 29 32
3.2439421965311106 -3.1868883919450655 -15.998469758416778 31 31 33
3.254292231273781 -3.222821447312562 -15.991538860277373 33 33 35
3.266382613031037 -3.265993629281237 -15.972729918216942 33 33 35
3.2758806381704133 -3.298439570321527 -15.97110489953624 36 36 38
3.284737717342561 -3.3282411998958947 -15.973659665686624 37 38 42
3.2836570932004197 -3.3167602176351094 -16.043555740654796 42 43 48
3.2928846072086033 -3.3481017300782216 -16.04359096337021 44 45 48
3.30131170852103 -3.3761285632226947 -16.048957457960647 65 66 68
3.3096343687393257 -3.40373204278362 -16.054937629175758 28 28 31
3.318475491410438 -3.433507006988057 -16.05724594578188 28 27 32
3.3162338005809877 -3.4170815058811552 -16.136095237545565 50 50 51
3.3178634016628794 -3.4167597660493145 -16.18851557489529 66 66 66
3.3043056565306554 -3.33848573237373 -16.476855799810835 86 82 79
3.3317689695303083 -3.4461014780023467 -16.34866375472153 94 90 87
3.3364828886030304 -3.4585747960214626 -16.38034147686275 101 97 94
3.3162402190466143 -3.3590577265729964 -16.65556771085483 118 116 112
3.3317841013574734 -3.416859919017025 -16.6108178463061 129 128 124
3.343557321694032 -3.458880800769724 -16.592670417976475 142 138 137
3.348695851238572 -3.47304839423633 -16.622093853056388 151 149 149
3.3558714060524837 -3.495775296272818 -16.636843640115515 157 157 157
3.3650986144865582 -3.5271420828629614 -16.636643385011016 163 163 163
3.370455397461296 -3.542222170849586 -16.664535602278146 168 168 168
3.3802498794501057 -3.5684828844378753 -16.727277073952916 180 180 179
3.394541530419108 -3.621259715256338 -16.689432453188083 186 186 186
3.4022120863929577 -3.6461116123402935 -16.700213200106358 191 191 192
3.4687546106883476 -3.882480095883208 -16.607797028182652 204 204 206
1.903849409465466 1.045564326747919 -14.103844515264678 157 131 122
1.932178084911862 0.9430428006107974 -14.042172753248435 148 107 93
1.9546394587984808 0.8627693690540594 -14.002699171223355 153 101 85
1.9664298541347205 0.823035651024175 -14.004310179153226 137 84 70
1.9848632379037139 0.7580166949427669 -13.979897818767526 125 72 58
2.002514078601431 0.6959446145291643 -13.958256250786278 112 59 49
2.0158726208631927 0.6501842037039269 -13.95318665123224 109 52 42
2.04725857878163 0.5357504038375653 -13.87697992451803 127 56 36
2.064625135701896 0.47466013261124473 -13.855520389884955 149 80 44
2.072364753896999 0.45023051983659723 -13.871937111716278 139 91 57
2.088472948367847 0.39389285523751294 -13.855062338675971 98 54 33
2.1035336913382006 0.34152426176467277 -13.842125025044776 140 80 60
2.113482959568163 0.30863444555721653 -13.849424721291596 119 51 32
2.1219742410983975 0.28130041271806405 -13.862493960226125 107 46 30
2.139675718509612 0.2238717878680152 -13.885591729167775 109 46 28
2.156507947039216 0.1646519637852668 -13.864707360382399 116 51 33
2.175276491165188 0.09800230492400619 -13.835683574986135 118 51 33
2.1980650125609076 0.015946981411846473 -13.78994171603756 119 50 32
2.1996766070602387 0.014851318045030482 -13.830446466296152 121 49 32
2.207603156738509 -0.010394756729438015 -13.845155765925139 122 49 33
2.229748397100452 -0.09007430774949032 -13.801257908022613 123 50 34
2.2398401619510038 -0.12363979373278955 -13.806760914284144 124 51 35
2.251034246898737 -0.16143819272965487 -13.807600504073957 124 51 36
2.2511922919933585 -0.1569553462170017 -13.85422552631648 126 53 36
2.280939618988631 -0.26589469864286475 -13.777537043323914 126 53 35
2.2953108948212244 -0.31592964276851543 -13.764599743915758 125 52 34
2.310268634523927 -0.36823759511989085 -13.748986390858068 125 52 33
2.3210451495549895 -0.4045216068530859 -13.750764777403266 127 54 35
2.315380957496125 -0.3776898478643558 -13.82194207740909 127 54 35
2.3490128819393346 -0.5017675496549421 -13.726761626683107 127 54 35
2.368905343264021 -0.5731289499254402 -13.68930441438792 129 56 36
2.37937993149523 -0.60832591495942 -13.69168781300541 131 56 36
2.3608698058570874 -0.5320671925998504 -13.818126003343718 129 55 35
2.3788470972356723 -0.5961091027190193 -13.78844793357737 135 61 41
2.3911868953177073 -0.6384882970220618 -13.78275633695901 121 52 35
2.4067156781654044 -0.6931637186122437 -13.76310421175204 111 48 35
2.4197430412634264 -0.7382316929603796 -13.75405291943055 105 44 32
2.4331550779041438 -0.7848020003206937 -13.743140227396044 104 40 31
2.445392159692808 -0.8268643350468672 -13.73716238733267 146 77 49
2.4534140476723016 -0.8526888715444647 -13.749495092680629 177 103 54
2.4627745211387766 -0.8836825197921536 -13.755895951635916 132 55 23
2.4718721754522055 -0.9136708645353737 -13.763372227290454 125 49 26
2.482169374558784 -0.9482990830878606 -13.765461399403899 140 59 26
2.489912151738706 -0.9730724772557142 -13.77878307180079 174 92 44
2.5011152593577823 -1.011221628923538 -13.776647251782336 178 108 71
2.51485747217683 -1.0592016847609873 -13.763019476889076 180 114 94
2.527401499663901 -1.1025711036258015 -13.754549894016165 143 74 51
2.5381298326207635 -1.1389351219476174 -13.754069508017226 142 73 44
2.556981337964918 -1.206754878587052 -13.716782405859302 151 85 61
2.5640148332390766 -1.2288524927458297 -13.732659969105228 147 76 56
2.574772972805583 -1.2653810289300829 -13.731588326059626 146 70 48
2.586092629422251 -1.304099974698154 -13.727823539940745 129 52 27
2.585158795123941 -1.2953269338717437 -13.779972600301583 127 51 24
2.5930540357020475 -1.3207758465159731 -13.791812449663816 134 54 28
2.605227493880168 -1.3628309536392562 -13.783900767775169 143 65 41
2.61576084237385 -1.3985382739793533 -13.783390012831386 124 54 32
2.6271283041522056 -1.4374989014223036 -13.77888303212496 123 58 45
2.6455811640883424 -1.5040055307153475 -13.741259815591611 108 42 27
2.6539946614590706 -1.5315294053486088 -13.750118694959623 144 73 41
2.663767441575226 -1.5643461995887469 -13.752546251934046 157 76 31
2.675051359082385 -1.6030535879449506 -13.74776484052273 156 71 30
2.6852151397847885 -1.6374182003491509 -13.74810734106221 177 93 58
2.6942389913627496 -1.667357375307863 -13.753719360241499 178 101 64
2.7069527601152306 -1.7116798762203116 -13.74173224519848 147 75 40
2.7137911882420442 -1.7331271902718628 -13.757517390268763 117 54 32
2.724811332884977 -1.7708805857213905 -13.753304624984745 107 55 40
2.7335035046381977 -1.799569895262671 -13.760098810183106 126 75 64
2.7430701728109708 -1.8316802821860065 -13.762607929269045 125 71 61
2.7566529455913735 -1.8794814702645306 -13.745627701584652 139 81 68
2.764045723888035 -1.9031312521918915 -13.75838225582175 140 77 59
2.7743253892510533 -1.9380659249539134 -13.757072422414282 140 62 39
2.7802918591615393 -1.9561531512412351 -13.776655748786911 140 56 29
2.787210662457795 -1.9779642263497683 -13.791588689205 131 51 24
2.789362190166706 -1.9811240299954296 -13.829894760522784 125 50 26
2.7978257032124847 -2.0089787349464485 -13.837252602046263 113 42 26
2.8099855374113236 -2.051317999501358 -13.82627205971517 124 58 25
2.8248230335021827 -2.10417043737678 -13.801817638329407 175 107 54
2.830838910545464 -2.122472789461831 -13.820955909085601 170 104 49
2.8384593347010925 -2.1470673994950324 -13.832090760315793 149 78 39
2.8494431805924942 -2.1848643140938586 -13.826331999712961 117 54 33
2.8568970558831275 -2.2088218416270307 -13.838148532290424 128 82 70
2.8646829695163123 -2.23408814846334 -13.848246749246648 149 117 106
2.886508533728328 -2.3092225826750914 -13.836527909151759 194 169 166
2.891847679541694 -2.3248957083070128 -13.858813235303383 214 175 160
2.9013702614970227 -2.3570267700133645 -13.859743707469693 162 87 48
2.907690874529345 -2.3765654790193027 -13.876977932898175 178 109 64
2.914709605179994 -2.3988544738760673 -13.890612839036882 163 109 69
2.9197525709434404 -2.413361466357708 -13.91441878374279 107 63 37
2.9360763848284464 -2.4723372026995163 -13.879812524436545 106 66 45
2.9458368576564204 -2.505464446114881 -13.87896832997675 128 73 45
2.95571003364636 -2.53905043887496 -13.877406038518885 164 94 52
2.965556909540228 -2.5725471271763283 -13.875846406449204 177 99 63
2.964481652238586 -2.5629157267391918 -13.93152346850108 163 86 62
2.969306044517838 -2.576571698124061 -13.956362797247971 153 78 55
2.9728946722714182 -2.5853365978382303 -13.987784216742146 108 31 13
2.9734919602481824 -2.5822583043854452 -14.035172644409688 97 22 9
2.9883071418646745 -2.635430428368604 -14.007045910467564 81 13 2
2.994091571112096 -2.65287683669935 -14.026858401620864 79 15 4
3.000671732504731 -2.673474523532006 -14.042415602563018 75 13 3
3.0078883781910646 -2.696597015421011 -14.054530236995982 77 13 3
3.004458592855059 -2.677502413689764 -14.124087636817801 84 17 4
3.008117748528882 -2.6864970313578214 -14.155592672356775 86 17 5
3.017734525010641 -2.71913244323874 -14.154799219051267 79 13 2
3.01738275758816 -2.7121883911692732 -14.208259746794546 75 16 5
3.02372720348901 -2.7318280292973443 -14.22530570120676 92 36 24
3.025879327146863 -2.734800097647822 -14.26537494346989 98 47 35
3.027124576390334 -2.7341482473195926 -14.310595736941735 93 46 36
3.0297912313955577 -2.7391334632958717 -14.348141218050463 93 50 40
3.031195770604613 -2.739078284676159 -14.392827528745453 94 50 41
3.0438941721200496 -2.784000652868362 -14.374783164926924 96 53 43
3.0246338461337117 -2.7015524190567417 -14.5351397727501 98 55 46
3.0223727051079217 -2.6867973064914583 -14.601129391185165 98 54 43
3.020796957192241 -2.674741457208693 -14.663593596410596 101 57 48
3.0234017091427594 -2.6793438045321514 -14.702749788094605 103 61 53
3.0306965154184184 -2.7026664530705657 -14.715462772878151 83 47 38
3.0394826475594376 -2.7319543039925778 -14.719650448315178 86 54 46
3.0401270804289475 -2.728693567381229 -14.770216864596222 73 44 35
3.0529574470353653 -2.7741677443167365 -14.751195499117713 81 52 43
3.0546410946068567 -2.7750452564054395 -14.795993413301204 60 33 28
3.0563306987738175 -2.7759266988808555 -14.840942144976498 55 31 26
