ply
format ascii 1.0
element vertex 698
property float x
property float y
property float z
property uchar diffuse_red
property uchar diffuse_green
property uchar diffuse_blue
end_header
2.6004847424215862 0.26758213920453056 -14.911376526306194 69 29 19
2.606255430649184 0.26365788764532416 -14.952352665682263 77 38 20
2.6121778369546567 0.25983255189132715 -14.993237277779883 69 33 14
2.6198137909598262 0.2573677783111816 -15.031680506885259 52 20 7
2.624592200749504 0.2525721026825636 -15.074553644134149 40 12 5
2.6289227108786406 0.24738834858306102 -15.118252581224084 38 11 8
2.612533814112706 0.2253915647976652 -15.193563884080703 44 15 12
2.5783827232482723 0.18892693437765784 -15.296290755021893 41 11 7
2.558511205393634 0.1639629812272152 -15.377732011298857 37 8 1
2.553943448484275 0.1424475421060567 -15.487703777793854 21 7 7
2.563808775973219 0.14152672514345355 -15.524278832717881 6 0 3
2.557128847640681 0.1270974702054266 -15.586575203457642 6 1 2
2.5481711130608087 0.11076183092367753 -15.652682534988191 5 3 3
2.7105660310627693 0.2074001606326079 -15.608147457579179 12 9 10
2.727433462814954 0.2121745448320489 -15.633962487990487 12 9 10
2.763465584564777 0.23268764600277203 -15.629454042260193 11 9 10
2.7589178609126623 0.2198542303231883 -15.689274370795482 10 8 9
2.8096767747243323 0.2525129483736599 -15.661166726904014 10 8 11
2.9032694400092938 0.320532990583529 -15.564216547792634 11 9 12
2.935965055856614 0.33843625306723535 -15.564234166353 20 18 21
2.96683245399816 0.3548523372327823 -15.567062260674032 18 16 19
2.9964186185916937 0.37022870819563414 -15.57184541022901 11 9 12
3.016682652824376 0.37790473266448776 -15.591637021779928 10 10 12
3.0582741093364962 0.4032583589088805 -15.576741714494649 14 14 16
3.087536342465107 0.41842163352071804 -15.5817312858605 19 19 21
3.1046042324044185 0.42347237007043903 -15.606582923825359 31 32 34
3.156143877912747 0.45718584958682085 -15.574847807198934 72 72 75
3.1896520199309686 0.4759460523245904 -15.572482818640232 81 82 85
3.2191685919316697 0.49140491777820294 -15.576568397997562 38 37 40
3.2184665496169833 0.4816655415096034 -15.630675008808211 18 16 18
3.263916910364279 0.5104438716969009 -15.608195378238754 42 40 42
3.223122236775854 0.4671376221733894 -15.7294485475191 56 54 55
3.247111403698333 0.4779610191400172 -15.742836126643228 57 55 56
3.8178887162624138 0.6373039500233353 -16.629217130918143 177 177 182
3.8367202706263734 0.6436534505118119 -16.652143562094256 178 177 181
3.835557077692865 0.632509963550695 -16.712910503893077 179 178 182
3.88835054658548 0.668576635051005 -16.67153663853662 179 179 183
3.8850295247301316 0.6555054099867057 -16.736618084792006 181 180 184
3.91083548635775 0.6679578631231973 -16.746338414862745 182 181 184
3.9403529356449765 0.6836864543745054 -16.748866739001148 183 183 185
3.963862859115273 0.6941473638229638 -16.762832821485553 184 184 186
3.970246138693665 0.6895178974018501 -16.809828201570234 185 185 187
4.003761287606056 0.6985022995397605 -16.864026467038975 186 186 188
-0.6223246522259647 -1.2170343806318997 -13.085958145389423 206 206 209
-0.5101072156734263 -1.1504784023624586 -13.057536049058672 205 200 201
-0.49451282543479813 -1.146497078105019 -13.083826601674508 199 194 193
-0.49764825731387496 -1.156102291560817 -13.1290859605888 184 178 177
-0.4658972764947231 -1.1404188285760166 -13.139115882740196 167 159 159
-0.4394194745140183 -1.128552680299856 -13.154441328646584 152 144 143
-0.41296414874374143 -1.1166966168419425 -13.169753834139986 139 130 129
-0.4009723737277229 -1.1153536557270365 -13.199836720245202 125 116 114
-0.3855486251367024 -1.1115225294094189 -13.226451733734832 119 110 108
-0.37472420342670354 -1.1110476650834533 -13.257839164691028 116 107 105
-0.3683719455338679 -1.1138441240055088 -13.293912162444563 120 112 109
-0.36470708722837397 -1.1186174458144804 -13.332864340641155 118 109 107
-0.34372834588337753 -1.1107692599005916 -13.353925297475158 116 107 105
-0.3184867686622068 -1.0998062660487706 -13.370539493574064 107 100 96
-0.31066384699841354 -1.1015754945089102 -13.405350297895918 111 105 98
-0.3028256101890552 -1.1033483974995528 -13.440230462781761 105 99 92
-0.2917990004565638 -1.1028011471912178 -13.471839548271813 102 96 89
-0.2810262727974724 -1.1024513334477133 -13.50378194328562 107 103 95
-0.2669719598214204 -1.0997060980747766 -13.532314926736762 109 104 97
-0.251809538847942 -1.0961553719834387 -13.559716055403161 116 111 104
-0.23642816451196502 -1.0924505138695304 -13.586922394580471 114 109 101
-0.22004275707931775 -1.0880139377737121 -13.613092391848188 111 103 95
-0.20579131222836455 -1.0851529888059512 -13.64158236387561 117 107 97
-0.17693506342436027 -1.071544578243147 -13.654401729959869 122 110 101
-0.15737523776170548 -1.0647785487780328 -13.677203280169127 120 101 92
-0.11209620182579716 -1.03904374889769 -13.672165441654524 106 79 65
-0.07695275953359104 -1.0207623025540675 -13.67797253317704 64 39 22
-0.05479796105745116 -1.0120598365366358 -13.697835693141972 59 34 17
-0.0010696339961819845 -0.9800112893937061 -13.683180643231104 85 57 30
0.054953415465662125 -0.9462256722965092 -13.66578546114917 131 80 48
0.11738000415100203 -0.9076558293545038 -13.641106361423219 133 69 37
0.19207057989261855 -0.8599464772451366 -13.602610293165622 123 58 30
0.25097982502010296 -0.8314965797750702 -13.624941874618003 106 43 28
0.28827864816004833 -0.8114276394626279 -13.627280225117843 103 39 26
0.32871845281571144 -0.7890028958717914 -13.62599348450252 103 38 26
0.292333621972392 -0.8237262943160646 -13.710662635802585 103 37 23
0.3450189315246135 -0.7921795946551535 -13.695601446854626 105 37 24
0.3571234706462292 -0.7908432220087556 -13.72607753493051 103 39 24
0.4040093629434329 -0.7635693401243602 -13.717268325598717 103 38 22
0.4444425867757964 -0.7410809371977938 -13.715595395391238 104 38 22
0.543450313305323 -0.6747970885345849 -13.647104718587176 107 39 22
0.5968294863566683 -0.6425408853878412 -13.630157205948956 111 38 20
0.5323925985833027 -0.6984304891642483 -13.747928551193882 121 42 19
0.7005557675265415 -0.5801764796786713 -13.59903759019737 144 67 34
0.7195396535183427 -0.5735867612469252 -13.62103620013277 147 90 55
0.7501700268620244 -0.5582591914308437 -13.629577574418265 121 61 36
0.778770995961338 -0.5444426795056256 -13.640397768794546 128 65 38
0.813489620581481 -0.5260171852773796 -13.644039097194192 140 72 42
0.8368478781293378 -0.5161196615682582 -13.660834512248062 118 49 26
0.8589423404339867 -0.5071696926161189 -13.679086677820717 108 40 23
0.9049044538602553 -0.48023122010554653 -13.669291640314512 105 38 20
0.9312769436551367 -0.4680345264622101 -13.682387625856435 105 36 20
0.9744416071605562 -0.44315403548856125 -13.67559062068834 114 42 22
1.0161131627217985 -0.41937184199923205 -13.670393050792795 115 42 16
1.0505446375667464 -0.401036330247861 -13.673645981552763 126 50 21
1.0849318959304073 -0.3827155953992607 -13.676844392689787 142 75 46
1.1192361076375885 -0.36443904121481374 -13.680034708273173 148 102 74
1.1542754472164143 -0.34558646084101197 -13.682235000830364 133 86 62
1.1915387800533823 -0.3250265892032047 -13.681643207090449 110 50 32
1.2314854867158678 -0.30240604890385203 -13.677678440759388 110 46 28
1.2680061340618876 -0.28236317357493457 -13.677713978422178 110 55 34
1.3091586477311452 -0.2587744686730966 -13.671991394709032 121 66 48
1.3438059438898753 -0.24011068760913634 -13.674039993156828 137 75 56
1.378365138772864 -0.22149425106925724 -13.676082729075944 135 67 42
1.4102465604528458 -0.20490056665953116 -13.681298420219427 124 49 26
1.4440330128475933 -0.1868362169045379 -13.684075206336823 119 42 20
1.471184695825185 -0.17382271429922236 -13.694937777387949 123 44 19
1.5094130780426767 -0.15232769893485232 -13.692018974716824 133 55 25
1.5257512725773505 -0.1475640846197237 -13.716162746799075 159 87 57
1.5584399052689806 -0.1302779310224822 -13.719947121350778 164 104 72
1.5888569748268058 -0.11471594873634006 -13.726470567799879 161 110 83
1.6281560908893953 -0.09232188881183356 -13.72176505889232 131 84 69
1.6628857028142816 -0.07341117007690601 -13.722655479834167 127 77 72
1.6942678112436642 -0.05705352410808384 -13.727652599032005 125 61 52
1.7251486766089776 -0.041065287582995325 -13.733190708971389 120 50 31
1.7512432591583353 -0.02874826272284281 -13.744720074581922 125 65 39
1.778828328999377 -0.015272923158973661 -13.754297204267019 149 93 58
1.8076114903184735 -0.0008617259319163573 -13.762277665692148 159 95 54
1.835106963368534 0.012567844271748285 -13.77183517712474 156 78 35
1.8626030706097598 0.02600916726678415 -13.781327217836221 146 66 27
1.9234979637269651 0.06530724227356899 -13.747640362732698 150 74 43
1.9334178701131242 0.0651813240311565 -13.779626106316252 151 79 49
1.9670057333286275 0.08339088135732498 -13.78094343777986 154 86 66
1.975295693485842 0.08198982792852716 -13.815112541033894 152 88 76
1.9840900099464438 0.08096446288768044 -13.848714419401585 156 96 81
2.0078670204773186 0.09157172863605645 -13.862755122236859 166 108 96
2.005991081888183 0.08222318973954756 -13.910510317325008 161 105 95
2.080088265304255 0.13201802462610734 -13.858171998748166 138 80 65
2.0912418995889794 0.13282077504225676 -13.888714653329345 151 84 59
2.14698097887542 0.16840372165412587 -13.860106579105723 158 94 59
2.1887194341506744 0.19310443961841983 -13.84984686094668 133 67 37
2.3176350510948316 0.26241575510567605 -13.858231983921314 144 68 43
2.3552987491864945 0.28405727505689393 -13.85269252157306 114 33 9
2.3780991357733017 0.2940505266043516 -13.867180243546603 112 31 10
2.485025216769878 0.3144422394480628 -14.087098046058806 95 31 8
2.4693010978861523 0.29389806971006127 -14.155481179987024 98 41 20
2.432779797211274 0.25680218162396695 -14.253340022906613 90 37 21
2.4146245208960853 0.23420179270090857 -14.325865453809596 88 38 24
2.44347940811691 0.24890631074077518 -14.332388091181214 96 46 30
2.4668589679397046 0.2592694448868622 -14.34657770544661 104 49 30
2.5334875269473356 0.30408177530687786 -14.29930491705184 97 39 25
2.5350847070162468 0.29712712083751347 -14.344263148295585 83 27 16
2.53733852146968 0.29066804783296263 -14.388445791946022 80 28 11
2.5434245860102553 0.28724260391498957 -14.427290695231129 115 66 42
2.5471845594415523 0.2819357447999886 -14.46960551576499 113 65 44
2.546878351853829 0.273348955136385 -14.517934782125078 114 66 45
2.572847830891738 0.28578227928679745 -14.528402239495925 111 61 39
2.583126361113444 0.28564161563335544 -14.56160284604003 90 41 24
2.5899101875856587 0.2826801661445635 -14.599983108515946 81 35 22
2.5920661963070355 0.275978617894967 -14.64524949507591 80 33 14
2.601061583034534 0.2747505352315023 -14.68064879597763 109 63 35
2.6090906435099583 0.27272673550777116 -14.717570673337583 100 54 29
2.6149957597809284 0.26897152015588244 -14.757738435628259 86 39 19
2.617375764125824 0.2623487812025229 -14.803258329635543 68 28 14
2.6162326418580726 0.25285115461597796 -14.854178886921613 51 15 6
2.622430995339495 0.2492551566187955 -14.894356774074522 66 27 18
2.628192270176825 0.24528253153678303 -14.93531930246822 83 43 31
2.634789502692418 0.24196361406343758 -14.975163629325419 83 43 28
2.6405398301633154 0.2379352975869078 -15.016411365036522 71 31 17
2.647439138194896 0.2348160005415707 -15.05606172852291 59 18 5
2.653364385877139 0.23088274814706722 -15.097314994996374 65 23 9
2.633760363143936 0.20615132890098886 -15.177508289933476 59 21 10
2.6010392123244523 0.1706665606019011 -15.278094444231987 39 10 4
2.584695584967875 0.14844593168461317 -15.354149248364523 35 8 2
2.567358967046739 0.1253514005774563 -15.432091433905715 38 12 7
2.605269724199105 0.14734008571008772 -15.425337610197754 27 13 11
2.621104441984331 0.15129967435868297 -15.452510340177703 6 0 1
2.6239983101988757 0.14465352134991827 -15.499784104972907 5 1 2
2.626535957398181 0.13768476920653283 -15.547787177340277 4 2 2
2.702734333650879 0.19114027559121505 -15.481055969369237 5 3 4
2.674961946779735 0.15015883162713894 -15.628793135450518 11 7 8
2.747471287524543 0.19159587289746405 -15.619430371321155 11 8 9
2.782929428076258 0.21170033600321903 -15.615763829174885 10 8 9
2.769267053416109 0.1912529551947264 -15.690088974607868 10 8 9
2.8282278615797454 0.23080552126930254 -15.648845832636097 10 8 10
2.9324212927160156 0.30787901916121196 -15.534757788079496 9 7 10
2.9578472997685914 0.3198192790367278 -15.546343017283492 10 8 11
2.9917316656618755 0.33878812264451463 -15.544235941776488 13 11 14
3.0159839066156353 0.34978111931896283 -15.557559977315643 14 13 16
3.035995949553377 0.3572557166119763 -15.577719019838284 14 14 16
3.0788050863966205 0.3837106573039639 -15.560763098890787 18 18 20
3.1073848176460945 0.3983480048179908 -15.5668041806089 25 25 27
3.122119990177569 0.4014489924807263 -15.595440641881712 32 32 34
3.1651411213567178 0.4281702082488761 -15.57762421885991 50 50 52
3.229775019001857 0.47301099204452424 -15.523901852575904 72 71 73
3.2472296816790003 0.4784339272015905 -15.547779236325098 55 53 56
3.236360742737766 0.4601099971166036 -15.61871785877922 15 13 16
3.2979320081801564 0.5025201107843995 -15.569297292866775 21 19 21
3.2464048503879006 0.44998767102801285 -15.708481527553857 44 42 43
3.2600292008369243 0.4521192208012885 -15.73918246362732 59 57 58
3.82596582073141 0.6068133940851252 -16.634693995594343 175 174 179
3.879569627284286 0.6334996479331485 -16.650429898468985 176 175 180
3.9030018339763624 0.6438998956268378 -16.664572372727488 176 175 180
3.9222713817582253 0.6506396094584264 -16.686610173949468 177 176 181
3.9232099557743476 0.6412035562865848 -16.743737784396043 178 178 181
3.9708322250507306 0.6729669391256641 -16.711476356036105 181 181 183
3.9854234980699204 0.6755736758174886 -16.742496666283042 182 182 184
3.981813943001158 0.662045483664575 -16.808782503651855 183 183 185
4.04821591832137 0.6688674051899799 -16.978887636421224 187 187 189
-0.5288776364695318 -1.2010154242912003 -13.08690533131136 208 209 209
-0.5044640657355313 -1.1906514196318416 -13.104402313966458 207 208 209
-0.5682147945330547 -1.2444544082425675 -13.211081617474417 206 207 208
-0.5372538979287906 -1.2293622682331593 -13.222166985917724 206 205 207
-0.5081328612985887 -1.215600214809529 -13.235062261948926 205 204 205
-0.4753474382630962 -1.1991557879247607 -13.244163138928702 204 203 202
-0.4600930657343554 -1.1954972726552957 -13.271149131005608 202 201 199
-0.4384374571987859 -1.1871680878318025 -13.291592869181748 200 200 198
-0.42338155230658625 -1.1836638705257827 -13.318835753521531 199 197 195
-0.39389239115793906 -1.1696043907387885 -13.331190550076181 197 195 193
-0.3824784009451241 -1.1687724519492546 -13.362240774581895 192 189 188
-0.3630894404942797 -1.16210639213093 -13.385053874575815 181 178 177
-0.35850644242835816 -1.1663020302854243 -13.423332511452605 175 173 171
-0.35435540999518356 -1.1708334959015638 -13.462170260048172 170 168 165
-0.34652733472801955 -1.172683023773788 -13.497255779132825 170 168 164
-0.336892871961215 -1.1732196672413502 -13.53052445323203 173 170 167
-0.32705649943712256 -1.1736209152462407 -13.56365473946647 168 165 161
-0.31280667690378827 -1.1707852556586862 -13.592179595250725 160 157 153
-0.291732536955398 -1.1629283726738766 -13.613491312753116 150 147 143
-0.27361622215123216 -1.1572529674735423 -13.63795876814864 131 126 121
-0.2435829008547472 -1.1427849136145558 -13.649691733426291 127 118 112
-0.21819684584883614 -1.1317392808349331 -13.666354052281143 124 108 100
-0.1918028697754286 -1.1199434066138285 -13.681901851326206 135 114 104
-0.15654399102693173 -1.101582243800522 -13.687836717007174 128 96 82
-0.11827185215272173 -1.08097298355669 -13.690410057464273 135 90 68
-0.06601726635432925 -1.0499812379682751 -13.677666234139963 130 76 49
-0.02708758423197377 -1.0288348107787133 -13.679240525493269 143 88 60
0.012996172347315316 -1.0068102176170068 -13.679429645271043 136 82 43
0.07519359241073431 -0.9683351143811163 -13.655221578808282 130 63 29
0.12898422096770545 -0.9360603990438237 -13.639983652257076 117 49 25
0.20794409641318978 -0.8927049125710922 -13.640527973370672 108 44 29
0.26336345948651996 -0.8591135327885575 -13.622894596413133 102 41 28
0.2373122275120041 -0.8862485752168916 -13.695827773033542 102 40 26
0.2795233252127538 -0.8624822254022955 -13.692762644769026 103 39 24
0.28772251713417063 -0.86410064018107 -13.727694935614622 104 38 23
0.33535425138472874 -0.8362490637641691 -13.718348684490257 107 40 24
0.3589486778270343 -0.8263527641606196 -13.735942174017831 109 42 25
0.38282797257292245 -0.8162394649034903 -13.75319240839164 110 43 25
0.43848511737374096 -0.7823013260776146 -13.734328727154434 110 42 24
0.5573479177308434 -0.7009006894531078 -13.64320618504595 110 41 22
0.6161079894923285 -0.6645053690164167 -13.620070735108857 112 39 21
0.6845743513594362 -0.6207676962228579 -13.585532793058182 120 42 19
0.7133524124500381 -0.6068195459545804 -13.596292177719977 138 60 26
0.729264158533347 -0.602545761267812 -13.621833542098809 153 95 59
0.7620716300009285 -0.5855485319443527 -13.627853556300376 120 67 43
0.7977718342297786 -0.5663541481648102 -13.630424393238286 122 58 34
0.8203451851644363 -0.5570463546899886 -13.648169547906107 134 68 39
0.8463373530923457 -0.5451533144573171 -13.661903723451447 114 47 26
0.8765100695529426 -0.5300925789490356 -13.670696548454208 106 37 20
0.9074169093761135 -0.5144635520454917 -13.678553101827717 105 36 16
0.9702556899490897 -0.4746404396432262 -13.64867486999082 111 37 17
0.9803658928847083 -0.47472443856914603 -13.68085604448641 119 47 20
1.0191547073173073 -0.4530674731327733 -13.67907944897049 131 66 33
1.0511149560550166 -0.43657031953715464 -13.68529238038222 147 90 56
1.0891541188425515 -0.41543847318195404 -13.68415735838435 139 91 63
1.125569287785554 -0.39551801887303384 -13.684832784896436 110 61 46
1.1635763138257307 -0.37436422338326025 -13.683471920413306 105 49 32
1.1989620383121347 -0.3551835662836562 -13.685134862195277 105 43 24
1.2441536773194866 -0.32850531124960014 -13.67482307752056 119 58 37
1.278731898873402 -0.30989324263460327 -13.677193887752386 142 87 63
1.31661494444809 -0.28873713314910043 -13.675431072450756 129 64 45
1.3539132311696171 -0.2680038731687042 -13.67424412802358 125 56 35
1.3886846064984733 -0.24918064845462196 -13.676017392134716 121 47 24
1.417417192642441 -0.23496212687014584 -13.685093541001553 117 39 17
1.4496604143872958 -0.21804038136413206 -13.689774364058017 117 36 14
1.4826978512402222 -0.20049229643575295 -13.693376573479883 134 56 29
1.5019279309387494 -0.19352899414316127 -13.713997713224337 159 95 63
1.5340640120804752 -0.17664675906031801 -13.71856771566214 162 115 81
1.5658634884530107 -0.16000639323218158 -13.72346045630733 147 103 76
1.6017448048085408 -0.14020635343409804 -13.723148033660145 125 78 55
1.6381406610299978 -0.11998730731968488 -13.722061454106578 130 69 57
1.6719492371908116 -0.10174074255025589 -13.724101617897265 125 59 50
1.7026427956541719 -0.08587941877815819 -13.729965702754436 117 56 34
1.7322517370585455 -0.07084073436891947 -13.73711635266531 150 89 53
1.764689420684575 -0.053599974619364055 -13.740589130026827 163 94 57
1.791369507975423 -0.04079853788045318 -13.751304152286007 152 81 43
1.820511979562836 -0.026078909152416507 -13.758810149663837 157 77 40
1.8480927695404192 -0.012556892302406197 -13.768243465130787 151 71 35
1.8759899121356165 0.0012222067471014952 -13.777203850805162 142 68 35
1.9431496208753885 0.04552200961418906 -13.735365489976573 144 76 51
1.962012602356447 0.05232699082483183 -13.755737672338213 140 79 57
1.9833176726844375 0.06103229071219163 -13.772939035838279 139 82 69
1.9938924082027727 0.06137914959735857 -13.804121713121258 142 88 78
2.0304076301288543 0.08194504824505433 -13.801432979844051 151 95 82
2.018331293032819 0.06460214448645418 -13.862389247730764 160 102 90
2.0572718207887037 0.08707756678604461 -13.856424617001688 153 97 86
2.0966502195946957 0.10992408808701892 -13.849718406515796 142 83 70
2.113574186307879 0.11522114965219776 -13.872602912252258 140 72 50
2.162526690317149 0.14561242385498874 -13.852926391392568 152 83 55
2.392651222779583 0.27877447706617664 -13.815737999292171 135 55 25
2.354052806777947 0.2403639592540534 -13.913577358578863 113 32 10
2.374823352262627 0.20009673070851308 -14.208159746431903 110 34 5
2.4301534307790504 0.23587310166806397 -14.177795800013403 106 39 12
2.4817717626703617 0.26875188247480297 -14.15230410134065 102 43 20
2.441796126108457 0.22871646448033056 -14.255083983132147 98 44 29
2.4164594132150565 0.20026041508918846 -14.337785087112753 85 36 22
2.5183563366315047 0.27329088424925674 -14.241157910926825 94 43 29
2.482266655864918 0.23620210731752644 -14.339332308300506 104 50 31
2.550356272686215 0.28234659492065006 -14.28989840402575 101 44 28
2.5534239307284032 0.2765127922709665 -14.33276004589439 87 29 17
2.5545378552391638 0.2690869878988331 -14.378566977264228 101 47 25
2.5627805268778987 0.26735035362542003 -14.414309250149875 123 76 44
2.568235459824538 0.26335692374799846 -14.454169779308291 110 62 37
2.590126289078306 0.2725524451449646 -14.470414506128803 110 60 38
2.59549201904629 0.2684548976197756 -14.510588608970927 103 54 33
2.6014512853411187 0.26481224696509376 -14.550031750911069 82 35 19
2.608964947556581 0.26240056871786654 -14.587334632808489 79 35 20
2.6114548280933425 0.25591416929209654 -14.632103191614581 80 34 20
2.6159955248141387 0.2510563915702919 -14.674022213282289 74 29 13
2.6266241106328456 0.2510973479230989 -14.707116854261244 71 27 13
2.6314797384579682 0.24644930894706496 -14.7488282629784 69 30 16
2.6368797913122446 0.24221767346214929 -14.789874057110872 56 19 13
2.6346652889671036 0.23178420807488465 -14.84238242070165 45 9 4
2.6427068613226803 0.22964319523293097 -14.879798352660927 61 24 12
2.652116488094043 0.22859454375074284 -14.915279552927306 89 46 32
2.6545476706069806 0.22184875929436298 -14.961342090230655 102 54 30
2.6608274365052003 0.21820876546211254 -15.001775082468884 117 63 36
2.6659715839806797 0.21361931997351702 -15.044057321614172 102 44 17
2.669580467348683 0.20775106034012802 -15.088812425978045 97 38 10
2.6650567981854394 0.19520784932286128 -15.146101776243949 78 32 12
2.646116212289394 0.17082659129615907 -15.225640061880377 40 12 5
2.6414787332405485 0.1580923534132328 -15.283661055461387 32 8 3
2.611503926139619 0.12454017477589785 -15.380857461693548 32 10 4
2.6082313763588765 0.1128172496011497 -15.43739575858902 30 16 13
2.655437076611043 0.14253029242312154 -15.416106515149899 8 1 0
2.6948384134375036 0.1658715382273228 -15.40665317327523 5 0 1
2.829458775268246 0.2132018772468398 -15.559082233697538 10 8 9
2.781849364290318 0.16449223793580847 -15.687352694507606 9 7 8
2.837616393264611 0.2015348347567718 -15.651143635570351 9 7 9
2.903233048225024 0.24683432820186946 -15.598770251271894 10 8 11
2.976808093982547 0.29884391828259815 -15.53311623670411 10 8 11
3.0089854365243847 0.3164480327463588 -15.533702181711277 11 9 12
3.022724030754228 0.3186889739052208 -15.564012827927005 13 12 14
3.051836651067764 0.33376124594859435 -15.569415775158916 15 15 17
3.099612512519058 0.3644590423234644 -15.54430302392418 22 21 24
3.102609862020328 0.3577181623858925 -15.592112941991143 30 30 33
3.1442016717481467 0.3832954114343563 -15.576786979374319 36 36 38
3.202760558117192 0.42315208898112067 -15.533297035799034 41 41 43
3.2423006040854014 0.44710465790845166 -15.520795178933287 49 49 51
3.2715459150393107 0.4624364111214505 -15.525135618238417 48 46 49
3.2709427574208574 0.4526525842419198 -15.578994874993928 18 16 19
3.27742335320914 0.4488009913185427 -15.621263350851669 12 10 12
3.2849853015004076 0.4458361020648969 -15.661869971318271 28 26 27
3.2811985863920254 0.4332579564488457 -15.721669251547054 47 45 46
3.296965899319809 0.43717511446865975 -15.748789861071687 61 59 60
3.8624975320480965 0.7497384546412666 -15.741065095084878 137 138 140
3.84316344804025 0.7234139849302008 -15.830442373086765 140 141 143
3.8528644022873637 0.7221647075254611 -15.867980302212862 143 143 145
3.8625968217866333 0.7209215764801442 -15.905581873401992 145 145 148
3.9162864584777983 0.7578395687172916 -15.863568769219153 148 147 150
3.9078427634115345 0.6105710693037958 -16.676262892026735 174 174 176
3.930134898945213 0.6199750288110444 -16.69257826356881 176 176 178
3.953675564509904 0.6304907861660385 -16.706473357477115 177 177 179
3.9822154734342625 0.6454522088970158 -16.710712101359658 178 178 180
4.0047455339259015 0.6550913155125402 -16.72643360914088 179 179 181
3.9890827107408873 0.6307431365556382 -16.816061471629165 181 181 183
4.00811715753653 0.6372332335030833 -16.838765602724454 182 182 184
4.035608300884388 0.6512672740382142 -16.84500018064282 183 183 185
7.312109968931683 2.471189353444392 -16.748765696896267 214 214 214
7.337563822417595 2.486363531503784 -16.742115176805108 216 216 216
-0.5515059384376935 -1.2545387006677822 -13.120205671413448 209 210 210
-0.5402989353877574 -1.2839120189853759 -13.321317986226658 207 208 210
-0.4861474054362551 -1.251806284549264 -13.308673977455893 207 208 209
-0.4915292693005293 -1.2633273291477032 -13.357049122867931 207 208 209
-0.47474624658253983 -1.258609108148805 -13.382725601778123 206 207 208
-0.42788878595931745 -1.231803643036577 -13.377303664164288 207 207 208
-0.41625174487525207 -1.2308610361587773 -13.408280444064474 207 207 209
-0.4045993717105514 -1.229917902962331 -13.43930208422934 205 205 207
-0.4010598705536408 -1.2349590826456298 -13.47886025180237 206 205 207
-0.39534367844597185 -1.2384165120601294 -13.516251631635065 205 205 205
-0.38752137974732204 -1.2403385576740407 -13.551529572304347 205 205 205
-0.3746217322239529 -1.2385287362513502 -13.581540520731416 205 206 206
-0.36586015179220244 -1.2397849611018845 -13.615982983696423 203 204 206
-0.36076706885047116 -1.243767429505016 -13.654400014558117 201 202 203
-0.33197537409713007 -1.2302366209049294 -13.66769747670885 199 199 201
-0.31654559580100994 -1.226589780542775 -13.695211822974926 182 182 182
-0.28366835368445464 -1.2100215850520528 -13.704076012196342 154 151 148
-0.23197833612941654 -1.1794885877508223 -13.692647831668078 136 125 120
-0.20098379703020797 -1.164278657960959 -13.703320656046348 143 124 117
-0.16753276883207846 -1.147232350638923 -13.711270738439053 140 112 99
-0.11276236635177028 -1.1143233733236015 -13.696014243217753 130 85 65
-0.07782382173901237 -1.0961279557918582 -13.702105732319957 122 63 39
-0.03229691243116495 -1.0700321151813341 -13.696546249371645 125 62 38
0.012424588664371683 -1.044506784609375 -13.691700829894287 118 57 33
0.05612393826613804 -1.0197149236976806 -13.687814973316904 114 48 29
0.09304956875820647 -0.9999510856899474 -13.691234802439926 104 44 28
0.1290515311069269 -0.9808576263647271 -13.695564606058134 102 43 27
0.1516636084744336 -0.9717558584950634 -13.714633349311509 101 40 26
0.19922413554245288 -0.9439851703371707 -13.705945401453699 101 39 24
0.23538393648650668 -0.924718709960143 -13.709789120586812 101 39 23
0.261608505610889 -0.9128791440036719 -13.724643197213288 103 38 22
0.2962875274026544 -0.8946913905613405 -13.729968305318398 105 39 23
0.33210955468492287 -0.8756282507991391 -13.733908195167725 109 42 24
0.3454965775066574 -0.8734019351287556 -13.763083958511672 112 44 25
0.39358822258296655 -0.8450890411159815 -13.752986238247082 114 45 25
0.4703314057034307 -0.7951795483096489 -13.71012579987949 114 43 23
0.5870608321843482 -0.7150818404083061 -13.621270686784648 113 42 23
0.6470328827010183 -0.6776478504397558 -13.59664871860539 112 40 22
0.7222396840855954 -0.6286695762349135 -13.554261940072486 118 42 19
0.7123032523959543 -0.6439131185602038 -13.609482199741809 135 55 22
0.7696755010752545 -0.6083274168574948 -13.587203197675077 160 97 64
0.7703672783589601 -0.6155661696074994 -13.630306469834089 126 76 57
0.8001105815384069 -0.6008373785811671 -13.63979682535432 121 55 39
0.821968671158837 -0.5920707364293794 -13.658408653414279 137 71 46
0.8519588512676091 -0.5771353201836229 -13.667500541247737 115 42 25
0.8800518720994948 -0.5636271260880625 -13.678746000931977 111 36 21
0.9203411379116586 -0.5408442054608926 -13.675583669721927 114 37 15
0.9705785584497937 -0.5104717354855666 -13.660531269359218 128 51 24
0.9872938483574041 -0.5055677373375596 -13.684945597169108 134 72 38
1.0247166235986844 -0.4848977101394043 -13.6847908398431 148 96 67
1.0638250720108404 -0.4629199472106982 -13.682498513532837 114 62 42
1.1028822571547146 -0.440956105039223 -13.680124982357798 99 42 26
1.140170754149188 -0.4203175395674914 -13.679729224618491 106 43 28
1.177579407141649 -0.39956412839363153 -13.679058756347501 103 41 23
1.2118486110453102 -0.3811888233377352 -13.682044343883529 118 59 36
1.2542738343590818 -0.35655020250671043 -13.675049891093533 139 70 48
1.2858925512587662 -0.34016186369253143 -13.681004713287752 124 56 35
1.32179702193441 -0.3204708026608247 -13.681650094627335 119 48 31
1.357601555825358 -0.3008347257871362 -13.682294674584426 112 38 19
1.3915329920450343 -0.282616036508164 -13.685112272879822 117 40 19
1.419566742648989 -0.2689132889691459 -13.695072343654228 119 44 19
1.4722365667376422 -0.23623774535305264 -13.674582258972606 137 66 41
1.4739545681212096 -0.2427678885812412 -13.716879292568118 154 96 69
1.5099114747509876 -0.22292322667278475 -13.716819458903615 151 107 79
1.5718236947539594 -0.18302544269188248 -13.684314907573167 123 78 56
1.6054253424965648 -0.16493704339401294 -13.686840504639264 128 71 53
1.6378810397458095 -0.14771518232894065 -13.690692083499247 130 65 45
1.6676654318959772 -0.13254253445887665 -13.697800033066818 121 54 32
1.6985907693689812 -0.11647191695409642 -13.703388597505613 138 78 51
1.7296097043348544 -0.10031278663409049 -13.708768534631666 155 94 60
1.744484773366045 -0.09666429893663953 -13.734542826240748 152 80 42
1.7723810697183229 -0.08290944048846338 -13.743779271678328 145 62 29
1.8014633201940633 -0.06822080702272659 -13.751434235457658 146 65 35
1.8329541841335493 -0.05164445406692186 -13.755926673732795 143 64 33
1.8592054620003609 -0.03913158159022201 -13.767055630762457 146 70 42
1.8889987469061635 -0.02384794321534578 -13.773563526006 149 76 51
1.9638295221363675 0.026591017520186444 -13.721741371323336 138 71 53
1.9651102795217392 0.01966955447850749 -13.764887608373726 140 80 63
2.0154226313564925 0.05104984730063977 -13.744368407333603 142 84 72
2.011688816870816 0.04018770348064438 -13.794158627943489 150 93 83
2.0445330798764694 0.05793841343505557 -13.796231211686184 158 99 87
2.050443491439652 0.05459533106791481 -13.833581785392905 157 98 87
2.0790159538279855 0.06901392574178544 -13.841173602210397 147 91 79
2.126745434302146 0.09849170122641882 -13.823356929967936 148 87 70
2.1566675906868564 0.11401278537608972 -13.82892383954053 155 82 60
2.184661492259645 0.1280323529954046 -13.836967534973269 153 74 49
2.2209007360174464 0.1485591283341563 -13.833930347576475 152 72 46
2.3551994119552866 0.20639987716380315 -13.92578568845741 120 39 14
2.385169004274621 0.1730310664277086 -14.208038642909294 109 32 2
2.4916001500332285 0.24972696656212534 -14.106293873145102 120 52 19
2.5407638331871345 0.2807923554104286 -14.083971940062924 106 44 20
2.4714944069418747 0.21715912697823958 -14.227777254091565 101 47 32
2.466387980098231 0.2047660591150584 -14.28194424794294 86 37 23
2.5673534127022357 0.2773604532289107 -14.186345548085463 91 41 28
2.5010045258215854 0.21583302336191235 -14.327352055726799 101 49 30
2.518918075680469 0.22184749166217133 -14.349223848650809 102 48 30
2.5646824261535004 0.2502519493366129 -14.331346869698963 93 34 22
2.57313982106686 0.24867346567202198 -14.366663056357746 88 32 16
2.5791869559503864 0.24513529750102725 -14.405543689959467 105 57 35
2.586597834804347 0.24267501858096052 -14.442582400669146 103 54 35
2.604211570811895 0.24843156031604208 -14.46497767193354 80 33 19
2.612682718986049 0.24679679831315537 -14.500655099468492 66 22 10
2.6187696034338357 0.24321506973442109 -14.539906147484196 62 19 9
2.6251351434476193 0.23983667771960526 -14.578876481437318 85 41 29
2.628477212469658 0.2339854682649487 -14.62240045180314 88 41 27
2.6314533780057587 0.22781018190123925 -14.666615864694368 77 30 15
2.636014230385368 0.22289417476635043 -14.708652709896274 88 42 26
2.6424289303168607 0.21946016280159197 -14.748091032223737 93 48 30
2.655164370307909 0.22114866290446855 -14.778275875230863 94 49 30
2.653686181102639 0.21124369582486713 -14.829689704578087 90 45 26
2.6639200043388715 0.21085586100506815 -14.863813769151701 73 29 13
2.6683875200493867 0.20574333039256665 -14.906671000869379 83 38 25
2.673480226216312 0.20111553363367207 -14.948737055038926 102 54 23
2.6787987834988156 0.19664717281242172 -14.990605958109544 126 73 36
2.6832203227357283 0.1914189086788931 -15.03397436814842 104 49 18
2.688090571983688 0.18653175228471763 -15.076813366340115 89 36 9
2.7018272166906945 0.18889661630302124 -15.106296300555215 72 29 12
2.709759878629632 0.1864812265101552 -15.144709107418324 38 8 3
2.7090995725846385 0.17697585266667204 -15.196414560269567 34 8 3
2.6440997333501546 0.11444905390158411 -15.347282977033297 33 8 3
2.646523589733759 0.10735609520810385 -15.39496581165498 32 14 12
2.732243249649869 0.15989141065109314 -15.365260135679176 5 1 2
2.828203208990092 0.1751734871573758 -15.578222120849386 10 8 9
2.823690126913383 0.16212204071687042 -15.63796441269566 10 8 9
2.87610529590268 0.19652665029066219 -15.606899592913997 10 8 10
2.937033440779347 0.2381025593513777 -15.561832597435938 10 8 11
2.9990014384614687 0.28062437419951225 -15.514659656834791 10 8 11
3.010233165447721 0.2807473487637293 -15.549007946645634 11 9 12
3.0282685780253837 0.2865564347734959 -15.572421673678521 13 11 15
3.080178949029757 0.32078670341783555 -15.540767976463618 19 18 23
3.1166206977444224 0.342083021282201 -15.534009823650539 25 24 29
3.131850932462105 0.3455715840066724 -15.561796850868834 31 30 35
3.178363332338061 0.3753900326248245 -15.538255826658595 37 37 40
3.230642238142928 0.410120493866029 -15.504922725995034 39 39 41
3.2671632412551723 0.4316154369514158 -15.497288360682951 40 40 42
3.2910371962887908 0.4424576594638716 -15.510449652648312 40 38 41
3.294570182398912 0.43610248614955305 -15.557419892144122 20 18 21
3.3166952705793733 0.4454599023650587 -15.573523155762885 15 13 15
3.3095410648949244 0.4299986026449836 -15.638655891167774 14 12 13
3.2916763060182017 0.4053930625038027 -15.722093819038363 26 24 25
3.295571218617331 0.39920394332434217 -15.769254038561598 54 52 53
3.86593000949925 0.7068639993636512 -15.808587589550186 138 139 141
3.8753675566071157 0.7053577085152156 -15.846553581178807 141 141 144
3.9247900414182 0.73868000164128 -15.81227330380072 143 142 147
3.9314818457068164 0.7347771817530719 -15.855227952299048 145 144 149
3.9279596661289107 0.7219217191750107 -15.916953386229771 147 147 151
3.944591099177262 0.7266474304050328 -15.9421145260654 150 151 153
3.955375278876394 0.7262446499587587 -15.978040283912922 153 154 156
3.973745715876843 0.7324761393900592 -16.000110054768534 156 157 159
3.984718820070091 0.7322086510070718 -16.035860013586397 160 161 165
4.049341583157462 0.7492431899442238 -16.14113493934046 167 167 170
4.061647586846434 0.7500797141464473 -16.17479897551353 168 167 172
3.9119194479839106 0.5765033851416868 -16.689442691479247 170 170 172
3.951756203260831 0.6015145869490555 -16.672264567768575 171 171 173
3.9674972590191624 0.6051083846704941 -16.701050151724818 173 173 175
3.924610669301801 0.5564003097177141 -16.84275020614529 174 173 176
3.953441725939732 0.5715950856582701 -16.84675850957416 176 175 177
3.985627862096786 0.5898105115315522 -16.8441490926321 177 176 179
4.027399516841883 0.6166379224592737 -16.82273490551624 179 179 181
4.238631092283134 0.7218539188496287 -16.88665629986252 188 188 190
7.287290182782433 2.434389440479432 -16.71202446184557 216 216 216
7.31248845398006 2.4492972267199926 -16.70632149982286 210 210 210
7.340580630913274 2.467414394324967 -16.691494388949515 211 211 211
7.36505134503766 2.4815990706380884 -16.687611549502034 214 214 214
-0.524362623988992 -1.3172768847350516 -13.35873995112812 208 209 211
-0.4502637136308376 -1.2933859228335725 -13.454644703808217 207 208 210
-0.4385932071391041 -1.2924827356246489 -13.485806401019008 207 208 210
-0.44625964230504334 -1.305882949653352 -13.537247048641678 208 208 210
-0.44057141254848364 -1.3094381178058851 -13.574869470822492 208 208 210
-0.428760205760792 -1.3084785618697494 -13.60615148513174 208 208 210
-0.35983936243261017 -1.296514666873703 -13.752950709773692 203 204 205
-0.3256703644112138 -1.278985333399933 -13.760606783915788 199 199 198
-0.26969517952449884 -1.245207225618496 -13.744726805050568 176 169 167
-0.22890652331849193 -1.2227019834900559 -13.744994945012282 133 120 117
-0.16870180083087405 -1.1856957869167966 -13.724120526136677 129 104 98
-0.12610562219097066 -1.1617826835051361 -13.722095268128257 114 72 60
-0.08365938574992793 -1.1379555168862905 -13.720087025110296 99 49 33
-0.05109466599156143 -1.1214883429889655 -13.728726383150933 100 47 32
-0.027621178954830405 -1.1118079156205098 -13.747248128813826 100 44 30
-0.006063393444627252 -1.1035586967057691 -13.767858506469121 100 41 29
0.07514018889968366 -1.050616872092947 -13.722699869556902 98 40 27
0.11224361153917517 -1.0306718259189878 -13.725902106342115 99 39 25
0.1555572314501834 -1.0060458796702765 -13.722101644688319 100 38 24
0.20453017215108193 -0.9771411815017403 -13.71184626169999 101 38 23
0.24188242759075873 -0.9569374951628054 -13.714368774203082 103 39 23
0.2580136332562111 -0.9526795562408514 -13.740542498139998 105 39 22
0.29903043025690224 -0.9296882817221039 -13.738789860803656 108 41 23
0.34108362941747217 -0.9058905141375382 -13.735726441551893 112 44 25
0.3783906524160692 -0.8856457838740686 -13.73787805979474 115 44 26
0.40892493612285996 -0.8704928043342348 -13.747592800543561 114 43 25
0.48150941668245917 -0.8235569807862269 -13.70939846482458 115 44 25
0.5887144717176147 -0.7503760830922772 -13.631323172688262 116 44 25
0.6703677154679539 -0.6964224296054433 -13.581879151633052 113 42 26
0.7112102102238236 -0.6733023869361197 -13.578862327502145 115 42 21
0.7390124428065672 -0.6600416720885605 -13.590720039952053 128 48 17
0.77796981514531 -0.6383074788573966 -13.589632094332195 154 85 51
0.8044812355163993 -0.626000341861471 -13.602836612139436 152 100 79
0.8132944214699132 -0.6271362549678279 -13.636576844911815 120 59 46
0.8705136834041802 -0.5914654589932566 -13.613931843197882 136 74 45
0.8852094011619016 -0.5881209878521423 -13.640777983030986 131 57 30
0.9208162750668523 -0.5688496369249716 -13.643116735062318 125 41 21
0.9356823701482035 -0.5653759099286049 -13.66976606703722 129 52 24
0.9661576648880628 -0.5499945761771552 -13.678015453652842 145 81 48
0.994706061948258 -0.5360716997832529 -13.688471714909866 138 92 60
1.0353046149006095 -0.5129237347685125 -13.684540746777321 105 54 33
1.0745914125570621 -0.49075239311314833 -13.682020963477179 115 61 47
1.1145604159184774 -0.4680328563701681 -13.678541081448115 102 44 31
1.1471172111812766 -0.4509691167858394 -13.683806110332256 114 56 39
1.181529384714536 -0.4324648732480134 -13.686743028844912 123 62 42
1.2176395798352466 -0.4126371262949462 -13.687520255870389 131 66 41
1.2666728991049272 -0.38285396093185664 -13.672519720794542 123 51 30
1.2919362942123307 -0.3713185714553209 -13.686182903128845 115 40 24
1.3350218533138092 -0.3460522968591717 -13.678078932950992 110 38 23
1.3711315031393942 -0.3261307108625138 -13.678327559233352 114 39 21
1.4051809416142174 -0.30777605538179076 -13.680978243356433 122 48 23
1.4476051940439048 -0.2829356798947491 -13.673212562635296 137 73 45
1.4763075941389214 -0.2686680426748591 -13.682211115248265 155 104 76
1.5035687209853705 -0.25550280839126094 -13.692924996184058 131 85 64
1.5413186042888132 -0.2342069879840949 -13.690549662409712 114 66 51
1.575071050526864 -0.21598350826777057 -13.693014836789635 113 56 44
1.609128056496428 -0.19750412506451553 -13.69498866728804 113 49 33
1.6424691869362098 -0.17956023629182694 -13.69774674831469 128 68 46
1.668973417872854 -0.16690921601510178 -13.70899803497512 157 96 63
1.7030007113573111 -0.14839780631120902 -13.710699788588236 156 91 50
1.7360275906720783 -0.13064464357121386 -13.713553152404808 147 71 36
1.7738706743451829 -0.10911989992991833 -13.710181767575548 141 57 29
1.7827345749597932 -0.11016811739543186 -13.743587040323169 136 54 26
1.8115774151331108 -0.0956369670459547 -13.751541982902467 139 62 33
1.8403725801758188 -0.08112968438101742 -13.759482927226177 144 65 38
1.8772016468593238 -0.060326461980620305 -13.757014704749103 141 66 41
1.9187230398374515 -0.03582526698922228 -13.748350444604565 143 70 47
1.9874542706474987 0.010025928929713324 -13.704283229851075 146 79 62
2.010067102321986 0.019783459272608717 -13.719699987432556 136 76 63
2.0277108902462944 0.025645384510948777 -13.741563375251854 138 80 68
2.025960533563132 0.01626741329487924 -13.788786553133015 150 93 79
2.043896688030318 0.02233977081579175 -13.810376062768913 159 100 87
2.07116529512758 0.03575596081980281 -13.819704046922759 161 102 88
2.1287869213389383 0.07309884261272481 -13.788919465289041 155 96 81
2.1462048930628557 0.07879255946875885 -13.81102626045654 166 102 80
2.1776794106306534 0.09557954316089923 -13.814485159732175 164 89 65
2.2042114429118946 0.10847951607696205 -13.824424887298516 167 87 60
2.381131557160856 0.19208437467244366 -13.904261355930633 116 32 9
2.3453179469520293 0.15542215608908538 -13.998930764430686 106 24 4
2.38460776546108 0.1538384891986837 -14.129805125306847 113 44 19
2.4677520639573647 0.2038187088632335 -14.107301238459808 119 43 5
2.5231485217753242 0.23994590869423282 -14.076434310530018 131 63 24
2.5542686636004577 0.2566469384911505 -14.079275621489233 100 40 13
2.5731893267346244 0.26356609141800513 -14.099166938569363 97 43 30
2.4902738635785227 0.18858887154961712 -14.262739853449961 93 43 29
2.6005177970201396 0.26894003301492564 -14.153838136020703 95 43 30
2.525626262585872 0.20025416441215382 -14.306996685780627 98 47 31
2.531063102225499 0.19620995693457788 -14.346584587700857 101 50 33
2.589144312426595 0.23465021819305631 -14.311065060318693 94 39 26
2.594804272732892 0.23078366340248113 -14.350348156212625 77 22 10
2.600479110244102 0.22690654543976496 -14.38973675335148 71 21 9
2.6061690343890156 0.22301894237583353 -14.42923106357366 72 24 15
2.611874254596419 0.21912093228160945 -14.468831298717575 69 26 19
2.616773423334502 0.21454583742959255 -14.5097308495967 73 34 22
2.621571601295269 0.20986430499150188 -14.550914505923878 67 27 16
2.6288089981548284 0.20714176913033455 -14.588671341564105 79 34 25
2.6392671330816073 0.20702048196037293 -14.621821461874688 87 40 27
2.6437073325277387 0.20197953939351487 -14.663911805724835 89 40 22
2.65284726099134 0.20074686813998133 -14.6992097657945 121 74 47
2.656218525146903 0.19478542561861012 -14.74315003738569 118 70 41
2.669628475479775 0.19700274091952252 -14.772333288263646 109 59 35
2.6724118766767777 0.19051303408828213 -14.8174146503304 100 53 29
2.6854888122261036 0.1924268310256898 -14.847268259772004 79 36 17
2.6768681615960954 0.17653535995445813 -14.909734829700438 70 29 15
2.6824989977733154 0.17229440503918214 -14.951029767577694 81 36 14
2.6881450308545247 0.16804126460485458 -14.992440308765703 98 52 26
2.6938064929094585 0.16377602516250178 -15.033966688004323 74 30 11
2.707792428764315 0.16634171851335955 -15.062982037169313 51 14 3
2.7198725163502244 0.1673257515992579 -15.094961398876698 44 15 7
2.74485507473967 0.17894497070120963 -15.107281970257848 33 6 4
2.743103561985232 0.16848464647649486 -15.16057898893952 33 9 3
2.680646177059243 0.10777422758884736 -15.307559227084383 37 9 5
2.8084966726949574 0.12161788667239648 -15.626760855375856 10 8 9
2.8143404938487784 0.11711629571498072 -15.670180517676496 10 8 9
2.8529073792536472 0.14001367871754988 -15.66134890797006 10 8 9
2.948942427317813 0.2111648561442503 -15.559991307786127 10 8 9
2.97971419308171 0.22763762208178884 -15.56303273027854 10 8 9
3.0240990119368343 0.2555786374504523 -15.543943823365986 13 11 12
3.051855226795957 0.2695662641075245 -15.551577044005343 15 14 15
3.094829481712292 0.2963954260722468 -15.53435187231752 22 22 25
3.152337031626484 0.3355322199744366 -15.493140274936497 28 28 31
3.1868634047238267 0.35532727248948026 -15.489183832039853 33 32 35
3.2113154030894595 0.3666302856106145 -15.501632689759443 36 36 38
3.256491228435485 0.3954896383526605 -15.47984311994891 38 38 42
3.283294834838123 0.4088243506757898 -15.4881849274493 38 37 42
3.307347754004197 0.4198384022207273 -15.501017298711881 34 32 37
3.312129191888337 0.4144866732255674 -15.545912147311965 21 19 22
3.33530902896784 0.4247559849713376 -15.560215610326217 17 15 18
3.3336280881803155 0.4138595938505576 -15.616180254724878 12 10 13
3.3169574887128386 0.39013975480808094 -15.69761078001282 11 9 12
3.3096812215305498 0.3743663080164348 -15.763588512873225 33 31 34
3.3028352983903115 0.35890610377013443 -15.829143461265195 60 58 60
3.8855424224417776 0.6973984528370609 -15.737618499605535 134 134 136
3.8883661234918634 0.6901152662831973 -15.787280381295433 140 138 139
3.8989949547387415 0.6896217948501366 -15.823050278675915 141 137 138
3.910399205299444 0.6897878937755495 -15.857524101131588 141 136 138
3.937777319564426 0.7039410802816684 -15.863053821715777 140 135 137
3.9422928630923044 0.6980417885719938 -15.910197728931358 141 135 137
3.9506518884900297 0.6954874649688185 -15.950492339985972 144 139 139
3.964056847218619 0.6973489546589722 -15.981658060246712 150 146 146
3.974010396111593 0.696155308734538 -16.019262917961143 155 153 153
4.000427109106394 0.7094655246246515 -16.026541095757143 160 159 160
4.023312185951327 0.7196711059616496 -16.04028727187953 162 162 164
3.9572350819429927 0.5687073760873078 -16.682803297501483 167 165 168
3.976601729729068 0.5755197993490713 -16.704678539994394 168 166 169
4.159527593436552 0.6337977636385212 -16.945371827724863 184 184 186
4.285990497188784 0.7271476384540221 -16.81383672195926 187 187 189
7.334349570137252 2.4383647328850793 -16.66948307402953 216 216 216
7.360349879256502 2.4542669763952967 -16.66091417598085 216 216 216
-0.40350087313658634 -1.3670341684531593 -13.811180241054998 208 207 210
-0.36802291986242786 -1.348524172486739 -13.817609211415334 205 205 206
-0.3061899689923573 -1.3103016902199935 -13.795579035748599 203 200 201
-0.2585581270791897 -1.2826514790763368 -13.788607331346887 174 166 165
-0.18862391565956926 -1.2382753807832048 -13.75730402679934 115 95 90
-0.15391225825276855 -1.2202263770700732 -13.76393522961985 100 65 57
-0.1071934157161607 -1.1931584726141762 -13.75738875737566 93 48 39
-0.07602671854164367 -1.1777288572396265 -13.767669009741926 93 44 33
-0.046172387528561565 -1.1632723831336462 -13.779319268702896 95 41 30
-0.016359429532319503 -1.1488361537099845 -13.790954555612274 96 39 27
0.08656575305753478 -1.0793935383063014 -13.721849093705845 98 39 27
0.10642849928178766 -1.0723809655846885 -13.74412474041279 98 40 25
0.14580283758656698 -1.0506686581488944 -13.744741022470123 99 39 23
0.20168557411256582 -1.0164846856738938 -13.726839456500286 106 44 28
0.2473180512302644 -0.9899927057854025 -13.720147030922629 105 40 24
0.2903022920254852 -0.9654697968424135 -13.716249031711572 108 41 25
0.337471049325619 -0.9377555159686684 -13.707489498744401 110 43 25
0.3728775485390239 -0.9189070272427502 -13.711810871795794 114 46 27
0.40934591765129635 -0.8992357603013987 -13.714826497011924 114 45 27
0.4629611377843288 -0.866549309242794 -13.698267049033433 115 46 27
0.5123681172447139 -0.8370126659932291 -13.686264150971422 116 46 28
0.5130551324432586 -0.8444247165244008 -13.729703257649671 116 46 27
0.556045205550638 -0.819720794508322 -13.724814265877697 114 44 27
