ply
format ascii 1.0
element vertex 714
property float x
property float y
property float z
property uchar diffuse_red
property uchar diffuse_green
property uchar diffuse_blue
end_header
-4.501331855906585 1.4584442215896027 -13.711098009770254 116 75 52
-4.497424795602296 1.4802796690447098 -13.772525942685483 102 52 33
-4.503120618488868 1.4822124167304236 -13.812462236783071 90 40 28
-4.507090919759134 1.4877752299937246 -13.856466607232342 80 34 21
-4.515349945863173 1.4844403107250543 -13.890838021565832 81 35 22
-4.522633456256883 1.4831669617135383 -13.927545081927335 80 33 20
-4.603618884869629 1.3279396028945598 -13.794697637747607 80 32 20
-4.4279244917959355 1.7960699321976228 -14.586707773574492 95 48 33
-4.414376041327491 1.8393153430894458 -14.67518775596222 93 43 29
-4.586726260952452 1.5783643049271054 -14.65860564403064 47 14 7
-4.624391280061931 1.5131741072997005 -14.62367875042267 61 18 12
-4.63644083723172 1.5023831329616728 -14.651101195434133 69 29 23
-4.601010429035272 1.592750905684797 -14.7953431123909 34 10 7
-4.619902610071999 1.5675029097236917 -14.80639623406324 18 2 2
-4.637826272811681 1.5443023049745985 -14.819770582346965 20 3 2
-4.6626022597016785 1.506438986822595 -14.816042178469928 37 9 4
-4.599198080927702 1.6572231885463515 -15.032242752633504 54 15 6
-4.633593783430215 1.614184573976519 -15.063597802785404 74 25 13
-4.64844601968434 1.5976838202683186 -15.085127340475665 79 30 16
-4.666848206921407 1.5735513012941018 -15.097660307209 85 35 24
-4.686557727173267 1.5465871226355294 -15.106799110296855 88 38 29
-4.697925692939383 1.5375710952964918 -15.137136379677905 91 41 33
-4.735715738091589 1.4715763742360273 -15.099838096028993 91 42 35
-4.771672052096231 1.4094262255150487 -15.066812615140018 92 43 36
-4.804263048499607 1.3544451725757352 -15.04206368059647 92 43 36
-4.807128855316896 1.3637183143757219 -15.093990121761117 93 45 35
-4.871734086134525 1.2392488142089593 -14.985563575609023 88 40 28
-4.898008300730847 1.1976931018846417 -14.976230174153565 83 34 24
-4.898403642909321 1.2122943047526222 -15.034482659810088 84 41 33
-4.958276343301497 1.0976102815385995 -14.936559313863654 84 44 37
-4.9727710971581605 1.0815014980967774 -14.957550745179848 82 48 40
-4.924809815031311 1.201552703096533 -15.144073588813612 59 31 25
-4.943735995596245 1.1759336034539731 -15.153897687480939 45 18 14
-4.957336306334373 1.1619302862512786 -15.17785604479017 42 16 13
-4.953894817708989 1.1852191383056447 -15.247516230974037 44 21 21
-4.953373450589253 1.2022064417618372 -15.309684719286004 50 33 33
-4.952566088844069 1.2199015436163467 -15.372934498381927 50 37 37
-4.953502365638147 1.2338502747820534 -15.431773627137739 55 43 43
-4.951657462550536 1.253987820957775 -15.498465509618917 55 39 39
-4.928425533116498 1.3212961697924377 -15.623931252363423 43 22 20
-4.924824585115384 1.3455420552205162 -15.696351076620823 37 16 13
-4.927452004793901 1.3561435566851054 -15.752010483358102 36 17 13
-4.940399411769211 1.3440092302537545 -15.779408131138606 51 34 31
-4.947272068352075 1.345325173182859 -15.82369896047306 61 48 45
-4.9549225533075125 1.3449626424449415 -15.86599446896804 64 51 49
-4.964319916988659 1.340766179459557 -15.903562034317318 63 48 46
-4.977950484944508 1.3271999345239611 -15.929369320267153 52 36 33
-4.991584518052626 1.3136333913160048 -15.955195249067245 41 19 14
-5.004820498797222 1.300960507814434 -15.982175366910955 47 23 19
-5.010759195141671 1.3045647022271747 -16.029908445356504 48 23 19
-5.054621751286688 1.223571056483077 -15.969765164292259 53 29 25
-5.068699891337254 1.2089784150613951 -15.994191988761797 50 28 25
-5.049676886448521 1.2684661101630965 -16.113699651968258 41 22 20
-5.061239457717395 1.2596160106210315 -16.145784483846025 35 19 19
-5.088617589391943 1.2153008985785516 -16.132172487026956 41 26 26
-5.098127582969215 1.21105596455756 -16.170197307206383 46 31 30
-5.10130638116998 1.2210856842437816 -16.226812436323954 50 34 33
-5.108416003274455 1.2223311239215229 -16.27218600914294 61 44 43
-5.109738445706634 1.2366767389931748 -16.334752254094166 65 45 40
-5.108169105658259 1.2576356412469245 -16.40616752285755 70 45 40
-5.1155062627192365 1.258552572468873 -16.451580549572544 74 45 42
-5.124022714019304 1.2568460317363481 -16.493666676876206 78 51 47
-5.13697714582297 1.2451162587877551 -16.522655883530106 100 82 75
-5.142747426172372 1.2497126211158642 -16.573232195460992 118 107 102
-5.162833268749349 1.2218170828538355 -16.580948149111553 127 118 116
-5.184327855938408 1.190683773384718 -16.5842915988961 131 126 123
-5.1495482228202 1.2878121211843485 -16.758176094539643 138 132 131
-3.6209849941867525 2.4999229556942746 -12.476077440836292 117 41 25
-3.6528883446343485 2.4615482844767107 -12.511188505904158 115 38 22
-3.669824262730021 2.440409097083335 -12.526906691984001 114 37 21
-3.698936822929978 2.3952071001852553 -12.520216054651678 115 38 21
-3.7780275473055625 2.251144075929951 -12.421181360719395 115 38 20
-3.7876146862731987 2.2443904133292727 -12.449903622009138 114 37 17
-3.8234610264808477 2.185645688640712 -12.429923974635237 119 42 22
-3.833776273689812 2.1774335564328595 -12.457231666604917 114 36 16
-3.8622556182397796 2.133197363458642 -12.450620509731458 113 34 17
-3.8872058612599245 2.0959182629095596 -12.45043964126878 113 34 17
-3.9208314058411973 2.0413590999565576 -12.433774747729402 120 41 24
-3.9471923467815726 2.00118133067149 -12.430575908426901 115 36 19
-3.9660209491327083 1.9759558972897104 -12.441495028827173 114 35 18
-4.001260591319707 1.9180105086911547 -12.42111227380748 115 36 19
-4.026995349839936 1.8789463381383937 -12.418594888567448 115 35 18
-4.050395245037 1.8445005166322752 -12.420390812540093 111 31 14
-4.072065433345255 1.81347617608996 -12.425382599173382 114 35 18
-4.088281135142578 1.7933313324247555 -12.44079507980113 122 43 26
-4.107882449460105 1.766400683347844 -12.449614383507676 122 43 26
-4.1233071908780845 1.7478161681460738 -12.466472119351609 109 30 13
-4.156507160117206 1.693581527830193 -12.44862627027159 111 33 16
-4.176945224799463 1.6648898121386257 -12.455496770543222 113 36 18
-4.197959772593745 1.6350151126970602 -12.461139907124323 108 33 14
-4.2180706058841135 1.6069303937883892 -12.46846178967111 104 29 10
-4.250947388365901 1.553129132576252 -12.450430011482002 111 36 17
-4.266850154539396 1.5334495367902647 -12.46583593370137 108 32 16
-4.223812225152612 1.6326031436199342 -12.598677978368514 113 41 28
-4.228038957572473 1.636580252744575 -12.637789231797232 129 68 54
-4.2838980645941565 1.5362933586262995 -12.573396545647245 134 76 59
-4.30855545334396 1.4989351001289708 -12.571252715042862 133 66 50
-4.342306994604503 1.4556195173029538 -12.598061942081703 144 84 67
-4.385890036446002 1.3797907739119624 -12.557017335165364 133 65 40
-4.415120041229541 1.3329770428475491 -12.544863795932304 138 64 24
-4.434290006987978 1.3065393433274872 -12.553109905557498 130 68 29
-4.463097092051266 1.260483699754197 -12.541439319263958 54 8 0
-4.4823094325019195 1.233896937200786 -12.549359018523328 46 9 1
-4.436765600548844 1.3392131731561272 -12.691416602134886 50 10 3
-4.491709856328031 1.239842543632025 -12.62531673844517 59 12 6
-4.4508189414615735 1.335926428282498 -12.758668841379455 79 30 23
-4.446990530436347 1.3565001282712772 -12.815184243015945 85 40 32
-4.440860159944336 1.3818504716814473 -12.87680167097351 89 48 39
-4.454316229523679 1.3671834687956212 -12.897385558024613 91 47 37
-4.459570199266807 1.369324247251916 -12.935342779678528 86 39 24
-4.449058741330859 1.4038354031444724 -13.006936240611441 102 59 42
-4.437452565036795 1.440691452703685 -13.081234837872472 96 56 38
-4.428124997631524 1.4729669547773119 -13.151044644745888 82 40 22
-4.43065802229261 1.4809368096528046 -13.195728561185923 70 26 8
-4.430589215380623 1.494310399892989 -13.246197569598706 74 28 11
-4.43810958129183 1.492097617477775 -13.280459919907301 81 34 16
-4.448967707172841 1.4830240588414978 -13.307572421230649 85 39 17
-4.452437176562576 1.4892234270501121 -13.350837468050369 100 54 31
-4.459692450414986 1.4876390000978659 -13.385985063323272 102 56 33
-4.465699251195379 1.4886660640457583 -13.423979112071166 108 65 41
-4.474152260950135 1.48465859765323 -13.456709001157325 101 60 36
-4.481930145083295 1.4820742253583052 -13.491019599657365 98 57 38
-4.490244924525275 1.4784014016548825 -13.52423768114527 95 53 38
-4.498874871408203 1.4740976265688714 -13.55684481949778 86 46 34
-4.507569287979132 1.469682519473447 -13.589394425227333 80 41 24
-4.516995959945056 1.4637653322089674 -13.620387146374474 100 63 41
-4.521824113030721 1.4674528464588366 -13.66181009397829 116 77 53
-4.525893301604215 1.47276357786133 -13.705099035319417 107 60 40
-4.527214182381041 1.4838578617203289 -13.754786263410242 98 46 31
-4.52661230675599 1.4990277948279118 -13.809061600815252 90 42 28
-4.525135510210119 1.5160931654847394 -13.865580136437103 83 37 24
-4.538286822839366 1.5025773491861014 -13.888812488927435 82 36 23
-4.5414711123017755 1.5099713697234551 -13.935002398630832 82 35 20
-4.440352024599262 1.853579763428494 -14.667894619204825 93 45 33
-4.409349095193116 1.9493372908906021 -14.856119172171725 65 17 7
-4.609496411828015 1.6136948680474434 -14.715499180129227 57 16 9
-4.6186563263931895 1.6092010149629683 -14.75039098289583 75 35 27
-4.626115781127477 1.608374366053806 -14.789579103401158 43 15 8
-4.648085268042466 1.576476929238995 -14.792949020523928 19 2 1
-4.666104622702885 1.5530212618145551 -14.806006103398992 17 2 1
-4.67447742157269 1.5502751278979532 -14.843077622585493 30 6 2
-4.609679819190614 1.7049499100697734 -15.063581009395724 50 13 6
-4.628926133772083 1.6790289130222407 -15.074225401533125 65 19 9
-4.644255252567199 1.6615310985857654 -15.094673186291026 72 24 12
-4.660137674518184 1.642836241444042 -15.113708596925884 82 32 22
-4.6819893573516955 1.6112367213124594 -15.117542955560467 88 40 30
-4.694345989715429 1.6001435385515843 -15.145478781258255 89 41 31
-4.705396830213295 1.5918906794912395 -15.176806026882232 91 43 33
-4.746453544069859 1.5185895348572132 -15.131037102118238 91 43 35
-4.765379931204114 1.4932000520827189 -15.141887267473795 92 44 36
-4.806750946231134 1.4190039395575829 -15.094498434323045 92 44 37
-4.817502036066629 1.4113041065501508 -15.126227763759953 92 45 36
-4.870841962734545 1.3108351584937066 -15.046846569806682 91 45 31
-4.9137565243724906 1.2329065677603306 -14.994022712329347 83 34 20
-4.916185203566455 1.2432479230661997 -15.04713324230651 85 40 30
-4.9120030194245 1.268107176754929 -15.117938878524267 86 42 35
-4.923736794059411 1.2582221070444328 -15.146934461624136 85 45 39
-4.939913264442847 1.2386144027443127 -15.164167036617911 78 46 40
-4.9549698350782005 1.221455666098982 -15.184357636619705 50 23 18
-4.993845869934421 1.1519598860126883 -15.14068524263747 46 20 19
-4.996348059634594 1.1623490931305716 -15.19439491868637 39 16 14
-4.999899918670218 1.1704910056228757 -15.245514975666685 44 25 25
-4.994102265768398 1.1993099348304894 -15.322211509978821 48 35 34
-4.983820417457874 1.2381403628592085 -15.411534089521538 50 38 38
-4.9860120392572025 1.2495322049811008 -15.46729431575028 52 38 38
-4.977068165850159 1.2856399968983663 -15.553855675130366 45 25 25
-4.980890782620278 1.293585572919957 -15.605765598577461 34 15 12
-4.970803191186883 1.33245782686968 -15.696349634498915 34 16 11
-4.979059746139742 1.3307129036078602 -15.736569061201534 38 21 14
-4.986665714594154 1.3304521335225146 -15.77874066140379 45 28 22
-4.994504754781156 1.3297130702290474 -15.820415987280242 47 28 24
-5.003293226300782 1.3268964249944455 -15.859578264673454 47 28 24
-5.007555038354273 1.3342226965245345 -15.911625386616768 45 26 22
-5.023322239332056 1.3158850096015184 -15.931365237659744 46 23 19
-5.028120837336365 1.3220987006762814 -15.982227459734657 53 30 26
-5.042510081433617 1.3068719789049084 -16.00597844337953 51 27 23
-5.076133161354519 1.2484769886688207 -15.974711992567274 48 24 20
-5.095769186486071 1.2214086874468402 -15.98320478933944 48 26 23
-5.09462594548218 1.2410746459014246 -16.0515062084866 46 27 27
-5.090846550446979 1.2667754287981707 -16.12779796071042 38 22 22
-5.109387514789576 1.2422251039533507 -16.139652180450213 41 27 26
-5.1220470799528535 1.2309414960235427 -16.16858294426412 47 32 31
-5.127404366113594 1.23619174394931 -16.218951725893312 61 44 42
-5.129867646056987 1.2480557839847481 -16.27804935055333 66 47 42
-5.135436362626454 1.252951566052678 -16.32826995776854 69 45 40
-5.140786099428554 1.2584023642926843 -16.379358585979322 73 44 40
-5.139096531327741 1.2799230579271876 -16.451613158516594 73 47 43
-5.146297636703205 1.2812982874090877 -16.49770886291757 86 65 59
-5.144776218989539 1.302615168294592 -16.570142580753753 118 104 97
-5.183513868786733 1.2320956284045028 -16.521791524879802 128 117 114
-5.198519312446509 1.2157006678973046 -16.544596607705643 133 125 123
-5.2174994677289686 1.1902045599397102 -16.55534640996008 136 131 128
-5.25131617857586 1.130662077697746 -16.52081491223006 142 136 136
-5.258115389189534 1.1330413154052188 -16.56844811602338 152 147 146
-3.6503575759917934 2.5052765041295055 -12.462645142244629 115 39 23
-3.6698515092159782 2.4790537790950955 -12.473696135480228 113 36 20
-3.6911723486787658 2.449194111966842 -12.481334614906707 112 35 19
-3.6983869502358844 2.4472741231988047 -12.514784849419872 112 35 19
-3.7313508759517258 2.3942876141706435 -12.50087039324423 113 36 19
-3.813972433079403 2.24262283692883 -12.39487244033899 116 39 21
-3.8059115859647896 2.27096020108818 -12.45628089566312 111 34 15
-3.830402091634821 2.2346185741050455 -12.457350392413513 113 36 16
-3.8555882826115058 2.1968550252995196 -12.456980954209081 115 37 18
-3.88343371561005 2.153752638671269 -12.451474889355822 120 41 24
-3.908841289394366 2.115463777898644 -12.450372896897491 114 35 18
-3.940000409590671 2.0656520772494713 -12.438252694581383 115 36 18
-3.9702073618252087 2.01768159977735 -12.427706200404458 114 36 17
-3.9818422650164904 2.0067953308569706 -12.452271738086779 113 35 16
-4.016263234319014 1.9503058858001867 -12.433364087217406 114 36 16
-4.039627574900006 1.9158943724951079 -12.43536116942268 116 37 19
-4.070685420372099 1.8660204714667614 -12.422435178274164 113 35 17
-4.090447589694308 1.8387556005736823 -12.431068666660746 114 37 19
-4.106418227567504 1.8190856706264786 -12.446961275733443 123 46 28
-4.121150795745951 1.8018969209401652 -12.465228628980455 119 42 24
-4.1340273647609616 1.7884397406998365 -12.487101289558499 116 39 21
-4.1604438536791335 1.747710439148419 -12.482485735753002 114 37 19
-4.177827751013858 1.7251463153700435 -12.495434038212963 112 36 18
-4.214678725893268 1.663281436133524 -12.469958813952292 110 35 16
-4.229948250446839 1.644924467287451 -12.486848804044694 109 34 15
-4.249248784399207 1.6184112049342478 -12.49571325327608 111 36 17
-4.270261750497948 1.588411094123079 -12.501085608421349 112 39 21
-4.2416032255681655 1.6589985023377376 -12.605663921292248 109 39 24
-4.247124395560087 1.6604461318446617 -12.642263745956289 125 63 50
-4.30180646614162 1.5621571150888665 -12.579986829682387 139 81 66
-4.3269446960523865 1.5237246194952223 -12.57682398946939 130 64 48
-4.360617812773365 1.467894517449222 -12.556185020071279 134 70 52
-4.359207472473836 1.4833874923964472 -12.606661379740517 151 88 69
-4.402583225395631 1.4077049497914342 -12.565874283645094 135 66 43
-4.432911131717196 1.3585117278574672 -12.551398476057217 138 65 27
-4.453152706894137 1.3298389654823404 -12.557426097720441 120 58 19
-4.4606843256865645 1.3271053307069196 -12.58959573406349 58 12 1
-4.492052064654621 1.2756525710455482 -12.572463009830443 47 10 2
-4.456536185897985 1.3866969722477092 -12.790946141623316 77 28 21
-4.4663108407177585 1.3795451730881716 -12.819103958881009 86 41 32
-4.469305344345901 1.386340851262283 -12.861622893651997 88 44 35
-4.49024075570288 1.3562773904435255 -12.866318908229793 90 46 37
-4.484038251457214 1.3820580731751582 -12.928566298589903 86 40 27
-4.474271781794478 1.4152642762891898 -12.998717353881597 87 40 25
-4.470776608995969 1.4356286573247488 -13.055807198081304 94 48 28
-4.472411845481412 1.445469215119462 -13.10214326661584 105 60 37
-4.474330437621788 1.4547738738670004 -13.148056387863202 101 56 33
-4.467449258453117 1.4823353166150586 -13.21319199202555 107 63 40
-4.473020532712891 1.4841910445988797 -13.251613532042722 106 62 39
-4.47825593030704 1.48677758947266 -13.290896915081897 107 63 42
-4.48542973862285 1.485377279456312 -13.326077008944427 101 58 38
-4.489235939770937 1.491001266005207 -13.368755062892063 96 55 36
-4.495757661961995 1.4910206460141788 -13.405611580105859 94 52 37
-4.505639660482263 1.484076227265942 -13.435156954331077 83 40 27
-4.513451494827961 1.4814629192163271 -13.469360851065709 75 33 19
-4.52146629517004 1.4784524148311418 -13.503211500991075 82 40 26
-4.530605535219256 1.4731194221082933 -13.534645015286602 94 51 34
-4.538247380377975 1.470937214583817 -13.569516020382794 114 71 50
-4.547051044482896 1.4663513834453452 -13.601874716898944 116 71 47
-4.546174102505304 1.4820653966260955 -13.656193150977145 107 61 37
-4.545814487617248 1.4967597024410404 -13.709583613790327 102 51 34
-4.547606528068776 1.5070008474089716 -13.758314870464773 96 44 31
-4.550207582148057 1.5155961969394012 -13.805402053143712 91 43 28
-4.574502437845403 1.4786109505094225 -13.802940682397082 87 38 26
-4.58910795996616 1.4619828220953504 -13.822605829422898 85 36 24
-4.609334833298135 1.433503165531731 -13.829278818239494 84 35 21
-4.626977605585198 1.4246467803865905 -13.895385170656729 90 39 25
-4.555252915494436 1.7688636400286777 -14.789042240135773 70 40 35
-4.5880098123357556 1.7139012301485406 -14.76650811408964 66 37 29
-4.618721501411861 1.6632435940685641 -14.748673940078021 53 18 10
-4.635092365625092 1.6433394598925317 -14.765940593796747 77 42 32
-4.635236910046722 1.6583513791918612 -14.823372446976869 59 31 23
-4.648177659767064 1.6458609152322072 -14.849253011357899 22 4 2
-4.6408787159938125 1.6770409677990186 -14.925679746377762 17 3 3
-4.648151579802034 1.6768583602903258 -14.966011023050125 26 3 1
-4.624354093629792 1.7438932084552143 -15.084607996582513 48 12 6
-4.642646221928963 1.7200086256158884 -15.09769881241876 65 17 10
-4.657402666018502 1.7037691093277831 -15.119680809084162 74 25 15
-4.675962217117458 1.6792780554087172 -15.131992655679499 84 37 27
-4.681019320990818 1.6840987656837871 -15.178696465285245 87 41 31
-4.69652535171403 1.6821489853402483 -15.258799164379088 90 43 33
-4.86437835980759 1.3951708736766473 -15.123191964763762 91 46 33
-4.926982041355632 1.2738117767956072 -15.018586544845498 86 38 24
-4.932664192582813 1.2771753208548446 -15.063320089317333 82 35 24
-4.934758566125946 1.2884724802808076 -15.117739245621962 86 41 33
-4.941408978405212 1.289808498945674 -15.160287220989588 84 44 36
-4.960193095703932 1.2644491376943892 -15.170590880538304 83 48 42
-4.970323854038294 1.2581588437482956 -15.20400628955661 71 40 35
-4.988607018007874 1.2338839152838847 -15.215574378927665 47 21 16
-5.01307026843573 1.1959201969303126 -15.210372526670707 42 18 14
-5.016589477417146 1.204281805568022 -15.261756691074341 45 25 22
-5.027715898733072 1.1958372757275786 -15.292663200243052 46 30 29
-5.013365964962712 1.24396810868123 -15.393250271143682 48 36 35
-5.01653782693935 1.2533132076210234 -15.44638452769612 50 37 37
-5.018898090668876 1.264528510890354 -15.501994626040233 52 35 35
-5.026908342797008 1.26322282542238 -15.542249251277573 48 32 28
-5.028769090247597 1.2756752330821572 -15.599707676904186 54 36 32
-5.017345014606617 1.3178783233560218 -15.694440852070464 47 29 23
-5.0214267050015895 1.3255468275864 -15.746383486459106 45 25 19
-5.0284270792806325 1.3267398210584962 -15.790365885117772 50 29 24
-5.035662493320216 1.3274508057284633 -15.833856072080975 53 31 26
-5.042293653582533 1.3295626675327794 -15.879221511783278 58 34 30
-5.05536196549962 1.3172495394347599 -15.906490356967133 62 38 34
-5.059173926027378 1.3257855438072905 -15.960183404720663 60 35 31
-5.073764740451331 1.3100890541186252 -15.983279220901423 52 27 23
-5.102559941636448 1.2623333526296583 -15.965580268513559 46 24 19
-5.1127148034000145 1.256624564646836 -16.001324741015168 45 27 22
-5.123131239741583 1.2503520871796407 -16.03641860784691 50 34 33
-5.129731612138858 1.252754011335865 -16.082704353390582 44 30 29
-5.141799423409789 1.2427999765604016 -16.113227421492333 47 32 30
-5.146600968226712 1.249373081731329 -16.165098900206814 62 44 43
-5.151959764170192 1.2547400964637418 -16.21556465162694 69 48 46
-5.153207661609904 1.2695313816463818 -16.278387461307688 69 46 42
-5.1519432259977025 1.2901385209058742 -16.34897452455782 72 46 42
-5.16013760277811 1.2892390217858347 -16.39179954740175 74 47 41
-5.165342450782952 1.2952207508255364 -16.44371537103857 76 54 48
-5.159459873214102 1.3266609788788504 -16.52911184692586 105 89 82
-5.19786479544744 1.2566496968400767 -16.481677407159214 126 117 111
-5.21953014645975 1.2249407072865202 -16.484284365315826 134 126 123
-5.229494950841954 1.2201020660703668 -16.52223859675597 137 131 128
-5.2332914732430815 1.2295032136645698 -16.579107409916165 142 137 134
-5.2189000684118385 1.280926329601007 -16.69187723680779 149 143 142
-3.6587112381682005 2.539792546798418 -12.440858746630049 114 38 22
-3.6808602120582252 2.5082581681123957 -12.447072854231493 113 37 21
-3.7035703356420613 2.4755806634381767 -12.452156991661948 112 35 19
-3.72725760041882 2.4409293508967864 -12.455336103846811 113 36 20
-3.7402982277547654 2.427444512065625 -12.478001785602029 112 35 19
-3.8496673173051152 2.234350045102797 -12.368867390301158 114 37 21
-3.8238461846176377 2.2983159561129707 -12.46337279303821 110 33 15
-3.85430525386011 2.2499609805937664 -12.45325713004047 111 34 15
-3.8716639942255537 2.2277483398634024 -12.46748447216956 111 32 15
-3.90248919615753 2.1785667031496936 -12.456329292626886 114 35 18
-3.9331049809467746 2.129744402477591 -12.445344195055426 114 35 18
-3.930719733958209 2.14704090108215 -12.49666771688052 116 38 18
-3.9578077531767173 2.105238608168331 -12.492163781355558 117 38 18
-3.9801496029423657 2.0729235472090255 -12.49653910038092 114 35 15
-4.02963887661514 1.9859906997299253 -12.448809167653076 115 35 16
-4.043674069892244 1.9702825416905219 -12.46873424665751 114 35 15
-4.091571091886421 1.886361827055386 -12.423344822484593 115 37 17
-4.111056016503958 1.8596017489907757 -12.432482229507187 117 40 22
-4.126961534134711 1.8400439822437997 -12.448493183035952 115 40 21
-4.141537597276339 1.8231634922053552 -12.46706536604561 120 45 26
-4.157465245037866 1.803547131077491 -12.482981214387708 117 42 23
-4.178262460775554 1.7740681369503215 -12.489305431508768 115 39 20
-4.190379809461829 1.7621438605296498 -12.512632403640854 113 38 19
-4.232643758911697 1.6891060753614493 -12.476370788629387 113 38 20
-4.245324282619516 1.6759938590688956 -12.498411524989798 109 33 16
-4.256480521786313 1.6659813278378537 -12.523501257626283 109 34 16
-4.27630302241227 1.6383589196945119 -12.531305650266976 111 39 23
-4.257377863516574 1.6895642922032064 -12.616739958533987 114 45 29
-4.263056142251093 1.6907793506037025 -12.653116179959639 118 56 41
-4.317693369721698 1.5922056937650177 -12.590704212956378 145 86 70
-4.3427793560520005 1.5537811821227518 -12.587611270760544 130 64 48
-4.3435081778495075 1.565066937979957 -12.633909511391572 132 68 52
-4.383203461606092 1.4967294261925637 -12.600829013106019 144 81 60
-4.403676857676314 1.4676298095900466 -12.606756952647192 129 57 32
-4.41407684157423 1.4591393373286259 -12.633300264954293 127 51 14
-4.4271001807710695 1.4452819534001113 -12.654475586196874 110 45 6
-4.469466653971411 1.3711985210378916 -12.614877624179957 62 13 1
-4.507246981310167 1.3064228086496485 -12.584384546185767 47 8 1
-4.482358265742193 1.3963414547175108 -12.781189029498908 69 22 14
-4.4892496155295785 1.3951647383634405 -12.815419470181551 84 37 29
-4.495566802063256 1.395200676449233 -12.850966989368164 87 43 34
-4.479097844418891 1.4423575793427692 -12.935027692930962 87 44 34
-4.482171599448515 1.4492096396756078 -12.977887702173597 89 47 37
-4.4822098741962115 1.4623911641979466 -13.027405673909254 87 43 31
-4.48693079862293 1.4659228320996118 -13.067080037922908 85 39 25
-4.489782856781404 1.4733696685935311 -13.11092191758732 88 42 26
-4.493587987797082 1.4788824394617976 -13.152872498489065 82 36 20
-4.498801794654332 1.4815082067019811 -13.191921501246725 87 41 25
-4.499833702892579 1.492873448453997 -13.240216098554551 85 41 24
-4.5067498440702 1.4920340135340466 -13.275847063568563 78 36 19
-4.514488293870857 1.4895091025954632 -13.309783497391521 77 34 17
-4.518781099973224 1.4942032781527281 -13.351406077402249 76 32 14
-4.525738834066605 1.493369539926579 -13.387291512976747 83 37 17
-4.533581886555398 1.4907136547776059 -13.421324443754756 95 49 25
-4.543381891292331 1.483986066230384 -13.451098160544593 108 62 37
-4.551288668698687 1.4812448966529388 -13.48516932969591 115 69 44
-4.559710461073831 1.4774492719399182 -13.518183564385136 115 68 48
-4.560829429305183 1.489017740914747 -13.567726344872087 111 63 44
-4.564381007848077 1.4955274524870346 -13.611984451916669 103 55 35
-4.568247300005028 1.5014207478360282 -13.655701183716928 96 50 31
-4.575268255131302 1.500711581961017 -13.69240696909872 93 47 31
-4.5787821703094576 1.507431358227652 -13.737239655376259 93 44 30
-4.587682973664492 1.5028230968153946 -13.769899606876686 94 43 29
-4.602640480081483 1.4854348984008663 -13.788711094567002 89 39 28
-4.617515335338529 1.4682176302878807 -13.807698591369352 89 39 28
-4.637163762906599 1.4408843867859202 -13.815608734014642 88 38 25
-4.608374283594337 1.5162470778859953 -13.936101933889596 90 38 25
-4.640405914332934 1.4626845377221191 -13.915323716661732 90 41 27
-4.599394039622762 1.5642766631069307 -14.065407252830205 95 45 30
-4.489577166896852 1.8574485387469073 -14.546355185423304 92 47 35
-4.438899151218064 1.996162943999615 -14.781101963520609 90 49 40
-4.436899618876128 2.0158196635507646 -14.843415771136424 83 41 30
-4.438445171065908 2.0279556995816286 -14.89747280534104 74 27 19
-4.458254091181823 2.0009545844967356 -14.90752491642186 65 18 12
-4.574266187929522 1.7979423998223334 -14.798534459951444 69 40 34
-4.592776633156589 1.7735070261221315 -14.810904286749995 71 39 35
-4.60079895170248 1.7716921107935422 -14.849087668012793 61 29 23
-4.6506257745942055 1.6795700100350235 -14.783840398126951 72 40 34
-4.634989660536073 1.7289021841922692 -14.880706142982365 67 38 32
-4.6476566360494 1.7170811083649498 -14.907500237330868 26 8 5
-4.647944920179913 1.7321128551206857 -14.965340184078944 17 3 3
-4.649869323772836 1.7436648791848999 -15.01933659183414 24 3 1
-4.667878293036112 1.7203218015036148 -15.032980788353484 45 11 7
-4.662136989971349 1.7486433198363232 -15.106728161631711 65 17 9
-4.674634369962488 1.7373349616136857 -15.134489270845151 77 31 20
-4.682109941096578 1.7369915230202473 -15.175111503170882 83 40 29
-4.682068929450516 1.7530995608225788 -15.235131169100745 87 45 33
-4.77422504398349 1.6157466088046442 -15.237996024597148 90 46 37
-4.844090752391463 1.478436415469214 -15.116064497777778 90 46 37
-4.885198131486052 1.4201110233310041 -15.12834872309536 91 47 35
-4.926609522957109 1.3449167142018168 -15.079241672504772 90 44 31
-4.93377453657532 1.3451725134224888 -15.120364325345463 83 34 22
-4.951114902861259 1.3229801401489785 -15.134564472656901 84 39 29
-4.962704030387838 1.3134988358323079 -15.164067875879592 85 42 34
-4.97816771708042 1.2954497457567489 -15.183244965280538 83 44 37
-4.9852585504432145 1.2959684835271212 -15.224935256032431 83 47 41
-5.00475378349667 1.2689787380670539 -15.233271415828277 66 34 29
-5.022205212876228 1.2465067314228166 -15.247048239953045 54 29 22
-5.042107627386107 1.21856168552684 -15.254093841015226 94 74 68
-5.044848862906372 1.2288438808196958 -15.307919678991073 59 42 38
-5.042453285229898 1.25065804255907 -15.376082893882018 45 32 30
-5.04500681244485 1.2615071185178146 -15.430976797841979 47 34 33
-5.054543318711826 1.256798563167195 -15.466825260649205 50 35 36
-5.057985009792975 1.2657749759338177 -15.51969366292531 53 38 38
-5.076512988761176 1.2409706271344176 -15.530781687902152 62 45 44
-5.073570978564007 1.2643722632222252 -15.601819389828664 79 61 60
-5.069471419845796 1.2904792528089075 -15.6764870143387 68 49 46
-5.067558873732984 1.3117702039227455 -15.745401037266387 63 42 39
-5.065849559276558 1.332700245844094 -15.814104419291453 61 40 37
-5.066274311520728 1.3489086340417984 -15.877110425027933 59 37 34
-5.078499246191742 1.3385233010372248 -15.906796681023106 52 31 26
-5.094333149236128 1.319983684129912 -15.926214403687919 48 25 22
-5.111012081651432 1.2995230287673962 -15.943183879824247 47 26 22
-5.1369570283469965 1.2580196526827692 -15.933390120766425 44 27 22
-5.145252160129614 1.256564699084202 -15.974449227700305 45 30 27
-5.1458065522656735 1.2727662240928947 -16.038156302464035 48 34 31
-5.155548331616744 1.2681179074340818 -16.07538080539514 51 37 34
-5.165980852334201 1.2619250414930527 -16.110700347138888 64 48 44
-5.168834552898191 1.2730775122014206 -16.168411773162312 68 47 44
-5.173628288135245 1.2798656876426064 -16.220674754423996 71 46 42
-5.173963298425509 1.29693290584312 -16.286389999606982 73 46 42
-5.174420462108577 1.3138114087567314 -16.352084156706436 77 48 42
-5.180108342954464 1.3187641021541974 -16.40249423915107 79 51 44
-5.179186779481087 1.3389817443624006 -16.472949003774392 93 73 67
-5.185488150787307 1.3426610118265883 -16.522035163333804 126 115 110
-5.231864467346958 1.2539455676195455 -16.450186988657354 132 127 123
-5.253991444217571 1.221050108120409 -16.451186876884453 138 132 130
-5.269583054865723 1.2032281378018403 -16.47193059229996 141 137 135
-5.255124609229319 1.2734567878400798 -16.65355811721131 154 148 148
-3.6845553824719572 2.551995859773086 -12.43377837935643 112 36 20
-3.7212799985046 2.49130817161877 -12.413276767316807 111 35 19
-3.8550052567265567 2.299221048201839 -12.445814406717403 111 34 18
-3.8784899995801076 2.264700610066404 -12.448612022816707 112 35 18
-3.9023009671689652 2.229490630737157 -12.450669394531594 115 37 20
-3.9138312922677416 2.218938752304212 -12.47577238549625 111 32 15
-3.942455355522894 2.173992906765219 -12.468531498445936 112 34 15
-3.954608708131894 2.1621722959410743 -12.492399423215424 114 35 16
-3.971985029555512 2.1398273673439605 -12.506328009094062 113 34 14
-3.9998668850807446 2.096269034693856 -12.500098752400646 113 33 14
-4.0380251088998955 2.031902247797914 -12.473936970534819 113 34 14
-4.052177964733506 2.015978202712968 -12.493723750070401 113 35 15
-4.109961665060146 1.9117624647100278 -12.429088759145719 114 37 17
-4.123049758222747 1.8979114257555603 -12.45063284495373 115 38 19
-4.138809278578482 1.8786469658807525 -12.466980130690438 114 38 19
-4.150182963757668 1.8682745108143415 -12.491875925279071 117 42 23
-4.163717991452975 1.8535210744365234 -12.512562735781819 115 40 21
-4.217249668954149 1.7574573664875834 -12.45447679641002 115 40 21
-4.232503175816808 1.7391326939075338 -12.471490873599926 112 36 19
-4.257172257766619 1.7016247660757116 -12.469805034153172 113 37 21
-4.268091771794502 1.6921053253250733 -12.495334586785024 107 31 15
-4.279950461097995 1.680679787923908 -12.519026239000157 106 30 14
-4.280382326734353 1.6926003918957138 -12.565654054556536 109 36 22
-4.276452144841951 1.7134900195804246 -12.621248638094425 104 35 19
-4.282621862722065 1.7137797344076264 -12.656701033313716 117 54 38
-4.318905460523915 1.652415501051856 -12.631232312127786 151 92 76
-4.347000357058913 1.6077520313258757 -12.622090429671726 130 63 47
-4.378414650999666 1.5562194798225533 -12.605962219404567 135 70 55
-4.3866097316876145 1.5523144360249925 -12.637138776006616 149 87 68
-4.424663078200432 1.4870355866387972 -12.60700917071602 132 59 36
-4.440483396674226 1.46741965186545 -12.622391368840974 126 49 14
-4.45164663926918 1.4573892247621036 -12.647383387537907 118 50 12
-4.488490227587685 1.3944097413850733 -12.619042893477785 68 15 1
-4.523857714673718 1.3343833052705332 -12.59343238726456 47 7 2
-4.525096824865092 1.3578026029530759 -12.687214482380437 54 12 5
-4.515112604907053 1.3915444457282575 -12.756753411350115 61 16 9
-4.518766181963913 1.3971197704087777 -12.797793725444107 79 34 24
-4.524809647192613 1.397778209457727 -12.83391048503847 87 43 31
-4.523469543304584 1.4138000523471486 -12.885879118948228 86 44 33
-4.52883406429096 1.41594771418931 -12.923737322659779 88 49 35
-4.516787682005937 1.4543566575087827 -12.999099274282198 91 51 39
-4.519159986296829 1.4628422209650433 -13.043796354670782 88 47 35
-4.521540909040011 1.4713575279031685 -13.088651795439247 94 50 36
-4.526277449607242 1.4750046202230833 -13.128573280643364 96 50 35
-4.530316756860435 1.4801466167060062 -13.170155379296187 99 53 38
-4.534368130636855 1.4853048917432083 -13.21186510058343 102 57 41
-4.538432374919594 1.4904779546576261 -13.253701394382212 104 57 38
-4.543928472754683 1.4926924313425238 -13.292540604671595 106 59 38
-4.5480821189493765 1.4977590298196346 -13.334480098138076 109 62 40
-4.555032985445907 1.4969938707796873 -13.370371821237576 113 64 42
-4.562766585661366 1.4946135312821642 -13.40463315399029 114 64 42
-4.5728171351012294 1.4873846842420875 -13.433818176527165 111 61 39
-4.572104026416321 1.502845957236575 -13.487200898683152 106 56 35
-4.578868583902138 1.5026039289622473 -13.52399514903503 103 53 37
-4.582478454797372 1.5090529219217919 -13.568032950199182 96 48 33
-4.57876812067285 1.531016433074472 -13.628836274045746 92 46 30
-4.589377043391563 1.522768908849136 -13.657353598542684 93 47 32
-4.5973025100115565 1.5202192011264946 -13.692055710760277 90 43 29
-4.6042728274082645 1.5197218293911616 -13.72904921572807 90 43 30
-4.62802642434925 1.4836403779207896 -13.727554047625436 93 45 32
-4.632824759423007 1.4877833008199843 -13.769659217573615 91 42 30
-4.655206272519504 1.4545745798962177 -13.771175673693183 91 41 30
-4.659316305036606 1.4602273136338182 -13.815046518033729 90 41 29
-4.628964243516619 1.5393747511978981 -13.939535493344646 90 40 28
-4.629030557086206 1.553827135387321 -13.993518513327285 92 42 29
-4.587207907514316 1.6578176165667902 -14.146252804591835 97 48 33
-4.463884364890736 2.0129440570167403 -14.776494935735078 89 51 41
-4.477420340694913 1.9993386950019922 -14.801446001743981 85 44 35
-4.465340865585767 2.0409398438139554 -14.888465577029034 76 31 24
-4.488676243240001 2.0062677467365773 -14.889868326627045 72 28 22
-4.550795701448136 1.9033948882801104 -14.854373800741573 70 37 30
-4.5948374352315335 1.8237360460404997 -14.80426649847139 71 41 36
-4.623956342504021 1.7762734092763224 -14.790446425522337 74 42 39
-4.608739691291885 1.8249339339949215 -14.886173592879977 70 39 36
-4.640265267709518 1.7722104280687145 -14.866247404893029 69 38 35
-4.641938482418211 1.7843227103643304 -14.92050307643412 72 42 38
-4.646183910969325 1.7909003392203329 -14.968559399227232 34 13 10
-4.6623160192594835 1.771621021076169 -14.986927624621597 18 3 2
-4.660317539417558 1.7919009820413714 -15.051023986299935 23 3 0
-4.664685010842934 1.7983578804530067 -15.099312461982898 43 11 6
-4.665931606503489 1.8116949476917523 -15.155734556731263 67 23 13
-4.6721496972375585 1.8142144492062866 -15.199728249631889 81 38 26
-4.68060077780491 1.8118826464873745 -15.238167436046123 84 45 34
-4.69357254532678 1.7996604789979065 -15.265105925124146 87 47 36
-4.823436815621983 1.5788754609337068 -15.169670541680656 90 49 37
-4.912852742903941 1.4137831892012152 -15.055458607677824 90 48 37
-4.92093466980196 1.412076568639792 -15.094160088041106 90 48 37
-4.969236380694372 1.337448556273722 -15.086452065200671 88 38 27
-4.978914339682573 1.3322139795913004 -15.120959092150477 82 35 25
-4.9951141463094935 1.312497075225004 -15.138081233665883 84 41 33
-4.992812861524801 1.3339811870228746 -15.204957364721364 84 44 37
-5.000598525013777 1.3330626975002193 -15.244931769305408 85 47 39
-5.0237635278600505 1.29784002724106 -15.243342748256865 83 48 42
-5.034689414571621 1.2899336776826904 -15.274891839318082 71 42 35
-5.0522383734049 1.2672213949952136 -15.288419599288535 73 51 44
-5.065391267611983 1.2543459475883219 -15.313943875303831 57 38 34
-5.066889681358166 1.2676347095943847 -15.371589903397858 45 29 27
-5.068708943869169 1.2802772988421132 -15.428626614634446 45 30 29
-5.094924140640715 1.238102067268437 -15.41824158355514 50 35 35
-5.100880458277771 1.2415014824466342 -15.464040863494185 53 37 39
-5.094292350206839 1.2732490163533559 -15.545104697753303 57 41 42
-5.101149885478339 1.2747503884970413 -15.58888445363748 60 43 44
-5.11285657636259 1.2653306215564708 -15.619169909965796 57 41 40
-5.118676569727642 1.2692596243869594 -15.666174184868769 48 32 30
-5.108573938839295 1.309346869577495 -15.758592653273556 50 32 30
-5.116432719273459 1.3088000098323818 -15.800353087681913 49 29 28
-5.124310539245011 1.308251471692417 -15.84221338405208 47 30 27
-5.132207011042076 1.3077022866683228 -15.884175208615083 46 28 25
-5.14861559246369 1.2877913248765012 -15.901740754403741 46 29 27
-5.163266459656455 1.2718831507632995 -15.924361327778191 47 32 30
-5.171777823796751 1.2700089913743136 -15.964834118071252 49 34 33
-5.1715536400265565 1.288166971831171 -16.03094501290992 55 40 38
-5.176461115731108 1.2946574288323003 -16.082366882016373 72 58 53
-5.1834776775527125 1.2963698492137152 -16.12781565188258 80 63 57
-5.189501715153563 1.3004125398138253 -16.176378604343558 70 46 42
-5.19297136892624 1.3103892860993716 -16.232721903346402 75 47 43
-5.194739038334017 1.324360485959113 -16.294399839828003 76 48 43
-5.197308880589944 1.3365646322295488 -16.35399230211207 77 51 43
-5.200586096630472 1.3472137773519264 -16.4117577138662 82 61 52
-5.196731246317977 1.3744410122373742 -16.49128245189343 118 105 100
-5.207333795726065 1.3682916390090334 -16.527547704133713 135 127 124
-5.26981132138525 1.241806515881481 -16.406454709155586 140 135 132
-5.293952759206733 1.20408956474227 -16.401053431478392 144 139 138
-5.3067713045922575 1.2111125277861041 -16.498531177290786 151 146 144
-3.6914794276308416 2.576711098947365 -12.368147449681633 112 39 22
-3.6971153278503115 2.5780625394073584 -12.404335058956072 110 37 20
-3.7039684602897425 2.5770067488012174 -12.43840727166594 111 35 19
-3.7402956894960355 2.5169197118256297 -12.418525314138428 112 35 19
-3.842527403602442 2.3751054903885844 -12.462955664442863 112 35 19
-3.867456707621261 2.337643182869631 -12.463190522652873 112 35 19
-3.894479922706197 2.2959195885884665 -12.459343749439451 113 36 20
-3.9129100948229367 2.2714894538284542 -12.471533055808257 114 35 19
-3.9410642578700434 2.2274021259469476 -12.465253035204002 114 35 18
-3.9644455084139967 2.192911985038979 -12.467849624663993 116 38 18
-3.9813885322206026 2.171414802629192 -12.482593707612548 110 32 12
-3.994603463900807 2.157457044324877 -12.50442991617684 113 35 15
-4.006613887637885 2.1459435516944345 -12.52858826164102 113 35 15
-4.022995955306882 2.1255667108300003 -12.544347614439125 113 35 15
-4.0645531038350455 2.0540517813772685 -12.511384322978824 114 37 17
-4.100684314812986 1.9934629406553959 -12.488570354671328 115 38 18
-4.1409247920947365 1.924429057454105 -12.45744330091953 113 36 17
-4.164910626822957 1.8883989772794503 -12.457722388834412 113 36 18
-4.190847578619122 1.848352667400719 -12.454030628332792 111 36 17
-4.2126303243767 1.8167359170570907 -12.458346081106207 113 38 19
-4.23414834359393 1.7856288280750632 -12.463070565845108 113 38 19
-4.254670513802728 1.7565273082150892 -12.469658726787882 109 35 17
-4.28345553903004 1.7104922855269167 -12.459706449812469 108 34 18
-4.287659595142071 1.714742426241656 -12.498629117222713 108 34 18
-4.3047586548176255 1.6925940431629116 -12.511841391138763 110 36 19
-4.298527273245531 1.7183057130748098 -12.57193183942082 107 35 20
-4.334359934383385 1.6836997779946712 -12.64306600644294 137 75 62
-4.368683516482357 1.626079422472245 -12.621162534454434 127 59 46
-4.394842297255677 1.585211454788522 -12.615676186734516 135 69 57
-4.419759886277896 1.54685496770019 -12.612556109307267 148 86 71
-4.474450787318375 1.4599640412372317 -12.595761128180182 126 48 15
-4.506683128660367 1.4063193176771152 -12.576903037122381 121 50 15
-4.508357638805871 1.4159131678090633 -12.621477193476398 75 19 4
-4.543747266648005 1.3556298028289766 -12.59567984763358 50 10 4
-4.520950392029148 1.4292558961628958 -12.740316998492698 50 12 5
-4.527168145044499 1.4295782447844059 -12.775940821392709 57 14 9
-4.549012176342158 1.3973929205795423 -12.778503696738397 73 29 20
-4.553691086550649 1.400951473667734 -12.81751176805888 83 41 29
-4.552475995594067 1.4168449215363732 -12.869260307130602 83 43 33
-4.56081960975449 1.4128366942709762 -12.90072451505025 85 45 33
-4.549562774097682 1.4498291511150572 -12.974487491314846 89 49 37
-4.552103500208103 1.4580516688010188 -13.01881359827674 89 49 36
-4.55252356205245 1.4707643997329107 -13.067915474601 93 52 39
-4.5557189487138 1.4777139694446326 -13.111183803659625 97 56 44
-4.558252531147187 1.4860981851280526 -13.156065297281167 95 54 42
-4.563506298939047 1.4888147156478864 -13.195159142418117 95 53 40
-4.5659143438034935 1.4975544528629041 -13.240653439626463 100 54 41
-4.570993117296825 1.500719968498204 -13.280430056900741 98 53 40
-4.575786322880983 1.5045257464227668 -13.320980807708986 97 51 39
-4.58063294197941 1.5082586233063577 -13.361559163061266 97 50 37
-4.586097305052229 1.5107264421413 -13.400904303870789 99 51 38
-4.592378159879891 1.5115050866981412 -13.438556522267367 98 49 37
-4.597151216246829 1.5155094034812788 -13.47972617951929 95 46 36
-4.602837642794606 1.5176191923344788 -13.518983907444014 93 44 32
-4.605701665130008 1.5257532172549997 -13.564775028420343 90 42 30
-4.612024335766057 1.526592741007092 -13.60288284803644 91 44 31
-4.6184588460411415 1.5272292554879403 -13.640863151142511 91 45 32
-4.629034337596107 1.5190878356565785 -13.669481181406352 91 44 32
-4.65182212635141 1.4849452820562656 -13.670069726781165 92 46 33
-4.658793792059458 1.4844931800597538 -13.707019666422223 99 54 41
-4.666494483358523 1.482517084402645 -13.74240000855714 93 46 36
-4.67809616426883 1.4722326645730566 -13.768816742116808 91 44 34
-4.67949523012972 1.4837895118057847 -13.8190879828698 91 44 34
-4.650679869798293 1.5601243087539922 -13.940357452036409 89 41 30
-4.477351539642774 2.0078542263036034 -14.627738370849418 90 45 36
-4.482835502281103 2.01153218740678 -14.671644672348208 94 54 46
-4.545341499098578 1.907643534276493 -14.635592979368052 88 50 41
-4.518588931157548 1.9810755438000354 -14.757606934801622 87 48 40
-4.511261161016055 2.0126366616599847 -14.833147404197764 81 39 33
-4.51499488677455 2.0203202403924165 -14.882098106991908 79 39 33
-4.535258141226685 1.992174307253018 -14.890768224587958 81 44 37
-4.582807932237636 1.9046967059634152 -14.832262733219661 76 44 38
-4.615038465125278 1.8662047651669034 -14.869147883437904 73 42 39
-4.6333208052621035 1.8422222291536743 -14.882165302689678 72 42 39
-4.643398327285414 1.8361366597921793 -14.915589579926033 71 41 37
-4.648505707334351 1.8409395180655315 -14.961549088290614 80 49 44
-4.64994342546465 1.853822894367755 -15.016915249850923 47 21 18
-4.659771827812932 1.848389669238605 -15.051359987927142 21 5 2
-4.656885117138342 1.8708752914480025 -15.118105354199454 23 7 1
-4.666616115878072 1.8657404117820664 -15.153108345141298 45 16 11
-4.660728393101756 1.8949762228246296 -15.228068939056186 74 36 27
-4.67062447838574 1.8895723043714399 -15.262996378386038 84 47 36
-4.714739432896414 1.8087713770720497 -15.210032835138923 85 51 40
-4.9003283480019135 1.5126811209842663 -15.148502695427533 91 52 42
-4.949702487713103 1.4356455887258193 -15.138522201929465 91 49 39
-4.976437493044661 1.3924755537070843 -15.127757099990495 92 45 35
-5.012418653471667 1.3285831086438575 -15.091956753187855 82 33 23
-5.016043886869968 1.3369420504706695 -15.142791493843372 85 38 29
-5.028672433890044 1.325199074280949 -15.169529025817152 85 43 36
-5.0227564322954 1.3550497361269174 -15.24659528056133 83 46 38
-5.040861623165322 1.331085074625729 -15.258697304952179 83 47 41
-5.057233227136104 1.3109976212123189 -15.275463477565879 82 50 43
-5.064326458476908 1.3117842388849628 -15.31764447708733 72 45 39
-5.077533345828924 1.2988354760841423 -15.343148636469623 52 29 27
-5.085006689169687 1.2988331626520426 -15.384532133140763 49 30 29
-5.113744603605851 1.2508249338025634 -15.3670586984892 47 32 32
-5.1231177935431145 1.2465455803429322 -15.403227751711032 44 30 30
-5.128357260909772 1.2516611549065093 -15.451069452094295 49 33 34
-5.133211030085608 1.25770679330485 -15.500197000318952 54 38 39
-5.128978061540418 1.284448559386541 -15.57514604215396 57 41 42
-5.1387372837230245 1.2794813564554635 -15.610922303001642 55 41 40
-5.145366265055122 1.281671965617241 -15.655697854508427 51 39 37
-5.153107206499358 1.2813756950931192 -15.697481887548108 51 39 38
-5.160865948654428 1.2810810687607863 -15.739370561611501 50 38 37
-5.15220261416165 1.3183742548766855 -15.828604460676608 49 36 35
-5.1712753965188 1.292313598193235 -15.838353586897398 48 36 35
-5.177012458926257 1.2967976176064218 -15.886627528563015 49 37 36
-5.191191982827754 1.2819582627215937 -15.910562494091259 54 40 40
-5.184514990798049 1.315063216925679 -15.995387778659815 61 45 45
-5.196822660033565 1.3046056045593883 -16.025077467399594 63 45 44
-5.202884362029067 1.3085600820123893 -16.073201063885588 79 59 57
-5.202943917395026 1.3264230247703743 -16.139255958170697 80 57 53
-5.211412358490778 1.3249461268664264 -16.180725326462262 75 49 44
-5.210857527634284 1.3443932597286166 -16.249206249377004 78 49 44
-5.216278326836278 1.3500912833738532 -16.30019534521608 81 52 45
-5.219022245034503 1.3620634087829777 -16.35944318949386 80 57 50
-5.217859036510038 1.383195107996619 -16.43075274522243 107 94 88
-5.214955430103555 1.4084826858881416 -16.50771406829661 136 127 122
-5.307249890754067 1.2304677178686374 -16.36390846137764 148 142 139
-3.7145865671026623 2.5942055500895003 -12.365962044709288 111 38 21
-3.708081984971456 2.6200202998956623 -12.424362198846712 109 36 19
-3.732497391098555 2.58373414320105 -12.426357557687655 111 35 19
-3.908043613607227 2.319304667703946 -12.427810907141183 112 35 19
-3.9327901408421178 2.2820393253966826 -12.428055724015632 111 34 18
-3.9437716947352386 2.2726371889919346 -12.45420316383301 109 31 14
-3.9718872797593603 2.228481843523217 -12.447851523723138 110 31 14
-3.9913605021721668 2.20182477662082 -12.457778642114924 113 34 15
-4.007605373945708 2.1817090804544104 -12.473804554165316 108 30 11
-4.018600155019158 2.172266033239912 -12.499875512468567 114 37 17
-4.028381479549911 2.165304901241069 -12.528323441043817 113 36 16
-4.059052206030812 2.115780465227908 -12.516444826789055 113 36 16
-4.07994457239548 2.086142212602518 -12.523305310768375 113 36 16
-4.115265700765236 2.0270124392795257 -12.501975161737775 114 37 17
-4.144306125692658 1.9806384463857247 -12.492618327330812 114 37 19
-4.1799603533966 1.920674823268595 -12.470078939126582 113 37 18
-4.204901565925642 1.8825654876556475 -12.4683154322507 114 39 20
-4.227642689148319 1.8489224939812954 -12.470739075712189 115 40 21
-4.249149300617134 1.8177772951020006 -12.475481719332478 112 37 18
-4.27635212384094 1.7749036042244621 -12.468782163538558 112 39 21
-4.302884424877037 1.7333553170569633 -12.46322805396386 108 36 18
-4.311862120618555 1.7278762052057717 -12.492660165171284 109 36 19
-4.324593023800994 1.7146854855784963 -12.514612337088488 108 36 19
-4.31889871174984 1.7394822123170925 -12.573758257076241 106 35 18
-4.30544466415682 1.8068322840104107 -12.745482290600956 129 63 48
-4.370249305202138 1.6860328925650458 -12.661412563545774 123 53 39
