ply
format ascii 1.0
element vertex 712
property float x
property float y
property float z
property uchar diffuse_red
property uchar diffuse_green
property uchar diffuse_blue
end_header
-4.321538447796035 2.3994481183137992 -15.875153863503833 44 41 41
-4.328186596601006 2.4091234753680952 -15.906510692996491 44 43 42
-4.334659338978505 2.418529180328588 -15.938332389900498 42 43 43
-4.330234775411897 2.4112255212415716 -15.995164492298422 43 42 40
-4.326862540042386 2.405533049944384 -16.04979693076481 30 27 23
-4.36015549660366 2.456061879583806 -16.020207515297784 30 26 23
-4.355583998707097 2.4485286039134095 -16.077764737224285 33 28 25
-4.339961154951317 2.424044702190299 -16.161141218527636 37 31 28
-4.80980633039616 3.123540749045997 -16.965144136938473 181 181 181
-4.821684493128597 3.1412319079020623 -16.984823908152485 182 182 182
-4.839366024300907 3.167843212040589 -16.989246223803402 183 183 183
-4.857448542999842 3.19507199039979 -16.992512651437437 183 183 183
-4.848399155689719 3.1805939618000236 -17.0674115960201 185 185 185
-4.891672471972896 3.2465489816127127 -17.003875433988977 187 187 187
-4.910249210749414 3.2745409558886847 -17.005523559341615 188 188 190
-2.8158267757016393 0.21699463897877536 -12.571711284509506 185 167 165
-2.8064191319563627 0.20237535705982612 -12.622027635570845 133 95 93
-3.001331551433086 0.4955973102236344 -12.623805757680355 107 51 38
-3.0857581309742668 0.6231218422488043 -12.56894437241205 107 50 37
-3.1097324486246234 0.6591913331436037 -12.568833082559163 106 49 36
-3.2621347534624476 0.8892948703627646 -12.480263014969747 107 48 34
-3.3053558009620017 0.954603180418883 -12.449601605807064 108 49 35
-3.3467598565156433 1.0171545869616416 -12.421457699950038 108 49 35
-3.386100709496531 1.0765749175360542 -12.396237190832004 107 47 34
-3.4283225609846517 1.140373558054601 -12.366268865947987 110 48 35
-3.3864464680345727 1.0764368041829542 -12.467341641838043 112 50 37
-3.4166103982251252 1.1219216999300854 -12.456065542300653 111 49 36
-3.428214119075062 1.1392151969157287 -12.47376515338959 113 48 35
-3.419191632393601 1.1251765670428946 -12.523952136174756 113 48 34
-3.454995864495777 1.1792321252926516 -12.503490583764211 113 47 34
-3.483491948055061 1.2221877859430057 -12.494377175858427 114 48 34
-3.5094449081060852 1.2612815304380454 -12.489139534652804 115 49 33
-3.543653034430938 1.3129180213565523 -12.470599119097747 116 50 34
-3.570251612089035 1.352995645615628 -12.464003501367404 118 52 36
-3.5886348256661487 1.3805929980661173 -12.470430503015496 118 51 37
-3.61573165419862 1.4214300763893677 -12.462770486997638 117 49 36
-3.6322218922960663 1.4461530013231014 -12.472061674400468 118 50 37
-3.6413163247805524 1.4596389741638949 -12.49326026879676 119 51 37
-3.6516174906182317 1.474958432683156 -12.512514553552517 121 52 37
-3.7243218103473774 1.585101160106837 -12.430229150308264 119 50 35
-3.7374966199740913 1.6047900489112434 -12.444499584713416 117 49 34
-3.770531501580289 1.6546588605404429 -12.426237483619188 120 50 35
-3.8102859471076873 1.7144110103906174 -12.432385647195387 121 49 34
-3.8154648385898615 1.72195057363853 -12.45959249759735 122 51 33
-3.854283136124023 1.7806146579174476 -12.431140368581898 121 48 31
-3.8430464143638328 1.7632057023832086 -12.485549818517342 119 46 29
-3.8737123591229903 1.8094820220169585 -12.47036776496772 120 47 30
-3.88559690461029 1.8272137672116968 -12.486365294500008 121 48 30
-3.960041619208505 1.939705685527564 -12.433153569723412 122 48 29
-3.9731356408201832 1.959278650706084 -12.446817087812018 122 48 29
-3.9451488583066068 1.9164044390795474 -12.52989526415541 123 49 30
-3.9341284583797136 1.8993183021144961 -12.584588735353798 122 49 30
-3.9588574774777014 1.9365766200288541 -12.578708780849594 120 47 28
-4.0164531112114705 2.0238017513311335 -12.516637555639942 121 47 28
-4.048809361737682 2.0726599086417785 -12.497260687512487 121 46 27
-4.046491029701729 2.068802854129524 -12.537140352107734 121 46 27
-4.064349801872229 2.095621693617767 -12.542434355903648 122 47 28
-4.098168291858814 2.146706980979146 -12.520114592923205 123 46 28
-4.115911034891335 2.17335157378072 -12.525374594812696 123 46 28
-4.141248465812829 2.2115448280578605 -12.517377190260738 121 44 26
-4.1649888996879305 2.2473111523469025 -12.512005360460456 120 43 25
-4.177487978813575 2.265984879217662 -12.526119259066139 123 47 26
-4.191344566027878 2.286723153784474 -12.537832266475288 119 42 21
-4.204675101378133 2.3066618042421925 -12.550430856320553 120 43 23
-4.2302117404918835 2.3451634004377597 -12.541500144881613 124 46 25
-4.256145237849886 2.384270017122336 -12.531709414589463 120 42 20
-4.270502103643935 2.4057716822244495 -12.542262338647229 123 45 24
-4.278394320333534 2.417441602804246 -12.564256314846482 122 45 24
-4.4887768660086635 2.7334647548159667 -12.617127385511774 87 26 7
-4.497053643181555 2.7457227659257364 -12.638091593580597 86 23 8
-4.5044758273043275 2.7566802617381216 -12.66065570908507 84 22 5
-4.502177166802814 2.752845789320096 -12.701292869233438 90 38 23
-4.504120716057062 2.755465450329381 -12.734165158726519 80 34 25
-4.485601383947932 2.7269449104290695 -12.805335080790647 70 27 24
-4.4800554928993215 2.7181644722213094 -12.852521014287678 70 27 25
-4.483976070973197 2.723789010817004 -12.8820976078553 69 30 26
-4.472530590096971 2.706027280780014 -12.940687627957098 73 36 30
-4.506378633463044 2.757197994911347 -12.913943123643861 81 42 35
-4.5150576627989425 2.770063782673857 -12.934626132317618 92 49 42
-4.5050776295748705 2.754529283365892 -12.990783719929933 105 61 50
-4.502742034941325 2.7506283768327435 -13.03259477839323 73 36 29
-4.5059607133943285 2.7551806749719687 -13.063927540909662 33 8 3
-4.509037565381691 2.7595163678469956 -13.095609474767903 26 7 5
-4.511457306212766 2.762851030847821 -13.128634100959621 22 6 4
-4.465219133864497 2.692112169781003 -13.255578474651248 21 6 5
-4.46663335929396 2.6939119042351702 -13.29099757922275 22 6 3
-4.471627715107962 2.701161177919628 -13.319572155501831 21 5 3
-4.473227807265026 2.7032422217056555 -13.354809817303783 24 3 2
-4.477212129337133 2.708952404301577 -13.385494242988488 35 6 5
-4.496805200207789 2.738427482741511 -13.385706043381557 51 11 5
-4.514039800710375 2.7643124688632414 -13.390439516203624 70 19 7
-4.531812002591186 2.7910167978709257 -13.394034335278313 85 34 15
-4.547842666071366 2.81507002307547 -13.400980229549768 99 53 29
-4.568789761968998 2.8466105811068876 -13.398124477936012 109 65 42
-4.568888713686199 2.8456854282672963 -13.514133028983942 79 44 35
-4.577639605858564 2.858290818081043 -13.574620293837363 66 31 25
-4.541241189156157 2.8024891055971954 -13.687133483828262 54 16 13
-4.556602221779098 2.8255209091556783 -13.695590176987796 61 15 8
-4.550869742442096 2.816423019057059 -13.746744171775573 87 31 15
-4.506896204306836 2.749071360132173 -13.8758331458356 116 65 42
-4.495775808121406 2.7317601691833246 -13.938585845683516 114 76 58
-4.512728254164376 2.7572126084395023 -13.944189481188413 101 71 64
-4.545559517153033 2.8068563634351786 -13.917148074793928 96 64 61
-4.522624603390939 2.7707916059142597 -14.085653103536565 98 61 53
-4.529277484844338 2.780173196744899 -14.153422688143724 97 60 52
-4.5178127572371345 2.7623241506123497 -14.21831637064754 97 60 52
-4.51149959109986 2.752322781685041 -14.272695352824211 97 60 52
-4.506874060254433 2.744891274242164 -14.323739150258458 97 60 52
-4.522042304625277 2.7676229455202463 -14.333285652881983 98 61 53
-4.515549593114116 2.7573434588345016 -14.38852857714501 103 66 58
-4.492103360732726 2.7212235533639055 -14.479900114925497 98 61 54
-4.506253727115556 2.742401927571002 -14.491816196440695 89 54 46
-4.523464537065119 2.768245403402332 -14.49716732080011 85 47 45
-4.539761309456816 2.7926964164331665 -14.504390056950555 64 17 12
-4.53911058855385 2.7913148850869614 -14.54787035852975 91 36 19
-4.5301103381969545 2.777204281115398 -14.609444936859944 118 72 53
-4.516360057921887 2.7558502936085776 -14.681512123607703 106 74 65
-4.516132439760558 2.7551085054017763 -14.72464667989555 118 87 78
-4.486106053578349 2.708935892995201 -14.832556405777286 97 65 56
-4.489579958931495 2.7138330790540843 -14.86811155189578 86 54 50
-4.493062214858506 2.718742117672324 -14.90374344845877 67 31 23
-4.4965515495408095 2.7236610668970873 -14.939455179195525 92 52 34
-4.497936317183717 2.725370123487719 -14.979881746544322 114 73 54
-4.483122128666919 2.7023771797805063 -15.056090829636352 93 62 54
-4.438021304402361 2.633196954270015 -15.19950310349192 85 51 43
-4.4417152564337 2.6384201893968955 -15.235598628370543 97 53 39
-4.42799373998867 2.6170835221104145 -15.3104691769346 104 67 53
-4.39227092063023 2.5621899757831033 -15.434674220718152 62 49 46
-4.315946341824272 2.445367082697972 -15.650207066132527 14 11 13
-4.321284844122361 2.4530866069095714 -15.683912802331806 7 6 8
-4.321852475230736 2.4535285332320536 -15.728420004591744 28 28 30
-4.32891142161482 2.463870535370196 -15.758438773967276 27 27 29
-4.326942467229116 2.4604409116948576 -15.808924764174936 32 32 33
-4.3296357322860946 2.4641216388556337 -15.849018072914756 53 52 54
-4.315159004229324 2.441608160473063 -15.928276505198824 30 30 32
-4.31182901958066 2.436096694526161 -15.982459069371155 42 42 43
-4.306573073098171 2.4276450460670276 -16.041247884748977 35 34 32
-4.296878855312764 2.412419796775139 -16.110447912623897 28 26 22
-4.353860620481473 2.4989240181352708 -16.026489728564744 32 28 24
-4.308815357087896 2.429757860481323 -16.177411229922157 37 32 28
-4.840791790106801 3.222727614298268 -16.973340139488748 182 182 182
-4.850442382005596 3.2370115787636706 -16.998722012519533 185 185 185
-4.874808464575608 3.273794133000889 -16.98525297505967 187 187 187
-2.7687307062342796 0.19756597983709856 -12.533351660791702 208 200 201
-2.7542957333569418 0.17547278555153945 -12.590750580925064 163 140 139
-2.9825799272852738 0.5182298508971908 -12.5805501121278 106 51 39
-2.9978191015605242 0.5410060877870251 -12.594010428302958 106 50 37
-3.0896142798318156 0.6792890264242266 -12.528106333895845 106 48 36
-3.115286685469681 0.7178466710957565 -12.525358877056748 105 47 34
-3.1382064641348584 0.7522423030469239 -12.526666157259084 105 47 33
-3.2897504266570716 0.980378552481405 -12.438684796499366 109 48 35
-3.3273649887834345 1.0370065938085706 -12.416496775144115 110 50 36
-3.3694131312812114 1.1003425394676003 -12.387201303612546 111 50 37
-3.3541335214640178 1.076966460913268 -12.446625884976287 113 49 37
-3.3723766793122016 1.1042964049758908 -12.454087694147631 113 50 37
-3.3859941875974036 1.1246297756161434 -12.468704334673372 113 49 37
-3.411814855510877 1.163423123085058 -12.464180044924507 115 49 36
-3.4066345537082134 1.1553211319759593 -12.508216333130516 116 50 36
-3.4504423132972737 1.22132587388109 -12.475216398440912 116 50 36
-3.456941994081448 1.2308929540720932 -12.500862694653124 116 50 35
-3.483690492267383 1.2710930027933576 -12.49445686080308 116 50 34
-3.531846004607263 1.343680319043052 -12.45387531781667 116 50 34
-3.538954193877333 1.3541693002242798 -12.478378248426619 115 49 33
-3.586713216143567 1.4261605232678551 -12.43792035376179 117 50 35
-3.6016866772713625 1.4485504341393023 -12.449685311120799 119 52 37
-3.6234133324789286 1.4811583371570167 -12.45054773606553 119 51 37
-3.6372797381839215 1.5018740755474234 -12.463982407311327 120 52 37
-3.6387077526127065 1.503769710827728 -12.49750643973823 121 52 37
-3.7044025829987564 1.6029080988639448 -12.426848832697779 119 50 35
-3.7186290136979108 1.62417070824171 -12.439414141746468 119 50 35
-3.7164813823310587 1.6206565140709426 -12.47866489951471 121 50 36
-3.762679908024204 1.6903000765302862 -12.438905976045632 122 50 36
-3.780900613888148 1.7176084289786844 -12.44473047699515 122 50 34
-3.797068602135525 1.7418109678772167 -12.453859113678995 123 52 34
-3.827540281092717 1.7876601601447324 -12.439313930974098 124 51 33
-3.8555069060776472 1.82971972237006 -12.4287225976617 121 48 29
-3.872395082486676 1.8550143791931455 -12.436360099338533 121 48 29
-3.873876214820439 1.856991868668345 -12.469597816283283 122 48 30
-3.9253913623636656 1.9346940185744312 -12.419333761636103 122 47 28
-3.9349772690528075 1.9489387194302221 -12.438919633820976 123 48 29
-3.9445650950489437 1.9631862758809935 -12.458508954901106 124 49 30
-3.9575086025276383 1.9825128929854996 -12.472449460435005 122 49 30
-3.9639346171770695 1.9919746863165102 -12.497379980048885 122 49 30
-3.9492866236296105 1.9695373485510999 -12.558073967642986 120 47 28
-3.9903241992599123 2.0313891564468656 -12.524338593375198 121 47 28
-4.015715962562442 2.0695596617582925 -12.516976135305026 121 46 27
-4.028828494614977 2.0891433662378307 -12.530462215011442 121 46 27
-4.056290302148138 2.1304493023286586 -12.519307877629512 121 46 27
-4.08502608146423 2.1736851116992386 -12.505789025046314 123 47 29
-4.102385317149823 2.1996995753543036 -12.511710864698891 130 53 35
-4.127789686379133 2.2378942454273094 -12.503639789496248 121 44 26
-4.144834435707655 2.2634339668639436 -12.509921354077644 121 44 26
-4.1577735119390065 2.2827582469170578 -12.523278559990288 122 45 25
-4.171070347331149 2.3026243960361468 -12.535982788315682 121 44 24
-4.17122251828381 2.302588864827375 -12.571666335844363 121 44 24
-4.200410942500301 2.3465165466849673 -12.556471320791697 121 43 22
-4.22651118687047 2.3857697265930744 -12.546518606109316 124 46 24
-4.279784328082344 2.4661688439826888 -12.488412273195276 124 46 24
-4.2938961851166635 2.487272442737577 -12.499223128957 123 45 24
-4.520655095470172 2.827243122396934 -12.556177172374365 87 24 9
-4.4871435393796695 2.7762145437493686 -12.654020356738567 91 28 11
-4.488222887514825 2.777581062965321 -12.688318557281196 101 49 27
-4.484739001750876 2.772034266863535 -12.731182287651997 88 43 28
-4.4768666552921355 2.7598383638985053 -12.782361023307905 71 31 24
-4.4632424137604865 2.7389273133708816 -12.84447254728878 69 26 23
-4.474546050000148 2.7557793044753516 -12.86016845847696 67 27 22
-4.451573956573672 2.720703352676122 -12.940214981471563 73 35 28
-4.489856678974005 2.7784288146001392 -12.905260903016261 83 43 36
-4.492587109129515 2.7822916312114314 -12.93714903206187 95 52 44
-4.485364342568381 2.771073446342163 -12.987973343703853 101 59 48
-4.491479977714978 2.780063823522948 -13.013647356676604 49 17 12
-4.494151858600867 2.7838358498612035 -13.045927646401324 27 7 3
-4.497211505626116 2.7881948279501616 -13.077549732740984 21 6 5
-4.499894943956251 2.7919831548285017 -13.109971772652642 18 6 4
-4.436001588661634 2.6948845194834163 -13.270457428956798 16 5 4
-4.438181021183004 2.697905074845121 -13.304393437701131 16 3 2
-4.440928250557468 2.701785408162054 -13.337322626382106 14 3 3
-4.437375284701979 2.696117397407932 -13.382554453806748 15 3 4
-4.433507199437785 2.689970659813664 -13.42855620759731 20 3 3
-4.459207267047362 2.728634671017784 -13.41704289857644 31 5 5
-4.478847786408872 2.7581161946977355 -13.417208081818842 57 13 7
-4.497497072559442 2.7860961675117926 -13.419210778110802 78 27 10
-4.517350446090633 2.815901858784645 -13.418747576961962 106 59 32
-4.538089243588649 2.847050422274143 -13.416426103914008 113 72 41
-4.553005392079127 2.8688016193137673 -13.502906066752779 82 45 36
-4.5503117170750516 2.864430718253478 -13.547162880027056 78 44 35
-4.5433602571086835 2.8536041785028576 -13.600098563638007 69 33 27
-4.530050121683853 2.833136538854131 -13.666008773714141 58 21 16
-4.537710367863793 2.8444583596474695 -13.689952463160537 59 14 9
-4.531841948665475 2.835269626356137 -13.74126131147986 80 26 14
-4.477224935726146 2.7515777929713057 -13.971785293149452 104 71 63
-4.502071610673552 2.7889531517651207 -13.961300612862447 96 66 62
-4.520454917687567 2.816231368708344 -14.004195845368617 97 63 54
-4.522145724359336 2.8184962165874365 -14.041135998595518 99 62 54
-4.5074927434745184 2.7956747341398653 -14.15274909375134 97 60 52
-4.507075352425179 2.794739291366416 -14.194506781948565 96 59 51
-4.5029494974092446 2.788178768803836 -14.244137218906323 96 59 51
-4.494812899620828 2.7755342203624855 -14.302341996222452 98 61 53
-4.480570433088268 2.753627528434228 -14.373593814968807 100 63 55
-4.481735754167081 2.755087416264069 -14.412716411887068 102 65 57
-4.469730693964087 2.736570430933302 -14.479764642446014 101 64 56
-4.48919295614005 2.7657804545509452 -14.480459069657119 90 58 51
-4.494292835471976 2.7732060073556917 -14.511547926108072 80 49 47
-4.516296317673429 2.8062717004780717 -14.506700070988117 65 26 24
-4.478850817525992 2.7491589874428453 -14.628717106070717 67 18 6
-4.472640001933911 2.739423817677433 -14.684413966037143 109 63 44
-4.471978439913018 2.7381053628038563 -14.728399873907867 109 72 60
-4.4685272421636135 2.7325537835983003 -14.778543627580925 111 77 69
-4.4977796516599575 2.7766158025536383 -14.75817264208054 100 68 63
-4.498949085057948 2.7780732970513027 -14.798453302421954 88 57 55
-4.494259387250791 2.770640384336776 -14.85159796055823 77 40 35
-4.5058667697617185 2.787932762450552 -14.869399012369385 87 40 27
-4.480512612782812 2.7491435135794653 -14.968038765025288 121 79 61
-4.4670939802000476 2.728461131283044 -15.04096185351072 100 69 61
-4.466406854789668 2.7270951364212426 -15.086186923602405 84 51 46
-4.446084228157104 2.6959322739718807 -15.174895400448927 90 49 38
-4.421006405934742 2.657550424350342 -15.274537148503683 106 67 53
-4.4012038899336865 2.627170564085006 -15.36294084324044 73 52 48
-4.378582111202208 2.5925092239006995 -15.458027170981156 33 26 27
-4.334566190592778 2.525376055827854 -15.601332814979129 12 9 11
-4.326155573862601 2.512275150732929 -15.66562392992951 37 35 38
-4.32140214148248 2.504722950727772 -15.72196090326527 48 48 50
-4.315341921901542 2.495185749546808 -15.7814556755843 35 36 38
-4.306668070399887 2.481679772995091 -15.84708850215894 44 44 46
-4.297597101693318 2.4675690340303413 -15.913889672814186 36 36 38
-4.288419975257941 2.453295120479468 -15.981207156447661 37 37 39
-4.277750696979714 2.436754091256912 -16.05220428828231 42 41 41
-4.280971345643602 2.441296211507887 -16.09174024438807 28 26 24
-4.869221352178602 3.318449252638679 -16.886621539582023 184 184 184
-4.876606869695749 3.3293063423248137 -16.91763965571831 186 186 186
-2.7041643551027317 0.15165308723886284 -12.556419195915808 201 188 186
-2.691713630284122 0.13270292176191045 -12.6108552369762 146 117 115
-2.9018319900766816 0.44751076798940836 -12.593551390889036 103 49 37
-2.969096936316334 0.5486129753929037 -12.529701485727433 105 50 37
-3.0050744439649466 0.6025969665359261 -12.512116629149844 106 49 36
-2.995518165381574 0.5880041722693079 -12.56256191938228 104 48 35
-3.016926637074642 0.6200468492449023 -12.566638865127018 105 48 35
-3.0816719325722217 0.7173613418801845 -12.50528310861872 106 48 36
-3.09103197248312 0.7312591938113764 -12.527202058396487 106 48 35
-3.195088422607027 0.8873907549955686 -12.477134711125661 109 47 34
-3.2892656692973183 1.0290472294283455 -12.368993269852853 110 47 34
-3.3110884825117033 1.0617212353559164 -12.371133115847822 111 47 35
-3.3080619421423507 1.0569648894747927 -12.411417250588443 111 48 36
-3.3198800746966404 1.0745689546996786 -12.428911359293824 112 48 36
-3.3321161270543502 1.092802615333405 -12.445748312746069 114 48 36
-3.3483501111619622 1.1170587923025055 -12.456363784882974 115 50 38
-3.3649463010294856 1.1418608810866844 -12.46636468475944 115 50 38
-3.415789727871323 1.2182546495046833 -12.422824001172366 115 49 36
-3.4281403081386825 1.236662348354208 -12.439209804943978 116 50 36
-3.432783697242631 1.2434593280875776 -12.467687649025638 117 51 37
-3.460542419665657 1.2850796135750806 -12.459800078742067 118 51 37
-3.48440436409709 1.3208301200033876 -12.457911894885976 118 51 35
-3.5080317211553544 1.3562278860136088 -12.456272582171648 116 49 33
-3.5333676258750355 1.3942004093896134 -12.45179627232827 116 49 33
-3.5539602972365825 1.4250274522998936 -12.454743819592998 116 49 33
-3.58278621660547 1.4682595930980424 -12.444433766418516 120 53 37
-3.609904522867424 1.5089198739571477 -12.43669045533132 118 51 35
-3.6342064257122404 1.5453375548986896 -12.433320451745132 118 51 35
-3.6476314395024465 1.5653675028138285 -12.447364086871872 119 50 35
-3.6910269125179576 1.6305555593329344 -12.41289728859498 118 49 34
-3.702193208435714 1.6471832250689857 -12.430407437706641 118 49 34
-3.701689365708836 1.6462263487441433 -12.466899767790629 120 50 35
-3.7394261491180605 1.7028909350934458 -12.441089995800196 122 50 36
-3.7554787972274104 1.72688213496399 -12.450509964983883 123 51 35
-3.76982745705633 1.74830592801429 -12.462672812320225 121 50 32
-3.8000517060583525 1.793652976647476 -12.44866138044448 122 49 29
-3.8218459132399976 1.8262975667492527 -12.448377801141486 121 48 29
-3.8471988544445144 1.8643056430851441 -12.442090489917234 121 48 29
-3.9052494928111727 1.951195637157471 -12.452436340959188 123 48 29
-3.926364267873871 1.9828192641707907 -12.452751933034929 123 48 29
-3.9142199376860702 1.9643188133600913 -12.508847826285209 122 48 29
-3.925330844839275 1.980865651823088 -12.525973048169746 123 50 31
-3.9410766884787467 2.0043980822455163 -12.535256338243325 122 49 30
-3.9542057134780246 2.023986799851784 -12.54892156476577 121 47 28
-3.994820367821756 2.0850021649929555 -12.515830736757012 121 46 27
-4.011182496883437 2.1094649941595924 -12.523790204841053 122 47 28
-4.038924163845601 2.151080091547276 -12.512229142949543 122 47 28
-4.067905453267469 2.1945646278563276 -12.498366968506804 126 50 32
-4.1017985217491475 2.245453811571009 -12.475867972571471 123 46 28
-4.123965237099052 2.2786686685923563 -12.473359419995305 123 46 28
-4.131323550723062 2.2895624277936015 -12.496350027044599 122 45 27
-4.138542678065879 2.300246222357401 -12.519610160554356 122 45 25
-4.161628409097437 2.3348476175734882 -12.51528788742705 122 45 25
-4.156706814000231 2.327229922735645 -12.559716251764065 126 49 29
-4.176911430193626 2.3574887533272815 -12.56031603072718 127 49 28
-4.19318239252306 2.3818181206484974 -12.567718583642092 123 45 23
-4.223076940853315 2.426685956699508 -12.551071150198773 126 48 26
-4.260898399312438 2.483505291552224 -12.52022254974247 123 45 23
-4.4484611814993 2.7637121036135133 -12.650463783384097 88 23 9
-4.459348905626717 2.77992977913278 -12.666665627513314 91 25 9
-4.462772026439888 2.784890830465232 -12.696628557966148 101 45 23
-4.484413047666607 2.8173247695479504 -12.692954581865921 92 44 28
-4.453630514696014 2.770701147060583 -12.786433845788304 71 28 20
-4.4454494356157745 2.7581602742285733 -12.838292177362732 69 25 20
-4.469736177302396 2.794583926032182 -12.829747023530793 69 27 22
-4.46580384670302 2.7882451624191757 -12.91076603140321 85 43 35
-4.484838765251534 2.8167489150495943 -12.911929419768793 99 56 45
-4.48259537322437 2.8131602195735166 -12.953176582268618 98 58 49
-4.480993477671628 2.81053832838411 -12.993344464790267 39 10 8
-4.47688957838283 2.8041419226497295 -13.038394073941717 20 6 3
-4.4707212872916715 2.794630836236576 -13.087534017768062 17 5 4
-4.465424672360298 2.786433557283794 -13.135189807005343 15 5 4
-4.409483996948339 2.701843661384833 -13.28006251779408 14 4 4
-4.41831481397911 2.7149531966463787 -13.301197411488381 14 2 2
-4.403136782469627 2.6918461263400526 -13.368623752469496 12 2 3
-4.427731612233681 2.728734694803386 -13.359452937134604 12 2 3
-4.425236972650316 2.724758937244228 -13.402639489466274 17 4 3
-4.431862864097772 2.734541240444121 -13.428236827276216 25 6 4
-4.457641183938485 2.7732164935523516 -13.416526719001494 48 11 6
-4.4681129062802984 2.788800847391697 -13.434576522041764 73 22 10
-4.480172172879991 2.806780269750445 -13.449509965451732 134 85 64
-4.509867998945083 2.8513678396082964 -13.429726861280411 131 91 63
-4.537214086083831 2.892411556537209 -13.41435598788324 108 64 34
-4.546273115260616 2.9056518042232584 -13.473584072836386 82 41 33
-4.527498673159748 2.877110032256726 -13.549681941292398 77 41 34
-4.539015427196514 2.8942711595756867 -13.56564906280896 71 35 29
-4.518348760003691 2.862871472791606 -13.646036251393914 62 25 19
-4.519472271298738 2.8643492297495485 -13.683032367070929 58 15 11
-4.514223800656729 2.856211420904234 -13.732968991142375 70 18 12
-4.484213249412762 2.810043106053758 -13.95293605429213 97 68 62
-4.493995472318635 2.8243596983156 -14.013399062845172 97 63 54
-4.497386364055854 2.829253342034512 -14.046814994581691 100 63 55
-4.504838874548553 2.8402763428947364 -14.071943027311644 100 63 55
-4.48402108750636 2.8086324044665556 -14.155561499359534 97 60 52
-4.473885686974999 2.7931090297593637 -14.217407808793116 96 59 51
-4.473272276255617 2.7919558924070627 -14.259701961918733 96 59 51
-4.467117037216331 2.7824374726899936 -14.313692868093991 97 60 52
-4.462400624172773 2.775089646673743 -14.364879045856325 98 61 53
-4.462487551176769 2.7749909934369255 -14.406175421903246 101 64 56
-4.4529233318815304 2.7603237335213677 -14.467911913327608 102 65 57
-4.4708060801431095 2.7870857437291425 -14.471969733257469 94 61 52
-4.468651085260354 2.783600979793074 -14.518354024837004 79 52 49
-4.491100629558816 2.817257093126061 -14.512662393849403 71 40 38
-4.470535865187658 2.7859803129419283 -14.598412911992618 59 16 8
-4.463620865826488 2.775307300932894 -14.655405672944724 89 41 25
-4.4619450461888945 2.7725424044588003 -14.701399042468609 114 71 54
-4.4568802558432274 2.764660348339373 -14.754829323643568 103 66 55
-4.463693676777924 2.774709994954888 -14.782869114419118 99 68 64
-4.444911776575683 2.746116602506576 -14.86626619290643 87 60 58
-4.477793680322176 2.7955228195916986 -14.83807579439607 81 48 44
-4.492510202707077 2.817503969650685 -14.849087673246299 87 42 30
-4.4725512453658185 2.7871301065334784 -14.935641398757362 118 74 58
-4.469008335133019 2.7815406475412443 -14.986698899532474 100 69 62
-4.470231097256649 2.783146019294537 -15.027491975858656 84 53 49
-4.45265237246535 2.756360975460482 -15.109760961389126 85 48 39
-4.436938492263726 2.732389811584633 -15.18828645019574 103 60 47
-4.3921210288167245 2.664222167777223 -15.376091797261804 49 37 37
-4.351046943024766 2.6019478388128032 -15.512190215746696 9 4 7
-4.3319000422834835 2.572783114667467 -15.600033542466306 22 19 22
-4.312897764634441 2.5438345791241623 -15.6879536648534 48 46 49
-4.2987670621156 2.522241005562953 -15.765336568405532 51 50 53
-4.2832993897317415 2.4986263831582516 -15.84606801479891 40 40 42
-4.278593930233459 2.4912639537215426 -15.902849876673772 49 49 51
-4.281319746473189 2.4951240652520505 -15.943013340248392 38 38 40
-4.282366324662764 2.496447252780415 -15.987108435221842 42 40 42
-4.2786966893233975 2.4906462414337893 -16.042089928692228 31 28 28
-4.294904939528326 2.5148686368277398 -16.051846047595326 30 25 25
-2.633221650832428 0.09654523521999536 -12.588154707977917 185 166 163
-2.864188145873353 0.44188521324193 -12.542138093999213 104 52 41
-2.886572686597274 0.47532641071813675 -12.545279063992801 103 50 38
-2.93015178570551 0.5405583016987245 -12.516920874360501 103 48 35
-2.963453996122562 0.5903764733149766 -12.503549252309377 104 48 35
-3.0013148612350453 0.6470331699685024 -12.48318885075103 105 48 34
-3.0126927819902387 0.6639669220750011 -12.502175660105927 104 47 34
-3.034277330754646 0.6962105645894026 -12.505858206281765 104 47 35
-3.0555148010583757 0.727933932750545 -12.509968646620663 108 50 38
-3.0642458004967814 0.7408976045693887 -12.532846267284636 110 51 38
-3.0745706450326944 0.7562520405777828 -12.553332760485166 107 47 34
-3.134245258656859 0.8455011829087717 -12.534955523770343 109 46 34
-3.1700953295345817 0.8991463893333558 -12.516339474941084 111 47 35
-3.1985559930769227 0.9417075105510491 -12.508806558699476 111 47 35
-3.2717957392119246 1.0514434377734307 -12.432393946201987 112 48 36
-3.298321007375226 1.0911031090842136 -12.427320585601077 113 49 37
-3.3149564768536357 1.115927044064171 -12.43737122899287 115 49 37
-3.326539711332006 1.1331719409308207 -12.455190057442291 116 50 38
-3.3370451057673587 1.148799901042564 -12.474674385664652 116 50 38
-3.4039778022017977 1.2489490181528158 -12.441923069373988 115 49 35
-3.4386040831292073 1.300633219190864 -12.459091404263225 117 50 36
-3.4643063933722105 1.3390617335497157 -12.454364659299443 117 50 33
-3.498248335456988 1.3898526274949359 -12.436477572296267 116 48 32
-3.5072083847062423 1.4031637247598967 -12.457968318704589 116 48 32
-3.53111039931841 1.438892610348542 -12.455722795998726 117 50 34
-3.5531629176407957 1.4718470725403536 -12.45630150038357 120 52 36
-3.587412459666466 1.5231018826195668 -12.437271150908574 115 48 32
-3.6404048740894424 1.6024789303541649 -12.387963369812457 116 49 33
-3.583731647806621 1.5173154943907732 -12.514626628752431 118 49 34
-3.6719545667463653 1.6495539307162592 -12.40820998151256 118 49 34
-3.686632148038119 1.6714453393091886 -12.420032638332081 119 49 34
-3.7154090992399236 1.7144922807779595 -12.40893996404034 119 48 33
-3.723403657345267 1.726356583040766 -12.431489190620603 121 49 35
-3.7279621323365957 1.7330650136532597 -12.459668570523668 122 50 34
-3.7451781636419277 1.7587659223567291 -12.467187094437262 121 49 31
-3.7744006353385937 1.8024829671786904 -12.454932055196752 120 48 28
-3.804104665810861 1.8469232761738836 -12.44170344199349 120 47 27
-3.82844963915861 1.883322713878163 -12.437136913541918 122 49 28
-3.8828858504391017 1.9646146533699942 -12.45360171820587 123 48 29
-3.9001627432674075 1.9904092190110263 -12.460388346180284 122 47 28
-3.8844919622897733 1.9667612968621047 -12.522305701446594 122 48 29
-3.9091293431974625 2.0036013801771784 -12.51674926599648 126 52 33
-3.93414524731142 2.041010025177413 -12.510414292236511 124 51 32
-3.9686406193296175 2.0926450304522346 -12.487913283867602 123 48 29
-3.9809181238508566 2.1109381892901835 -12.50283269458744 121 45 26
-4.00507350175446 2.1470569653395044 -12.497539895010664 123 47 28
-4.021545879640166 2.171645962569915 -12.505207800644968 125 49 30
-4.052214755076417 2.217540894345148 -12.488538669793687 131 54 35
-4.083593223708062 2.264501531147804 -12.470448291982022 122 45 26
-4.107836263665058 2.3007540377379745 -12.464417828647495 123 45 27
-4.086657351109306 2.2688365594291318 -12.536595263225122 122 45 26
-4.113744024242062 2.309357124699712 -12.525590315491204 121 44 25
-4.1361254851557465 2.3428164345555427 -12.522578075099375 122 44 25
-4.1213224381442135 2.3204665968937355 -12.584145688139103 123 46 27
-4.147418609828293 2.359501543667558 -12.574591086921746 125 47 26
-4.175082025528502 2.400889398851251 -12.562131089067755 123 45 23
-4.202990306253891 2.4426454426204467 -12.549062221150596 124 46 24
-4.23938412125149 2.497138594833957 -12.520872438007 122 44 22
-4.440199312197773 2.79672273752266 -12.663373881819183 87 22 7
-4.448514234495099 2.809071818214246 -12.684295868980225 93 32 16
-4.471273008199592 2.8431049361385754 -12.678593900006602 86 33 20
-4.444065914857954 2.802125376132171 -12.765184923304915 73 25 16
-4.442985494402124 2.800368532100051 -12.803704879473578 70 24 18
-4.461364115211195 2.827825658764179 -12.806137531344504 69 26 20
-4.452315455867993 2.81396937477569 -12.896458849503759 80 39 30
-4.452152938415489 2.813589130049695 -12.933670334776888 94 51 40
-4.463725278349362 2.830827293720564 -12.948902661876645 95 54 46
-4.4829066311299535 2.8594899140715735 -12.949752477743893 33 8 6
-4.429781402177934 2.7791719435400575 -13.200176865579575 11 2 3
-4.380853790286676 2.7052835215247524 -13.408240123264157 13 2 2
-4.397243196705543 2.7297518786076616 -13.414998563001973 18 4 2
-4.413528301955353 2.7540638691932324 -13.421890444493622 27 7 1
-4.422268804855975 2.767046866426446 -13.443380344465183 48 11 5
-4.437165227291705 2.789273876119937 -13.452886416561284 70 18 9
-4.449064020718184 2.8069996071630436 -13.468201146381801 114 61 47
-4.482489614142894 2.857052175197631 -13.441283678301525 151 112 93
-4.5123822523630075 2.9018002137935914 -13.421049128290917 113 71 41
-4.542330104332984 2.946632003403385 -13.400479682311271 106 56 32
-4.530164520707234 2.928220257482202 -13.462992917150281 86 41 31
-4.489173894839176 2.8665185752088114 -13.582954327414853 80 42 36
-4.497644283103579 2.8790955082600234 -13.605091312030915 75 40 34
-4.503162723540203 2.887239048683347 -13.633140611881796 66 29 22
-4.49848953079046 2.8800760962191254 -13.681644183269999 54 14 10
-4.496133351279202 2.876392348341822 -13.725672204668038 62 12 7
-4.471098621970933 2.838647326850852 -13.815506248064764 99 39 24
-4.476930587699701 2.846965623162977 -13.923140841987092 101 71 63
-4.497230930564212 2.8773085046185254 -13.921830172896897 94 63 57
-4.470423294720332 2.8368955864492467 -14.016637547692307 96 63 54
-4.470202123801645 2.8364145085751193 -14.057418759654432 98 62 54
-4.493099620313512 2.870658242308277 -14.050822816328811 98 62 53
-4.470321926902098 2.8362953061638616 -14.138209042108102 96 60 52
-4.449117902884276 2.8042946790130423 -14.22274455890809 96 59 51
-4.452355369709295 2.8090064940681407 -14.256997817534756 96 59 51
-4.449181835171434 2.804087791721386 -14.304669372327728 96 59 51
-4.454707820285604 2.812236515372663 -14.334368913524443 98 61 53
-4.44656226617637 2.7998478989940567 -14.392721946951324 99 62 54
-4.435702253996174 2.78338076631996 -14.456998814631454 101 64 56
-4.4513217832133485 2.8066908894341087 -14.465838633608591 99 65 56
-4.479796960109718 2.849313608210455 -14.447495169765865 84 57 51
-4.47960404649684 2.848869903973199 -14.489591746407399 77 48 46
-4.463592699395584 2.8246617671855625 -14.565392695170882 68 28 22
-4.458780250148864 2.8172766946158645 -14.617690553614086 69 22 11
-4.450656733636337 2.804916556364597 -14.67725070665487 114 67 48
-4.448586681557723 2.8016500456802618 -14.72408747737948 110 71 56
-4.454087070582691 2.80975666547861 -14.75483034879762 99 67 61
-4.443377155181933 2.7935085208148083 -14.82054984450836 90 64 61
-4.464737894740936 2.825443381733852 -14.817272695933621 85 58 52
-4.469084084728943 2.8318151160306075 -14.850719462209348 104 65 52
-4.461355588250157 2.820044570192746 -14.910482532144625 118 73 59
-4.460314467025814 2.8183209538143643 -14.955911048512228 101 70 63
-4.461390290488987 2.819777541011573 -14.996865812856303 84 54 49
-4.427219981091628 2.7682745454065314 -15.115202172981384 85 49 41
-4.428410718505987 2.769902024945874 -15.156385002537018 98 54 43
-4.425555339849341 2.7654493472829094 -15.20661547631338 100 63 53
-4.385396777706044 2.7049433872996342 -15.339515367904959 61 46 47
-4.359929888804027 2.666511361962618 -15.440498795310582 19 12 17
-4.329172298267531 2.620127385770706 -15.553729251087532 14 9 13
-4.3137377029369866 2.5967671725937347 -15.633324958118383 43 40 43
-4.290545339615965 2.5617479125768705 -15.730630104547746 56 54 56
-4.260256890682136 2.516063370834921 -15.84431530920314 43 43 45
-4.246708217179831 2.495532801159076 -15.920874519983837 48 47 50
-4.236256663094636 2.479655336897226 -15.990773846763771 35 35 37
-4.242722123548766 2.4891999850491793 -16.02266309743194 38 36 37
-4.260635679928971 2.515949071527971 -16.028622745583 36 33 33
-4.26248412263997 2.5185547438178446 -16.071084506060252 32 27 27
-4.23783035924715 2.4813299795528847 -16.174213950580047 35 29 28
-2.587081423942459 0.07899402778257159 -12.547516413646276 207 199 198
-2.5724383486433124 0.057053369987303704 -12.60475558856386 165 144 142
-2.8659664396217694 0.49493016366290377 -12.505173252577034 104 50 40
-2.8659726930923592 0.49487291584728954 -12.54121970866099 105 49 38
-2.8785556192203727 0.513603447113141 -12.558781054038345 105 49 36
-2.918409999414408 0.5730743190917815 -12.53591996063859 105 49 36
-2.987396289551685 0.6760655054840314 -12.46951510415937 106 50 37
-3.0070848886409904 0.7054119330583033 -12.476079823178058 106 48 36
-3.008388394994958 0.7072929107313515 -12.510050520702231 106 48 36
-3.028725742976564 0.7376086481962489 -12.515569479642405 108 50 38
-3.0485945519084234 0.767224578079067 -12.521710049220868 109 49 37
-3.0615461579772423 0.7865068376572433 -12.538203014724672 110 48 35
-3.0749100340455655 0.806405036646797 -12.5540542653817 110 48 35
-3.1110600799054056 0.8603445902292721 -12.535318887805351 111 49 36
-3.1439695609184093 0.9094433025297382 -12.521288769604066 112 48 36
-3.18298868659883 0.9676699599729046 -12.497739550987887 112 48 36
-3.2739533991064143 1.1034365402075852 -12.430043771991018 114 50 38
-3.425865893483693 1.329934345158084 -12.44396872085742 118 50 36
-3.461717658578283 1.3834326472393959 -12.423322906350123 117 50 33
-3.470094065897409 1.395881684790898 -12.445738536381132 117 49 32
-3.557384458142646 1.5261678660554572 -12.37883085692404 118 49 33
-3.546130281191745 1.5092877216517717 -12.432184877213857 118 49 33
-3.5860222226651532 1.5688240633493895 -12.404201343873762 117 48 32
-3.5989186107597537 1.5880269160385923 -12.41910723198793 117 48 32
-3.5825164430589425 1.5634546521200772 -12.480973012674035 118 49 33
-3.609470004547189 1.6036603693379479 -12.473362882662517 120 48 33
-3.625334502671643 1.6272979399014171 -12.483484366566357 120 48 33
-3.67357277444983 1.699306308589406 -12.441184531174443 121 48 33
-3.695385807356222 1.7318323003409342 -12.441400198511806 122 49 34
-3.7078735067382773 1.7504250456407142 -12.456681508713718 123 50 33
-3.723074709465643 1.7730722321657346 -12.467514781611445 125 52 35
-3.749606744368764 1.8126496640729104 -12.459757453140679 120 47 30
-3.779587058063577 1.8573797173627509 -12.446185663502177 119 46 29
-3.806769505278693 1.8979295873404443 -12.437031827525477 121 48 29
-3.8342824756264275 1.9389736219990188 -12.427170390176663 122 48 29
-3.8583446045924363 1.9747961169326844 -12.458370947259422 124 49 30
-3.8690878191505544 1.9907830790073455 -12.476090883776704 122 47 28
-3.8834946593224036 2.0122443477337666 -12.487686654313023 122 47 28
-3.9025015752578947 2.0405793021802996 -12.49153587018439 124 49 30
-3.912973333663625 2.056160773904604 -12.509640204068427 125 50 31
-3.9324332734691945 2.085172900876977 -12.5125969042465 124 49 29
-3.9514189197018954 2.11347647401771 -12.516264784793862 123 46 26
-3.9707882235800214 2.142353496155965 -12.519196331117383 121 44 24
-4.0000508339910485 2.186014096044802 -12.505220557257942 117 40 20
-4.0339718922525805 2.2366361318184307 -12.483114369909952 119 41 21
-4.067105731462686 2.286082259693568 -12.462118351263126 121 43 23
-4.091188579509384 2.3220038085492964 -12.456413626904606 122 44 24
-4.069059801040114 2.2888706147801465 -12.530042160599155 122 44 24
-4.105252164282529 2.3428878659361234 -12.503403501682033 122 44 25
-4.125296096023632 2.372774362052643 -12.504436598298053 123 44 26
-4.10723409234822 2.3457174850877474 -12.57147728158948 123 44 26
-4.135583913715799 2.388015969161929 -12.5580511991039 122 44 23
-4.1643062701553095 2.4308714984026505 -12.543790487624445 124 46 24
-4.199382279257017 2.4832221285401754 -12.518221415550858 124 46 24
-4.218163292007182 2.511222210134395 -12.52099772626641 123 45 23
-4.26368812175792 2.579188302422886 -12.476608663690925 125 48 28
-4.431339999609017 2.828877390742642 -12.641284908451562 83 20 9
-4.443225499029447 2.846573972746404 -12.655589407382639 81 22 10
-4.454823803551504 2.8638413686096453 -12.67040123757496 82 28 14
-4.436552524824014 2.836467192202954 -12.740279196061074 74 26 15
-4.433531698326901 2.831885180508147 -12.78225431945813 68 23 17
-4.453062540421232 2.86100796930243 -12.782538238390377 66 24 18
-4.418746259748509 2.809584107446482 -12.919700578901942 78 37 33
-4.431662647094548 2.8288207650102954 -12.932449778350751 93 49 39
-4.444568360720008 2.848041526973291 -12.945187898512568 99 55 46
-4.466444153257891 2.8806692125038036 -12.941012276826669 35 10 7
-4.394708386782664 2.7731740583767244 -13.22622155777118 11 1 2
-4.353864434381749 2.71205589022338 -13.342051819328763 11 1 2
-4.341835242233371 2.693934741683419 -13.441616390217803 15 2 2
-4.362124946585443 2.7241907696445917 -13.440998411512242 19 4 3
-4.38327385886414 2.7557312736287685 -13.438608442733624 30 7 4
-4.3738593773419066 2.741588181290135 -13.495319605713743 52 11 4
-4.39270194333236 2.769681444235986 -13.497339734959091 75 17 6
-4.423584232463673 2.8157711940186334 -13.47579735860629 99 37 22
-4.4648772639372645 2.8774228839085305 -13.43367079199862 159 119 105
-4.487722298523179 2.9114997993853082 -13.427356547613321 128 86 58
-4.5083074051526815 2.9421988952939913 -13.425341392525358 111 60 32
-4.511504384300927 2.9469066710777647 -13.457494923906266 96 47 33
-4.477173178345632 2.8955172705994725 -13.563947177871256 80 41 33
-4.48562815021929 2.908084036364087 -13.58605033751994 73 37 32
-4.482562079743515 2.9034288946233855 -13.631092684766159 62 27 19
-4.495542820439005 2.9227607103088356 -13.644276156734332 52 15 8
-4.498141037389116 2.9265723707700126 -13.678202537461386 61 12 7
-4.533286261132766 2.979036787146452 -13.646906336625024 92 32 17
-4.451495640509398 2.856625415338852 -13.890409325948783 117 72 57
-4.4696782586660735 2.8837326763948274 -13.893471293026927 105 72 63
-4.5038774181707915 2.934783145298131 -13.863923319624346 94 65 58
-4.451590881830745 2.8565462024816064 -14.010197414426308 95 62 55
-4.449616503763204 2.8535203510512526 -14.054471494643565 96 63 54
-4.488447246923016 2.911494919740009 -14.015319087044222 96 62 53
-4.458442124218921 2.8665647295243244 -14.117226417219005 95 61 52
-4.439240733891635 2.837784676141105 -14.1973628445241 95 60 51
-4.455908982591767 2.862627662858656 -14.203744091524461 96 59 51
-4.431240169974669 2.8256730400933834 -14.295712079143799 95 58 50
-4.426276371683613 2.8181762915627373 -14.347154420228865 96 59 51
-4.4539232484729885 2.8594319684293996 -14.330812612197095 98 61 53
-4.437414328440726 2.8346748632697527 -14.406571218043087 100 63 55
-4.436623381604781 2.833415780994316 -14.449707225967508 102 66 58
-4.479582788036172 2.897564455925244 -14.400986359270743 92 60 53
-4.473093551308302 2.887786181375327 -14.456152033645829 84 54 49
-4.461867453009063 2.8709256657290596 -14.52154844741509 81 47 41
-4.449622462614611 2.8525413413439664 -14.589377704892552 59 18 12
-4.44286449844197 2.8423600005407494 -14.645818371386127 102 56 40
-4.441796516299006 2.8406852669417098 -14.690335955171275 113 69 53
-4.434673555131319 2.829957477927749 -14.747959630748174 111 73 61
-4.434149951840807 2.8290960316729965 -14.791643548143146 96 64 56
-4.433986539966899 2.828772851449252 -14.83469477876502 99 67 59
-4.430388614301392 2.8233143630058732 -14.885299882505599 114 72 60
-4.427386176062348 2.8187458758243893 -14.934798621695096 118 73 59
-4.430518470523158 2.8233494427727353 -14.971150963366174 99 67 60
-4.4291731659478 2.8212580671232725 -15.017354738552926 88 58 53
-4.427228341392233 2.818270012237487 -15.065024869900387 88 51 43
-4.407568696059188 2.7887946103414842 -15.151671793578135 96 53 44
-4.401966497093399 2.780337215779924 -15.207823866164269 108 65 52
-4.370653470228525 2.7334362113735065 -15.320852650617857 66 45 46
-4.32721215723261 2.668399652795336 -15.461238005544066 37 29 33
-4.30355708302251 2.632946937998545 -15.558470483883589 8 5 8
-4.282971780277828 2.602083462113617 -15.649332555814492 28 26 29
-4.266412795438889 2.577239621088017 -15.731633082222482 52 49 52
-4.248061965116609 2.5497158021164354 -15.818306938743106 46 44 47
-4.237420184280923 2.533718505206445 -15.88808008405666 42 40 43
-4.226711572870247 2.5176207387228695 -15.958294796253004 42 40 43
-4.2309062080187845 2.523807432212477 -15.995176266711306 32 29 29
-4.240559809584349 2.5381568722444623 -16.019800539731317 32 28 27
-2.515977243208059 0.02430671051201383 -12.578421787362647 197 184 182
-2.505877109731581 0.009278952030495446 -12.62914314439341 143 113 111
-2.7380359937142784 0.3546944465842037 -12.585745306368501 103 50 37
-2.864426561301298 0.5427436356510409 -12.545202789027568 106 49 36
-2.8814867112793183 0.5681263197106823 -12.556104754181641 106 49 36
-2.932689008711735 0.6443074209178246 -12.516358199987781 106 49 37
-2.9675491370565243 0.6961738170890124 -12.500550965906612 106 48 36
-2.9880013894669277 0.7266034461088702 -12.506012211368834 106 48 36
-3.004892794123786 0.7517350657098021 -12.516713709831755 108 49 37
-3.0327849895053216 0.7932342209278254 -12.510868247876186 109 49 37
-3.064117944167272 0.839852713809901 -12.499699246354322 111 49 36
-3.082565678956017 0.8672999225620734 -12.507783564690481 111 49 36
-3.101337144764877 0.8952287953049796 -12.515311139261037 111 49 36
-3.130142905234241 0.9380872031907006 -12.507545864285671 113 49 37
-3.1658108940472798 0.9911555853080412 -12.48917997290182 113 49 37
-3.189004929533981 1.0256645852291748 -12.489627391295343 114 50 38
-3.342710525000203 1.2543542829737864 -12.431761324138579 116 50 36
-3.3527102638628623 1.2692321391980177 -12.451855844546508 116 50 36
-3.3790105752403314 1.3083628222564236 -12.446567968619693 119 51 38
-3.4096608299444404 1.3539655750657382 -12.434342555749943 118 51 36
-3.430781093557417 1.3853891196221149 -12.436864040030496 118 51 34
-3.461111417496421 1.430515865439482 -12.424818202227272 117 49 33
-3.5681644737891687 1.589793841288873 -12.39749442326961 118 49 33
-3.5783842817091482 1.6049991319124879 -12.416662038578398 117 48 32
-3.597256740730178 1.6330782827985635 -12.42199679794471 118 49 33
-3.582625508832232 1.611308914920261 -12.4809797325814 120 48 33
-3.5997919851626405 1.6368498167154053 -12.489057568571093 120 48 33
-3.6339523414526265 1.68767509126552 -12.469661852908551 122 49 34
-3.676279682774351 1.750651629905701 -12.436831542373852 122 49 34
-3.7075253442008487 1.7971402743381089 -12.421679224865343 122 49 33
-3.721205955972878 1.8174947303301447 -12.434910309703437 121 48 31
-3.7303062733446346 1.8310343873422728 -12.455584433315163 117 44 27
-3.753931384960714 1.8661847858788647 -12.452498669566209 119 46 29
-3.7701487785193337 1.8903135982738148 -12.461445459154369 120 47 29
-3.7981471696589786 1.9319707906782555 -12.450942180222341 122 48 29
-3.8305215366718 1.9801385222612766 -12.468540597236677 122 47 28
-3.877333040710678 2.049786845375131 -12.42639896574894 122 47 28
-3.880262593105478 2.054145319841119 -12.456988129196773 123 48 29
-3.87811581643476 2.0509509670311012 -12.496127392657119 122 47 28
-3.891323395717633 2.07060162427257 -12.50966586371145 128 53 34
-3.903628335505005 2.088909287614845 -12.52469217774429 123 47 28
-3.9234477979780027 2.1183974501171745 -12.527036852083082 121 44 24
-3.9412006653050184 2.1448108251396825 -12.532780029480568 121 44 24
-3.9713957502997967 2.189736382398705 -12.517362405443947 121 44 24
-4.0045521835633435 2.2390679899604637 -12.496714350569812 124 46 26
-4.041979301199749 2.294753746940316 -12.468559069626888 124 46 26
-4.02794327960157 2.273869952174757 -12.528116696246872 122 44 24
-4.060370430884689 2.3221164993146095 -12.508248512345492 122 44 24
-4.078329628881267 2.348836868425329 -12.513037393264465 122 44 24
-4.05503956102293 2.314184415449927 -12.588887008373934 122 44 24
-4.090296084765976 2.3666406539166154 -12.563808139718823 122 44 24
-4.115762671751847 2.404530911814578 -12.555459071920659 122 44 22
-4.145964402160018 2.449466366313135 -12.538717510510503 124 46 24
-4.1788100925739275 2.498335645199223 -12.517159519768553 125 47 25
-4.202108994942041 2.533000711700799 -12.51207597823149 128 50 28
-4.231175181652585 2.57624664886164 -12.496736360617463 131 53 32
-4.408893565370475 2.840661983311899 -12.6440886343613 79 18 7
-4.450723538895302 2.9028985752992864 -12.60368248126337 77 17 7
-4.450683422887524 2.9028386190292634 -12.639689940312156 80 25 12
-4.447139906732286 2.8975661163599393 -12.682244255370932 75 25 14
-4.4320882220638005 2.8751711452113278 -12.746161312151806 69 23 16
-4.434657208698636 2.87899314808558 -12.777762941422926 65 21 16
-4.441065241460473 2.8885268144987384 -12.838843275974984 77 35 33
-4.397449592180112 2.8236328415890792 -12.956828881384126 90 44 37
-4.437419266034047 2.8831015866248513 -12.919026419905908 101 55 46
