ply
format ascii 1.0
element vertex 845
property float x
property float y
property float z
property float nx
property float ny
property float nz
property uchar diffuse_red
property uchar diffuse_green
property uchar diffuse_blue
property uchar class
property uchar detection
end_header
2.7903 -0.0807 -14.0586 0.627 0.389 0.675 142 73 48 0 0
2.8681 -0.1327 -14.5285 0.656 0.697 0.289 111 62 41 0 0
2.8989 -0.1555 -14.7386 0.819 0.530 0.218 119 80 54 0 0
2.9403 -0.1747 -14.8971 0.959 0.280 0.048 55 16 10 0 0
2.9468 -0.1864 -15.0161 0.810 0.580 0.083 89 53 45 0 0
2.9487 -0.1944 -15.0991 0.980 0.185 0.067 57 18 7 0 0
2.9521 -0.1983 -15.1377 0.980 0.185 0.067 65 21 12 0 0
2.9563 -0.2023 -15.1755 0.857 0.505 0.100 64 23 15 0 0
2.9069 -0.2230 -15.4561 0.833 0.508 -0.218 32 12 10 0 0
2.9310 -0.2268 -15.4693 0.077 0.137 0.988 4 1 2 0 0
3.0206 -0.2463 -15.5749 0.647 -0.727 0.227 41 43 43 0 0
3.0175 -0.2505 -15.6235 0.564 -0.754 0.337 27 27 29 0 0
4.3318 -0.3168 -14.8115 0.718 -0.614 0.328 112 57 42 0 0
4.3687 -0.3200 -14.8028 0.144 -0.096 0.985 113 62 48 0 0
5.0727 -0.4598 -15.4916 0.604 0.088 0.792 81 23 11 0 0
5.1014 -0.4630 -15.4926 0.357 -0.397 0.846 81 23 11 0 0
5.1418 -0.4700 -15.5211 0.329 -0.510 0.795 81 29 15 0 0
5.1670 -0.4733 -15.5274 0.261 -0.146 0.954 83 33 22 0 0
5.1775 -0.4772 -15.5572 0.547 -0.618 0.564 84 38 28 0 0
5.1955 -0.4851 -15.6219 0.675 -0.667 0.316 85 44 36 0 0
5.2022 -0.4892 -15.6581 0.652 -0.701 0.289 86 46 38 0 0
5.5911 -0.6352 -16.7785 0.302 0.701 0.646 202 202 202 0 0
5.6988 -0.6432 -16.7397 0.482 -0.195 0.854 206 206 206 0 0
-3.4377 0.7059 -12.4881 -0.347 -0.519 0.781 101 68 64 0 0
-3.3485 0.6987 -12.4638 -0.320 -0.455 0.831 98 60 53 0 0
-1.2720 0.4716 -12.5198 0.356 -0.014 0.934 121 46 27 0 0
-0.7125 0.4101 -12.5377 0.369 0.129 0.921 123 44 23 0 0
-0.5309 0.3880 -12.5667 0.436 -0.197 0.878 124 42 21 0 0
-0.4481 0.3788 -12.5698 0.236 -0.111 0.965 125 43 22 0 0
-0.4365 0.3752 -12.5951 0.155 0.046 0.987 125 43 22 0 0
0.0390 0.3186 -12.6568 0.260 0.090 0.961 130 52 32 0 0
0.4965 0.2506 -12.8612 0.708 -0.424 0.564 128 48 19 0 0
0.4947 0.2169 -13.2211 0.812 -0.549 0.199 18 16 17 0 0
0.5198 0.2130 -13.2348 0.754 -0.281 0.594 8 6 6 0 0
0.8393 0.1408 -13.6401 -0.209 0.241 0.948 11 2 3 0 0
1.0912 0.1155 -13.6226 0.406 0.096 0.909 149 91 77 0 0
1.1196 0.1115 -13.6326 0.455 0.016 0.890 163 101 83 0 0
1.1550 0.1075 -13.6356 0.575 -0.158 0.803 169 102 79 0 0
1.2299 0.0958 -13.6750 0.311 -0.252 0.916 158 78 38 0 0
1.5318 0.0634 -13.6757 0.894 0.313 0.320 120 41 26 0 0
2.1629 -0.0138 -13.7800 0.241 -0.089 0.967 148 64 38 0 0
2.7892 -0.1065 -14.0543 0.526 0.281 0.803 153 85 59 0 0
2.8096 -0.1101 -14.0701 0.624 0.416 0.662 122 54 27 0 0
2.9221 -0.2582 -15.5184 0.668 0.665 0.334 8 2 3 0 0
3.0411 -0.2941 -15.7657 0.428 -0.462 0.777 5 5 5 0 0
4.3590 -0.3452 -14.8101 0.010 -0.012 1.000 112 62 50 0 0
4.3506 -0.3616 -14.9947 -0.483 0.432 0.762 125 86 78 0 0
4.8596 -0.4123 -14.9555 0.499 -0.625 0.600 96 39 26 0 0
5.0519 -0.4813 -15.4712 0.545 -0.174 0.820 80 24 11 0 0
5.0812 -0.4844 -15.4713 0.534 -0.496 0.684 79 23 10 0 0
5.0941 -0.4882 -15.4971 0.713 -0.429 0.555 79 23 10 0 0
5.1092 -0.4919 -15.5195 0.713 -0.429 0.555 78 23 12 0 0
5.1366 -0.4951 -15.5224 0.261 -0.146 0.954 78 29 16 0 0
5.1612 -0.4984 -15.5297 0.261 -0.146 0.954 82 35 25 0 0
5.1495 -0.5033 -15.5950 0.795 -0.487 0.362 81 41 32 0 0
5.1770 -0.5287 -15.8339 0.907 -0.409 0.099 87 53 47 0 0
5.1745 -0.5333 -15.8858 0.842 -0.539 0.026 89 58 52 0 0
5.2510 -0.5477 -15.9524 0.740 -0.638 0.214 99 75 71 0 0
5.6939 -0.6642 -16.6882 0.866 -0.265 0.425 206 206 206 0 0
-3.3089 0.6635 -12.4679 -0.320 -0.455 0.831 98 58 52 0 0
-3.1354 0.6429 -12.4913 0.523 -0.437 0.732 100 47 35 0 0
-3.0393 0.6290 -12.5311 -0.121 -0.400 0.909 104 45 34 0 0
-1.2827 0.4438 -12.5233 0.324 -0.210 0.923 121 46 27 0 0
-0.4936 0.3561 -12.5669 0.313 -0.466 0.827 125 43 22 0 0
-0.3858 0.3430 -12.5843 0.445 -0.322 0.835 125 43 22 0 0
0.4864 0.2307 -12.7948 0.286 -0.060 0.957 129 54 31 0 0
0.4931 0.2272 -12.8241 0.405 -0.256 0.878 129 53 29 0 0
0.5260 0.2096 -12.9723 0.497 -0.655 0.569 64 12 6 0 0
0.6526 0.1343 -13.6243 0.067 -0.219 0.974 10 6 7 0 0
0.7888 0.1179 -13.6454 -0.209 0.241 0.948 4 2 4 0 0
0.8416 0.1135 -13.6326 -0.209 0.241 0.948 27 6 3 0 0
1.0868 0.0886 -13.6217 0.250 0.063 0.966 163 105 87 0 0
1.1098 0.0847 -13.6369 0.682 -0.030 0.730 169 104 81 0 0
1.1268 0.0809 -13.6579 0.651 -0.035 0.759 164 100 73 0 0
1.1493 0.0770 -13.6735 0.400 -0.042 0.915 161 103 75 0 0
1.3601 0.0494 -13.7294 0.286 -0.202 0.937 150 62 35 0 0
1.4494 0.0413 -13.7156 0.413 0.094 0.906 123 44 25 0 0
1.5596 0.0258 -13.7559 0.421 -0.099 0.902 148 70 44 0 0
1.5862 0.0219 -13.7668 0.185 -0.057 0.981 172 95 68 0 0
2.0170 -0.0210 -13.7387 0.789 -0.165 0.592 139 60 33 0 0
2.0326 -0.0247 -13.7604 0.789 -0.165 0.592 142 65 37 0 0
2.7672 -0.1285 -14.0347 0.489 0.231 0.841 154 92 59 0 0
2.7980 -0.1322 -14.0385 0.424 0.076 0.903 149 83 53 0 0
2.8243 -0.1358 -14.0476 0.602 0.321 0.731 140 73 47 0 0
2.9278 -0.2852 -15.5047 0.635 0.658 0.405 21 8 5 0 0
2.9183 -0.2896 -15.5613 0.976 0.072 0.206 6 4 2 0 0
2.9267 -0.2937 -15.5948 0.969 -0.169 0.181 6 5 6 0 0
3.0289 -0.3216 -15.7753 0.428 -0.462 0.777 4 4 4 0 0
4.2783 -0.3601 -14.7879 0.898 -0.388 0.208 110 54 39 0 0
4.2571 -0.3811 -15.0331 -0.360 0.535 0.765 121 77 67 0 0
4.8405 -0.4417 -15.0213 0.379 0.005 0.925 95 38 23 0 0
4.9971 -0.4696 -15.1404 0.716 -0.257 0.649 84 26 13 0 0
5.1869 -0.5671 -15.9543 0.510 -0.626 0.590 93 68 64 0 0
5.2383 -0.5736 -15.9660 0.759 -0.647 0.080 98 77 73 0 0
5.6879 -0.6951 -16.7435 0.938 0.314 0.145 207 207 207 0 0
-3.1173 0.6122 -12.4744 -0.013 -0.469 0.883 101 48 39 0 0
-3.0724 0.6071 -12.4790 0.091 -0.504 0.859 101 48 38 0 0
0.4685 0.2044 -12.8056 0.481 -0.084 0.873 130 56 33 0 0
0.6119 0.1111 -13.6198 0.081 -0.066 0.995 9 8 6 0 0
0.6465 0.1070 -13.6248 0.164 -0.035 0.986 9 8 6 0 0
1.0569 0.0655 -13.6080 0.573 -0.166 0.803 148 93 77 0 0
1.4398 0.0146 -13.7200 0.467 0.424 0.776 130 47 30 0 0
1.5247 0.0030 -13.7481 0.493 0.116 0.862 142 61 37 0 0
1.5837 -0.0047 -13.7640 0.259 -0.064 0.964 189 115 82 0 0
2.0117 -0.0472 -13.7389 0.789 -0.165 0.592 145 67 38 0 0
2.1187 -0.0622 -13.7782 0.311 0.097 0.945 146 62 36 0 0
2.6935 -0.1321 -13.8792 0.885 -0.318 0.341 138 70 49 0 0
2.7030 -0.1358 -13.9072 0.885 -0.318 0.341 140 74 53 0 0
2.7044 -0.1396 -13.9444 0.808 -0.206 0.553 145 80 59 0 0
2.7465 -0.1469 -13.9745 0.612 0.131 0.780 147 93 63 0 0
2.7670 -0.1543 -14.0293 0.546 -0.209 0.811 144 87 57 0 0
2.7891 -0.1579 -14.0432 0.478 -0.307 0.823 155 90 60 0 0
2.8133 -0.1616 -14.0547 0.485 -0.237 0.842 148 80 51 0 0
2.8419 -0.1652 -14.0610 0.556 -0.226 0.800 134 64 38 0 0
2.9371 -0.3249 -15.6194 0.876 0.055 0.479 6 6 8 0 0
3.0182 -0.3491 -15.7828 0.422 -0.245 0.873 4 4 4 0 0
4.3105 -0.3924 -14.8223 0.111 0.010 0.994 115 63 50 0 0
4.2665 -0.4019 -14.9700 -0.008 0.250 0.968 118 72 63 0 0
4.7362 -0.4492 -14.9494 0.633 -0.151 0.759 107 62 53 0 0
4.7446 -0.4531 -14.9807 0.669 0.078 0.739 98 49 38 0 0
4.7688 -0.4564 -14.9890 0.500 0.190 0.845 97 45 32 0 0
4.8356 -0.4624 -14.9779 0.541 -0.315 0.780 95 36 22 0 0
5.0700 -0.5084 -15.2014 0.519 0.188 0.834 82 24 12 0 0
5.1723 -0.5931 -15.9709 0.416 -0.645 0.641 95 71 66 0 0
-3.6036 0.6182 -12.6200 -0.347 -0.519 0.781 203 196 193 0 0
-3.1674 0.5876 -12.4688 -0.216 -0.557 0.802 101 54 47 0 0
-0.8570 0.3380 -12.5678 0.195 0.049 0.980 120 42 20 0 0
-0.4499 0.2933 -12.5919 0.645 -0.528 0.553 125 43 22 0 0
-0.4377 0.2896 -12.6168 0.700 -0.439 0.563 126 44 23 0 0
-0.2720 0.2720 -12.6213 0.201 0.012 0.979 127 45 24 0 0
-0.0733 0.2469 -12.6666 0.431 -0.300 0.851 131 49 27 0 0
0.4504 0.1780 -12.8165 0.456 -0.259 0.851 125 50 27 0 0
0.3766 0.0940 -13.7594 -0.275 0.733 0.622 11 8 7 0 0
0.6086 0.0837 -13.6177 0.638 0.538 0.551 9 8 6 0 0
1.4780 -0.0197 -13.7520 0.536 0.128 0.834 134 49 31 0 0
1.5281 -0.0237 -13.7393 0.718 -0.042 0.695 143 60 34 0 0
1.5511 -0.0275 -13.7539 0.656 -0.129 0.743 169 92 60 0 0
1.5782 -0.0313 -13.7643 0.259 -0.064 0.964 186 123 85 0 0
2.0858 -0.0845 -13.7695 0.645 0.210 0.735 143 61 37 0 0
2.7011 -0.1615 -13.9038 0.899 0.025 0.436 139 72 52 0 0
2.7343 -0.1726 -13.9828 0.719 0.099 0.687 145 84 54 0 0
2.7696 -0.1800 -14.0208 0.859 0.151 0.489 125 70 44 0 0
2.7840 -0.1837 -14.0435 0.773 -0.131 0.621 150 92 61 0 0
2.8058 -0.1873 -14.0577 0.563 -0.214 0.798 150 85 54 0 0
2.8744 -0.1982 -14.0964 0.485 0.023 0.874 111 45 22 0 0
2.9021 -0.2173 -14.2626 0.710 0.557 0.431 106 59 44 0 0
2.9945 -0.2715 -14.7224 0.664 0.691 0.287 97 46 28 0 0
3.0033 -0.3768 -15.7958 0.335 -0.563 0.755 3 3 3 0 0
3.1245 -0.3826 -15.7256 0.180 0.783 0.595 3 3 3 0 0
4.1355 -0.4061 -14.8868 0.424 -0.031 0.905 112 55 40 0 0
4.7255 -0.4743 -14.9585 0.539 -0.094 0.837 101 57 48 0 0
4.7399 -0.4780 -14.9812 0.592 0.026 0.806 99 49 39 0 0
4.7672 -0.4812 -14.9848 0.409 0.084 0.909 96 44 31 0 0
4.8043 -0.4840 -14.9739 0.485 -0.376 0.790 94 40 25 0 0
4.8280 -0.4873 -14.9827 0.541 -0.315 0.780 93 35 21 0 0
4.8939 -0.4975 -15.0165 0.772 0.010 0.635 89 32 15 0 0
4.9301 -0.5045 -15.0506 0.828 0.065 0.557 88 30 14 0 0
4.9459 -0.5082 -15.0712 0.872 0.021 0.490 88 30 16 0 0
5.1854 -0.6177 -15.9421 0.760 -0.542 0.358 95 73 68 0 0
5.2378 -0.6241 -15.9522 0.801 -0.563 -0.202 100 80 75 0 0
5.7104 -0.7445 -16.6863 0.392 0.665 0.636 206 206 206 0 0
-3.5527 0.5823 -12.6170 -0.339 -0.535 0.774 205 200 198 0 0
-0.8750 0.3106 -12.5773 0.075 0.144 0.987 122 44 22 0 0
-0.4870 0.2668 -12.6171 0.354 0.272 0.895 125 43 22 0 0
-0.4417 0.2623 -12.6153 0.864 -0.027 0.503 124 42 21 0 0
-0.4283 0.2586 -12.6393 0.410 0.111 0.905 125 43 22 0 0
-0.2762 0.2448 -12.6201 0.201 0.012 0.979 123 41 20 0 0
-0.0532 0.2194 -12.6452 0.117 0.070 0.991 129 47 25 0 0
0.4253 0.1585 -12.7634 0.623 -0.437 0.649 123 47 23 0 0
0.6394 0.0559 -13.5837 0.694 -0.177 0.698 8 7 5 0 0
1.0511 0.0116 -13.6032 0.446 -0.487 0.751 165 102 83 0 0
1.4707 -0.0427 -13.7162 0.690 -0.151 0.708 127 45 28 0 0
1.4893 -0.0465 -13.7353 0.690 -0.151 0.708 153 70 47 0 0
1.5224 -0.0503 -13.7397 0.726 -0.030 0.687 155 75 49 0 0
1.5432 -0.0541 -13.7566 0.555 -0.103 0.826 178 108 76 0 0
2.0531 -0.1032 -13.7227 0.454 0.213 0.865 140 54 28 0 0
2.0777 -0.1069 -13.7347 0.454 0.213 0.865 142 56 30 0 0
2.1172 -0.1144 -13.7690 0.698 0.076 0.712 143 60 34 0 0
2.1360 -0.1181 -13.7871 0.698 0.076 0.712 143 59 31 0 0
2.7067 -0.1909 -13.9308 0.818 -0.151 0.555 140 71 50 0 0
2.7211 -0.1946 -13.9533 0.880 -0.150 0.450 138 72 51 0 0
2.9155 -0.2469 -14.2812 0.754 0.608 0.250 108 61 45 0 0
3.1133 -0.3579 -15.2036 0.750 0.660 0.036 52 12 7 0 0
3.0219 -0.3947 -15.6746 0.155 0.732 0.664 5 5 5 0 0
3.1064 -0.3969 -15.6083 0.403 -0.305 0.863 4 4 4 0 0
3.1343 -0.4006 -15.6163 0.589 -0.421 0.690 3 3 3 0 0
3.1492 -0.4046 -15.6414 0.485 -0.490 0.725 2 2 2 0 0
4.1751 -0.4300 -14.8261 -0.087 -0.253 0.964 111 56 41 0 0
4.8173 -0.5124 -14.9921 0.481 -0.314 0.818 93 39 23 0 0
4.8969 -0.5219 -15.0054 0.510 -0.077 0.856 90 34 17 0 0
4.9178 -0.5253 -15.0182 0.510 -0.077 0.856 88 31 14 0 0
4.9405 -0.5287 -15.0284 0.379 -0.122 0.917 88 31 15 0 0
4.9562 -0.5323 -15.0490 0.292 -0.134 0.947 88 31 16 0 0
4.9803 -0.5356 -15.0569 0.292 -0.134 0.947 87 31 16 0 0
5.0130 -0.5428 -15.0962 0.748 -0.050 0.661 84 28 14 0 0
5.0444 -0.5501 -15.1375 0.860 -0.370 0.351 88 32 19 0 0
-3.6806 0.5599 -12.6621 -0.283 -0.481 0.830 212 211 211 0 0
-3.5837 0.5529 -12.6331 -0.283 -0.481 0.830 209 209 209 0 0
-0.5139 0.2434 -12.5993 0.150 -0.084 0.985 124 42 21 0 0
-0.4857 0.2393 -12.6114 0.307 0.199 0.931 126 44 23 0 0
-0.4559 0.2352 -12.6221 0.374 0.217 0.902 123 41 20 0 0
-0.4270 0.2311 -12.6336 0.370 0.234 0.899 122 40 19 0 0
0.3970 0.1323 -12.7831 0.807 -0.256 0.532 126 50 24 0 0
0.3971 0.1112 -12.9953 0.661 -0.135 0.738 75 15 6 0 0
1.0318 -0.0152 -13.6166 0.357 -0.582 0.731 166 102 78 0 0
1.0952 -0.0268 -13.6678 0.386 -0.208 0.899 124 65 49 0 0
1.4103 -0.0617 -13.6960 0.083 -0.286 0.955 136 65 37 0 0
1.4631 -0.0693 -13.7186 0.540 -0.373 0.755 135 53 32 0 0
1.4838 -0.0731 -13.7356 0.543 -0.276 0.793 147 65 44 0 0
1.5169 -0.0769 -13.7400 0.640 -0.359 0.679 161 86 60 0 0
2.0467 -0.1293 -13.7240 0.453 -0.030 0.891 137 51 23 0 0
2.7198 -0.2203 -13.9492 0.815 -0.261 0.518 139 72 50 0 0
2.9515 -0.2761 -14.2728 0.836 0.322 0.445 110 64 49 0 0
2.9486 -0.2801 -14.3164 0.920 0.266 0.287 115 67 50 0 0
2.9489 -0.2841 -14.3563 0.851 0.372 0.371 112 64 48 0 0
3.1341 -0.3839 -15.1706 0.700 0.714 0.024 43 8 1 0 0
3.9625 -0.4539 -15.0253 -0.548 -0.606 0.576 95 38 21 0 0
4.1618 -0.4556 -14.8380 -0.093 -0.205 0.974 112 58 42 0 0
4.8452 -0.5401 -14.9880 0.480 -0.072 0.874 93 36 23 0 0
4.9210 -0.5541 -15.0510 0.641 -0.386 0.664 90 32 15 0 0
5.0188 -0.5670 -15.0807 0.855 -0.349 0.384 83 27 12 0 0
5.0236 -0.5712 -15.1179 0.912 -0.123 0.390 84 27 13 0 0
5.0348 -0.5751 -15.1455 0.912 -0.123 0.390 85 28 16 0 0
5.0675 -0.5779 -15.1401 0.214 0.149 0.965 84 27 15 0 0
5.1364 -0.6427 -15.7214 0.941 -0.339 0.001 84 53 47 0 0
-3.3585 0.5041 -12.5837 -0.286 -0.477 0.831 204 195 190 0 0
-3.1163 0.4890 -12.4906 -0.336 -0.511 0.791 107 75 65 0 0
-3.0250 0.4825 -12.4636 -0.333 -0.473 0.815 99 57 48 0 0
-0.4915 0.2120 -12.6113 0.201 -0.174 0.964 121 39 18 0 0
-0.4583 0.2078 -12.6194 0.409 0.071 0.910 119 37 16 0 0
0.3459 0.0740 -13.1434 0.733 0.337 0.591 32 11 8 0 0
0.5594 0.0055 -13.6108 0.159 0.206 0.966 9 5 4 0 0
0.6240 0.0013 -13.5878 0.746 0.404 0.529 7 4 3 0 0
1.2240 -0.0768 -13.7627 0.913 0.062 0.404 162 116 89 0 0
1.4723 -0.1036 -13.7799 0.298 0.178 0.938 177 107 74 0 0
1.7016 -0.1262 -13.7740 0.087 0.106 0.991 146 67 30 0 0
1.7331 -0.1299 -13.7796 0.152 0.058 0.987 141 55 24 0 0
2.7261 -0.2498 -13.9755 0.304 -0.259 0.917 143 73 55 0 0
2.7510 -0.2534 -13.9861 0.329 -0.354 0.876 147 80 59 0 0
3.0779 -0.3566 -14.6849 0.788 0.605 0.110 110 66 41 0 0
3.1327 -0.4018 -15.0802 0.786 0.598 0.156 67 30 15 0 0
3.1293 -0.4062 -15.1274 0.811 0.582 -0.063 70 29 18 0 0
3.1558 -0.4098 -15.1366 0.750 0.660 0.036 78 33 22 0 0
5.2681 -0.7826 -16.7254 0.131 0.649 0.750 169 168 167 0 0
-0.7176 0.2100 -12.5785 0.521 0.203 0.829 124 44 25 0 0
-0.2633 0.1558 -12.6651 0.828 0.093 0.552 124 42 20 0 0
0.1450 0.1141 -12.6742 0.087 -0.209 0.974 144 77 60 0 0
0.3273 0.0507 -13.1188 0.884 0.170 0.435 53 18 12 0 0
0.3509 0.0468 -13.1340 0.733 0.337 0.591 28 11 8 0 0
0.4912 -0.0178 -13.6318 -0.254 0.098 0.962 10 6 5 0 0
0.9333 -0.0614 -13.6262 0.381 -0.284 0.880 152 92 78 0 0
1.1900 -0.0923 -13.6775 0.658 0.239 0.714 132 54 29 0 0
1.3829 -0.1190 -13.7507 0.382 0.412 0.827 129 48 25 0 0
1.4662 -0.1303 -13.7807 0.184 0.009 0.983 178 115 78 0 0
1.9721 -0.1743 -13.7158 -0.018 -0.253 0.967 149 67 38 0 0
2.1424 -0.1962 -13.7641 0.593 -0.008 0.805 145 58 31 0 0
2.7314 -0.2754 -13.9638 -0.058 -0.527 0.848 141 67 47 0 0
3.1124 -0.3987 -14.8029 0.812 0.580 0.070 72 30 24 0 0
3.1183 -0.4028 -14.8375 0.812 0.580 0.070 62 24 17 0 0
3.0447 -0.4708 -15.5805 -0.043 0.355 0.934 55 36 34 0 0
3.0847 -0.4740 -15.5726 0.663 0.380 0.645 17 7 7 0 0
4.0114 -0.5118 -15.0321 -0.640 -0.361 0.679 84 33 22 0 0
4.9642 -0.6145 -15.1058 0.667 -0.094 0.739 83 27 12 0 0
4.9824 -0.6180 -15.1227 0.667 -0.094 0.739 84 28 13 0 0
5.0041 -0.6214 -15.1343 0.774 -0.076 0.628 83 28 14 0 0
5.0445 -0.6328 -15.2069 0.931 -0.034 0.364 77 22 10 0 0
5.0464 -0.6889 -15.7572 0.761 -0.645 0.076 82 49 42 0 0
5.0352 -0.7485 -16.3561 0.426 -0.854 0.300 82 69 63 0 0
5.2471 -0.7945 -16.6005 0.839 0.300 0.454 161 157 156 0 0
5.3042 -0.8110 -16.7061 -0.171 -0.294 0.940 173 171 172 0 0
5.7352 -0.8442 -16.6091 0.532 0.783 0.323 207 207 207 0 0
-2.7417 0.3934 -12.4698 -0.170 -0.497 0.851 103 47 36 0 0
-0.7552 0.1866 -12.5688 0.176 0.066 0.982 121 43 21 0 0
-0.5818 0.1657 -12.6049 0.346 -0.136 0.928 126 44 23 0 0
-0.4297 0.1489 -12.6217 0.366 0.053 0.929 124 42 21 0 0
-0.2531 0.1284 -12.6520 0.608 0.005 0.794 122 40 18 0 0
0.0592 0.0918 -12.7067 0.672 0.107 0.733 141 71 49 0 0
0.3224 0.0236 -13.1182 0.913 0.071 0.402 45 14 8 0 0
0.3374 0.0197 -13.1410 0.503 -0.324 0.801 19 4 2 0 0
0.4876 -0.0453 -13.6300 -0.254 0.098 0.962 10 6 5 0 0
1.3832 -0.1457 -13.7451 0.702 0.195 0.685 133 49 23 0 0
1.4111 -0.1495 -13.7549 0.483 0.140 0.864 132 53 27 0 0
2.0533 -0.2114 -13.7390 0.746 0.038 0.664 155 72 45 0 0
2.1514 -0.2300 -13.8256 0.696 -0.151 0.702 150 63 34 0 0
3.0126 -0.3643 -14.3032 0.764 0.610 0.209 112 65 48 0 0
3.0012 -0.3687 -14.3572 0.502 0.725 0.472 115 68 50 0 0
3.0238 -0.3723 -14.3705 0.681 0.626 0.380 108 59 47 0 0
3.1923 -0.5063 -15.5136 0.885 -0.139 0.443 32 17 17 0 0
3.2037 -0.5104 -15.5431 0.236 -0.925 0.298 19 9 7 0 0
4.1010 -0.5423 -14.9889 -0.376 0.192 0.906 97 39 26 0 0
4.2172 -0.5506 -14.9573 0.416 -0.127 0.900 122 75 64 0 0
4.2374 -0.5541 -14.9723 0.415 -0.313 0.855 124 80 72 0 0
4.9568 -0.6395 -15.1104 0.570 -0.423 0.704 82 26 11 0 0
5.0027 -0.6460 -15.1298 0.809 -0.274 0.520 87 34 19 0 0
5.0165 -0.6498 -15.1533 0.809 -0.274 0.520 84 30 17 0 0
5.0202 -0.7109 -15.7448 0.509 -0.670 0.540 81 47 42 0 0
5.0290 -0.7748 -16.3588 0.100 -0.841 0.532 84 73 67 0 0
5.0010 -0.7819 -16.4551 0.617 -0.786 -0.013 87 79 72 0 0
4.9469 -0.8013 -16.6968 0.673 -0.159 0.723 102 97 93 0 0
5.2412 -0.8208 -16.6028 0.849 -0.496 0.181 160 156 155 0 0
5.2541 -0.8250 -16.6316 0.727 -0.657 0.198 164 162 161 0 0
5.2641 -0.8295 -16.6655 0.617 -0.746 0.251 167 166 164 0 0
5.5277 -0.8715 -16.8207 0.181 -0.782 0.597 203 203 203 0 0
-2.6525 0.3579 -12.4384 -0.295 -0.438 0.849 100 47 35 0 0
-2.2546 0.3155 -12.4716 -0.122 0.524 0.843 111 45 33 0 0
-0.7137 0.1547 -12.5662 0.723 0.077 0.686 121 43 23 0 0
-0.4643 0.1257 -12.6103 0.134 0.074 0.988 124 42 21 0 0
-0.3683 0.1135 -12.6369 0.202 -0.224 0.953 121 38 17 0 0
0.3224 -0.0036 -13.1134 0.913 0.071 0.402 37 11 7 0 0
0.8796 -0.1117 -13.6298 0.164 0.145 0.976 151 92 78 0 0
1.3190 -0.1650 -13.7282 0.167 -0.085 0.982 129 63 39 0 0
1.3413 -0.1688 -13.7438 0.230 0.286 0.930 138 60 31 0 0
1.3862 -0.1725 -13.7368 0.742 0.279 0.610 128 49 20 0 0
1.4080 -0.1763 -13.7528 0.368 0.353 0.860 135 63 37 0 0
1.9739 -0.2266 -13.7032 0.000 0.105 0.994 139 55 28 0 0
2.0174 -0.2300 -13.6955 0.264 0.160 0.951 144 56 29 0 0
2.0759 -0.2373 -13.7098 0.306 -0.157 0.939 147 61 37 0 0
2.0909 -0.2410 -13.7319 0.509 -0.063 0.859 157 75 47 0 0
2.1428 -0.2483 -13.7529 0.563 -0.130 0.816 149 63 34 0 0
2.1759 -0.2518 -13.7557 0.444 -0.178 0.878 154 67 39 0 0
2.1497 -0.2561 -13.8219 0.756 -0.262 0.599 152 65 37 0 0
3.0223 -0.3939 -14.3261 0.627 0.625 0.465 113 66 49 0 0
3.0357 -0.3977 -14.3503 0.631 0.660 0.408 113 65 50 0 0
3.1961 -0.5375 -15.5466 0.988 -0.022 0.153 77 58 54 0 0
3.1971 -0.5421 -15.5899 0.945 -0.295 0.139 69 50 45 0 0
3.2007 -0.5466 -15.6298 0.923 -0.367 0.119 62 44 39 0 0
4.1851 -0.5728 -14.9524 0.726 0.162 0.668 105 46 31 0 0
4.2546 -0.5740 -14.8988 0.288 -0.322 0.902 113 60 47 0 0
4.3688 -0.5865 -14.9111 0.181 -0.132 0.975 115 68 61 0 0
4.9360 -0.6934 -15.4062 0.558 -0.797 0.232 77 23 11 0 0
4.9798 -0.7049 -15.4756 -0.022 -0.653 0.757 75 23 12 0 0
5.0949 -0.7407 -15.7125 0.150 0.053 0.987 84 55 50 0 0
5.1278 -0.7434 -15.7068 0.370 -0.074 0.926 86 58 55 0 0
5.1272 -0.7582 -15.8499 -0.193 0.201 0.960 91 71 69 0 0
4.9775 -0.7992 -16.3870 0.241 -0.920 0.307 84 71 68 0 0
4.9988 -0.8028 -16.4015 0.126 -0.822 0.555 87 77 72 0 0
4.9756 -0.8097 -16.4899 0.522 -0.848 0.088 90 82 77 0 0
5.2035 -0.8444 -16.6090 0.125 0.402 0.907 156 154 152 0 0
5.2429 -0.8465 -16.5921 0.901 -0.430 -0.048 159 158 156 0 0
5.2411 -0.8572 -16.6975 0.563 -0.758 0.329 167 166 164 0 0
5.2517 -0.8617 -16.7304 0.607 -0.744 0.279 171 170 168 0 0
-2.3608 0.2998 -12.4382 0.702 0.548 0.455 105 45 31 0 0
-2.1483 0.2804 -12.4261 0.251 0.022 0.968 112 46 32 0 0
-0.4222 0.0941 -12.6064 0.751 0.391 0.532 124 42 21 0 0
-0.3783 0.0863 -12.6404 0.248 -0.138 0.959 122 40 18 0 0
0.3312 -0.0009 -12.8160 0.435 -0.103 0.894 143 68 45 0 0
0.3414 -0.0047 -12.8424 0.406 -0.027 0.914 130 50 23 0 0
0.3362 -0.0121 -12.9177 0.769 -0.544 0.334 100 22 1 0 0
0.3223 -0.0307 -13.1085 0.913 0.071 0.402 24 5 3 0 0
0.3510 -0.0422 -13.1914 0.120 -0.436 0.892 17 14 13 0 0
0.3844 -0.0461 -13.1978 0.120 -0.436 0.892 8 6 7 0 0
0.8900 -0.1388 -13.6146 0.376 0.354 0.856 154 94 75 0 0
1.1656 -0.1730 -13.6858 0.736 -0.320 0.597 124 59 39 0 0
1.2319 -0.1845 -13.7337 0.541 -0.343 0.768 145 92 74 0 0
1.3761 -0.1993 -13.7416 0.470 -0.195 0.861 124 47 21 0 0
2.0048 -0.2563 -13.7035 0.265 0.372 0.890 140 54 26 0 0
2.0901 -0.2671 -13.7274 0.633 -0.007 0.774 151 69 41 0 0
2.1089 -0.2708 -13.7455 0.589 0.027 0.808 151 66 38 0 0
2.1660 -0.2779 -13.7609 0.419 -0.170 0.892 148 61 33 0 0
2.1341 -0.2824 -13.8332 0.632 -0.084 0.771 154 67 39 0 0
2.1601 -0.2860 -13.8437 0.899 -0.249 0.361 149 60 33 0 0
3.0486 -0.4231 -14.3291 0.631 0.660 0.408 111 64 49 0 0
3.1743 -0.4793 -14.7493 0.786 0.570 0.240 93 48 22 0 0
3.1870 -0.4832 -14.7752 0.709 0.645 0.286 68 22 6 0 0
3.1890 -0.5369 -15.2851 0.809 0.550 -0.207 73 41 35 0 0
3.2013 -0.5641 -15.5332 0.990 0.129 0.062 73 52 50 0 0
3.1999 -0.5688 -15.5796 0.988 0.155 -0.005 73 52 51 0 0
3.1907 -0.5739 -15.6365 0.961 -0.267 0.067 76 53 52 0 0
3.1980 -0.5877 -15.7620 0.916 -0.296 0.271 70 50 47 0 0
3.2069 -0.5921 -15.7953 0.918 -0.234 0.319 70 47 43 0 0
4.0868 -0.5982 -15.0391 -0.371 -0.617 0.694 58 21 15 0 0
4.2289 -0.6003 -14.9282 0.876 0.330 0.352 98 38 25 0 0
4.2738 -0.6027 -14.9086 0.529 0.024 0.848 106 51 34 0 0
4.5591 -0.6287 -14.8935 0.645 -0.066 0.761 110 65 52 0 0
4.8498 -0.6719 -15.0363 0.646 -0.396 0.653 88 32 17 0 0
4.8667 -0.6755 -15.0552 0.646 -0.396 0.653 87 31 16 0 0
4.9389 -0.7181 -15.3948 0.963 -0.252 0.091 76 22 10 0 0
5.0134 -0.7666 -15.7887 0.709 -0.674 0.207 83 54 46 0 0
4.9592 -0.8264 -16.4097 -0.113 -0.780 0.615 89 77 73 0 0
5.0329 -0.8364 -16.4368 0.085 -0.738 0.670 98 90 86 0 0
4.9318 -0.8496 -16.6559 0.576 -0.664 0.477 104 97 93 0 0
5.2342 -0.8837 -16.7015 0.768 -0.640 0.017 168 167 165 0 0
5.2313 -0.8893 -16.7580 0.391 -0.803 0.450 173 172 170 0 0
5.4207 -0.8945 -16.6324 0.420 -0.269 0.867 187 186 184 0 0
-2.6095 0.2945 -12.4342 -0.263 -0.576 0.774 100 49 38 0 0
-2.5582 0.2897 -12.4332 -0.202 -0.615 0.763 101 47 35 0 0
-2.1654 0.2519 -12.4338 0.215 -0.384 0.898 110 46 31 0 0
-2.1343 0.2476 -12.4462 0.153 -0.844 0.514 111 45 29 0 0
-2.1506 0.2443 -12.4925 -0.108 -0.593 0.798 111 45 29 0 0
0.2828 -0.0539 -13.1024 0.852 0.049 0.521 46 13 8 0 0
0.3039 -0.0578 -13.1198 0.680 -0.096 0.727 15 2 2 0 0
0.2933 -0.0616 -13.1653 0.533 -0.387 0.753 11 6 7 0 0
0.3406 -0.0694 -13.1957 0.077 -0.157 0.985 10 7 6 0 0
0.3912 -0.0733 -13.1868 -0.071 -0.016 0.997 8 6 8 0 0
0.4320 -0.0772 -13.1865 -0.049 0.038 0.998 8 6 9 0 0
0.2109 -0.0965 -13.5698 -0.336 0.593 0.732 17 13 12 0 0
0.3959 -0.1240 -13.6620 -0.139 -0.083 0.987 8 7 5 0 0
0.8990 -0.1659 -13.6009 0.333 0.474 0.815 166 106 78 0 0
0.9157 -0.1737 -13.6599 0.941 0.064 0.331 130 87 59 0 0
1.7926 -0.2573 -13.6539 0.684 -0.048 0.728 134 49 21 0 0
1.8026 -0.2611 -13.6813 0.771 -0.243 0.589 134 51 27 0 0
1.9111 -0.2757 -13.7203 0.375 -0.192 0.907 131 49 27 0 0
2.0598 -0.2895 -13.7161 0.429 0.358 0.829 153 70 41 0 0
2.0849 -0.2932 -13.7276 0.429 0.358 0.829 154 72 45 0 0
2.2442 -0.3147 -13.7862 0.286 -0.130 0.949 154 64 36 0 0
3.1833 -0.5050 -14.7319 0.753 0.597 0.275 68 28 17 0 0
3.1965 -0.5089 -14.7572 0.686 0.610 0.396 73 32 25 0 0
3.2253 -0.5167 -14.8048 0.778 0.576 0.249 73 27 15 0 0
3.2354 -0.5208 -14.8341 0.819 0.532 0.216 75 31 13 0 0
4.2332 -0.6252 -14.9158 0.876 0.330 0.352 68 23 15 0 0
4.2710 -0.6278 -14.9062 0.529 0.024 0.848 92 34 22 0 0
4.2953 -0.6311 -14.9153 0.128 -0.323 0.938 102 45 33 0 0
4.3018 -0.6354 -14.9494 -0.043 -0.211 0.977 113 59 47 0 0
4.5369 -0.6547 -14.9190 0.681 -0.217 0.699 110 62 49 0 0
4.5771 -0.6616 -14.9479 0.390 0.430 0.814 105 57 43 0 0
4.5948 -0.6653 -14.9659 0.457 -0.346 0.819 101 52 37 0 0
4.8541 -0.7009 -15.0676 0.807 -0.143 0.572 86 30 15 0 0
4.8658 -0.7382 -15.4092 0.204 -0.902 0.381 78 24 12 0 0
4.8835 -0.7419 -15.4276 0.431 -0.841 0.326 77 23 11 0 0
4.9372 -0.7626 -15.5745 0.936 -0.272 0.224 80 36 23 0 0
4.9587 -0.7808 -15.7272 0.670 -0.456 0.586 81 47 40 0 0
4.9586 -0.7858 -15.7743 0.112 -0.430 0.896 81 50 42 0 0
5.0102 -0.7920 -15.7867 0.531 -0.720 0.446 84 56 48 0 0
5.0879 -0.8013 -15.8041 0.793 -0.590 -0.153 90 66 64 0 0
4.9159 -0.8770 -16.6749 0.576 -0.664 0.477 105 100 97 0 0
-2.6810 0.2667 -12.4792 -0.263 -0.576 0.774 100 51 41 0 0
-2.5946 0.2500 -12.5586 -0.046 -0.106 0.993 103 44 33 0 0
-2.1326 0.2113 -12.5098 -0.132 -0.322 0.938 111 45 28 0 0
-1.9975 0.2015 -12.4819 -0.166 -0.086 0.982 113 45 29 0 0
-0.6909 0.0754 -12.4999 0.447 -0.462 0.766 121 42 22 0 0
-0.3914 0.0318 -12.6416 0.701 0.048 0.711 122 40 18 0 0
-0.2729 0.0159 -12.6843 0.113 -0.276 0.955 124 42 20 0 0
0.4273 -0.1042 -13.1857 -0.049 0.038 0.998 8 6 8 0 0
1.2768 -0.2417 -13.7165 0.116 -0.223 0.968 111 49 31 0 0
1.7890 -0.2836 -13.6522 0.684 -0.048 0.728 129 49 22 0 0
1.7408 -0.2883 -13.7397 0.654 -0.036 0.755 126 45 23 0 0
2.1300 -0.3265 -13.7504 0.403 0.223 0.888 147 60 32 0 0
2.4027 -0.3577 -13.8002 0.763 0.192 0.618 155 71 42 0 0
3.2100 -0.5299 -14.6927 0.914 0.372 0.161 97 59 51 0 0
3.2199 -0.5339 -14.7219 0.878 0.413 0.243 111 71 56 0 0
3.2307 -0.5425 -14.7919 0.901 0.428 0.067 105 57 30 0 0
3.2524 -0.5461 -14.8065 0.918 0.267 0.294 112 58 30 0 0
3.2642 -0.5546 -14.8758 0.935 0.354 0.030 91 48 27 0 0
3.1802 -0.6329 -15.6823 0.946 0.296 0.135 64 41 43 0 0
3.1839 -0.6375 -15.7224 0.968 0.218 0.126 61 40 39 0 0
3.1963 -0.6418 -15.7510 0.865 0.286 0.412 61 41 38 0 0
3.2090 -0.6460 -15.7792 0.830 0.322 0.455 45 26 23 0 0
3.2260 -0.6500 -15.8018 0.494 0.370 0.787 23 6 5 0 0
4.3093 -0.6600 -14.9325 -0.134 -0.468 0.873 92 36 25 0 0
4.3466 -0.6626 -14.9232 -0.215 -0.468 0.857 101 50 36 0 0
4.4259 -0.6813 -15.0279 0.658 0.683 0.317 112 65 52 0 0
4.4399 -0.6852 -15.0516 0.664 0.616 0.423 109 62 48 0 0
4.5544 -0.6831 -14.9307 0.755 -0.317 0.574 107 59 45 0 0
4.7687 -0.7121 -15.0115 0.738 -0.152 0.657 95 39 23 0 0
4.7908 -0.7154 -15.0228 0.615 -0.179 0.768 90 34 18 0 0
4.8725 -0.7578 -15.3467 0.513 -0.780 0.357 78 24 12 0 0
4.8573 -0.7637 -15.4155 0.624 -0.763 0.171 78 24 12 0 0
4.9438 -0.7822 -15.5110 0.021 0.076 0.997 79 30 18 0 0
4.9916 -0.8085 -15.7149 0.417 -0.664 0.621 82 51 44 0 0
5.1058 -0.8100 -15.6269 0.310 -0.559 0.769 85 57 49 0 0
5.0276 -0.8311 -15.8939 0.770 -0.622 -0.144 91 68 67 0 0
5.0666 -0.9229 -16.7180 -0.018 0.223 0.975 153 148 147 0 0
5.2391 -0.9295 -16.6263 0.178 -0.813 0.554 168 167 165 0 0
5.2528 -0.9338 -16.6537 0.106 0.387 0.916 173 172 170 0 0
5.2804 -0.9367 -16.6570 0.074 0.415 0.907 175 174 172 0 0
5.4469 -0.9488 -16.6217 0.373 -0.426 0.824 191 190 189 0 0
-3.1522 0.2617 -12.6589 -0.333 -0.536 0.776 208 207 209 0 0
-0.3940 0.0044 -12.6391 0.710 0.232 0.665 122 40 18 0 0
0.2814 -0.0813 -12.8446 0.385 -0.625 0.679 119 44 21 0 0
0.2206 -0.0851 -12.9326 0.215 -0.232 0.949 102 25 5 0 0
0.3020 -0.1199 -13.1839 0.196 0.284 0.939 27 24 24 0 0
0.3360 -0.1237 -13.1898 0.196 0.284 0.939 13 11 12 0 0
0.4129 -0.1314 -13.1937 0.173 0.236 0.956 9 7 8 0 0
0.6102 -0.1981 -13.6395 0.376 -0.257 0.890 136 70 36 0 0
1.7360 -0.3148 -13.7393 0.543 0.079 0.836 111 36 16 0 0
1.8623 -0.3330 -13.7985 0.706 -0.040 0.707 128 48 27 0 0
1.8855 -0.3367 -13.8125 0.390 -0.387 0.836 130 50 26 0 0
2.3597 -0.3803 -13.8034 0.804 0.086 0.589 156 71 42 0 0
3.0161 -0.4626 -13.9932 0.750 0.298 0.590 132 83 52 0 0
3.0385 -0.4661 -14.0062 0.631 0.476 0.613 141 86 56 0 0
3.0576 -0.4697 -14.0230 0.631 0.476 0.613 151 91 58 0 0
3.0776 -0.4733 -14.0388 0.725 0.298 0.620 149 84 52 0 0
3.0943 -0.4770 -14.0585 0.654 0.378 0.656 141 72 43 0 0
3.1038 -0.4809 -14.0866 0.677 0.350 0.648 115 48 23 0 0
3.2470 -0.5632 -14.7235 0.759 0.579 0.298 122 81 49 0 0
3.2581 -0.5673 -14.7513 0.814 0.459 0.354 114 68 34 0 0
3.2714 -0.5712 -14.7765 0.814 0.459 0.354 98 47 20 0 0
3.2055 -0.6683 -15.7320 0.616 0.580 0.533 46 20 17 0 0
3.7133 -0.6852 -15.4469 0.035 0.305 0.952 7 3 2 0 0
4.3759 -0.6999 -15.0055 0.039 -0.372 0.927 115 65 50 0 0
4.7321 -0.7296 -14.9712 0.242 -0.089 0.966 95 42 28 0 0
4.7462 -0.7335 -14.9943 0.364 -0.450 0.815 95 39 25 0 0
4.8811 -0.7821 -15.3267 0.834 -0.551 -0.004 77 23 11 0 0
4.8342 -0.8407 -15.9099 -0.524 0.084 0.847 83 50 43 0 0
4.8860 -0.8418 -15.8753 -0.396 -0.274 0.876 83 52 45 0 0
4.9155 -0.9131 -16.5092 -0.003 -0.805 0.594 102 97 93 0 0
5.1050 -0.9400 -16.5941 0.550 -0.664 0.506 150 146 145 0 0
5.0655 -0.9491 -16.7121 -0.018 0.223 0.975 156 152 151 0 0
5.1040 -0.9511 -16.6975 -0.096 0.046 0.994 158 157 155 0 0
5.1140 -0.9557 -16.7314 0.690 -0.646 0.325 162 161 159 0 0
5.1918 -0.9541 -16.6489 0.604 -0.700 0.381 167 166 164 0 0
5.4372 -0.9753 -16.6310 0.373 -0.426 0.824 192 192 192 0 0
-2.5147 0.1823 -12.5632 -0.047 -0.212 0.976 102 45 33 0 0
-2.3936 0.1765 -12.5126 0.295 -0.300 0.907 103 43 32 0 0
-0.7477 0.0209 -12.5352 0.316 0.076 0.946 120 42 22 0 0
-0.2173 -0.0426 -12.6642 0.945 0.002 0.326 125 43 21 0 0
-0.0930 -0.0543 -12.6660 0.555 -0.271 0.786 132 51 27 0 0
0.1379 -0.1006 -12.8925 0.650 -0.680 0.339 141 70 48 0 0
0.2677 -0.1082 -12.8516 0.383 -0.400 0.833 114 36 14 0 0
0.2069 -0.1121 -12.9395 0.389 -0.418 0.821 100 22 2 0 0
0.2708 -0.1432 -13.1704 0.489 0.197 0.850 33 28 28 0 0
0.3050 -0.1471 -13.1763 0.196 0.284 0.939 9 7 7 0 0
0.3397 -0.1509 -13.1816 0.126 0.385 0.914 9 7 8 0 0
0.3866 -0.1546 -13.1760 0.113 0.752 0.649 8 6 7 0 0
0.5770 -0.2217 -13.6279 0.254 -0.097 0.962 144 87 47 0 0
0.5996 -0.2255 -13.6443 0.189 -0.120 0.975 138 64 29 0 0
1.0235 -0.2618 -13.6154 0.313 -0.463 0.829 128 59 30 0 0
1.0552 -0.2655 -13.6222 0.401 -0.328 0.855 107 33 6 0 0
1.3069 -0.2949 -13.6761 0.334 -0.096 0.938 131 69 42 0 0
1.3404 -0.2985 -13.6805 0.498 -0.171 0.850 116 41 17 0 0
1.5949 -0.3272 -13.7268 0.392 -0.069 0.917 149 61 20 0 0
2.5530 -0.4261 -13.8160 0.893 0.299 0.336 165 87 66 0 0
3.0511 -0.4910 -13.9858 0.739 0.370 0.563 126 76 45 0 0
3.0619 -0.4949 -14.0123 0.797 0.353 0.490 147 92 61 0 0
3.0803 -0.4985 -14.0299 0.725 0.298 0.620 153 91 60 0 0
3.0982 -0.5022 -14.0482 0.627 0.432 0.648 145 77 48 0 0
3.1084 -0.5061 -14.0756 0.671 0.471 0.572 131 59 34 0 0
3.1673 -0.5343 -14.2838 0.982 0.183 0.042 110 61 45 0 0
3.2843 -0.6057 -14.8379 0.879 0.476 0.019 48 10 3 0 0
3.2866 -0.6102 -14.8773 0.836 0.539 0.102 61 25 15 0 0
4.2839 -0.7210 -15.0423 -0.140 -0.539 0.831 53 23 15 0 0
4.7434 -0.7583 -14.9919 0.313 -0.224 0.923 95 39 25 0 0
4.7532 -0.7624 -15.0213 0.653 -0.492 0.576 92 36 21 0 0
4.8695 -0.7979 -15.2474 0.817 -0.445 0.367 80 24 12 0 0
4.9583 -0.8614 -15.7535 -0.571 0.114 0.813 83 53 46 0 0
4.8516 -0.9446 -16.6075 0.037 -0.737 0.675 109 104 100 0 0
4.8324 -0.9518 -16.6897 0.133 -0.686 0.715 110 105 102 0 0
5.0945 -0.9669 -16.6042 0.530 -0.514 0.674 152 150 149 0 0
5.1036 -0.9716 -16.6395 0.509 -0.192 0.839 158 156 155 0 0
5.0923 -0.9782 -16.7096 0.039 0.290 0.956 160 160 158 0 0
5.1235 -0.9808 -16.7073 -0.010 0.118 0.993 165 164 162 0 0
5.1662 -0.9824 -16.6852 0.258 -0.319 0.912 168 167 165 0 0
5.4517 -1.0050 -16.6489 0.749 -0.167 0.641 197 197 197 0 0
-0.7490 -0.0067 -12.5316 0.248 -0.332 0.910 120 42 22 0 0
-0.1594 -0.0775 -12.6815 0.783 -0.251 0.570 126 46 22 0 0
0.0684 -0.1044 -12.7358 0.560 -0.664 0.496 128 43 18 0 0
0.1895 -0.1392 -12.9498 0.426 -0.295 0.855 99 20 2 0 0
0.3395 -0.1780 -13.1769 0.153 0.459 0.875 10 8 9 0 0
0.5667 -0.2491 -13.6325 0.231 -0.355 0.906 143 78 36 0 0
0.5760 -0.2532 -13.6612 0.310 -0.380 0.871 138 67 41 0 0
0.9724 -0.2895 -13.6596 0.728 -0.056 0.684 124 52 25 0 0
0.9973 -0.2933 -13.6730 0.584 -0.068 0.809 119 44 18 0 0
1.0262 -0.2970 -13.6826 0.478 0.207 0.854 118 48 26 0 0
1.3004 -0.3217 -13.6773 0.402 -0.185 0.897 122 50 22 0 0
1.3282 -0.3253 -13.6874 0.506 -0.208 0.837 123 51 25 0 0
1.5837 -0.3539 -13.7329 0.352 -0.338 0.873 154 63 29 0 0
2.5576 -0.4516 -13.8055 0.893 0.299 0.336 163 83 63 0 0
3.1258 -0.5135 -13.8929 0.436 -0.326 0.839 147 96 62 0 0
3.0695 -0.5199 -13.9978 0.563 0.107 0.820 137 84 52 0 0
3.0792 -0.5239 -14.0257 0.816 0.178 0.551 147 88 60 0 0
3.0988 -0.5275 -14.0419 0.640 0.199 0.742 145 80 54 0 0
3.1472 -0.5695 -14.3829 0.893 -0.253 0.372 113 65 49 0 0
4.6879 -0.7771 -14.9792 0.725 -0.240 0.645 98 45 31 0 0
4.7332 -0.7836 -15.0003 0.545 -0.151 0.825 96 41 26 0 0
4.7454 -0.7876 -15.0262 0.726 -0.152 0.671 93 37 22 0 0
4.7649 -0.7911 -15.0415 0.627 -0.380 0.680 90 34 19 0 0
4.8008 -0.7982 -15.0764 0.488 -0.325 0.810 90 34 19 0 0
4.8137 -0.8022 -15.1015 0.733 -0.406 0.546 89 33 18 0 0
4.8585 -0.8235 -15.2574 0.914 -0.324 0.246 81 24 12 0 0
4.8528 -0.8289 -15.3111 0.886 -0.445 0.132 78 24 12 0 0
5.0639 -0.8830 -15.6257 0.099 -0.111 0.989 85 58 51 0 0
4.7935 -0.9760 -16.6960 0.084 -0.694 0.715 115 110 107 0 0
4.8178 -0.9794 -16.7062 0.111 -0.544 0.832 117 112 109 0 0
4.8482 -0.9934 -16.8082 0.396 -0.783 0.480 134 128 127 0 0
5.0831 -0.9938 -16.6158 0.530 -0.514 0.674 156 155 153 0 0
5.1020 -0.9976 -16.6343 0.563 -0.470 0.680 159 159 157 0 0
5.1297 -1.0062 -16.6890 0.092 0.295 0.951 166 165 163 0 0
-3.0285 0.1541 -12.7015 -0.305 -0.609 0.733 210 208 206 0 0
-0.7249 -0.0343 -12.5081 0.608 0.409 0.680 118 41 23 0 0
-0.6379 -0.0577 -12.6472 0.946 0.177 0.273 122 40 19 0 0
0.1809 -0.1663 -12.9523 0.532 -0.195 0.824 97 19 3 0 0
0.2066 -0.1860 -13.1088 0.972 -0.019 0.235 22 6 3 0 0
0.3108 -0.2014 -13.1613 0.144 0.297 0.944 10 7 8 0 0
0.3198 -0.2053 -13.1894 0.561 0.221 0.798 11 9 10 0 0
0.2331 -0.2182 -13.3762 0.093 0.046 0.995 22 18 19 0 0
0.7756 -0.2903 -13.5802 0.393 -0.100 0.914 126 70 57 0 0
0.8900 -0.3053 -13.6210 0.611 -0.158 0.776 104 51 30 0 0
0.9699 -0.3165 -13.6567 0.651 -0.087 0.754 115 40 10 0 0
0.9929 -0.3203 -13.6721 0.584 -0.068 0.809 122 46 22 0 0
1.0321 -0.3239 -13.6717 0.343 0.322 0.883 113 41 18 0 0
1.3010 -0.3483 -13.6714 0.656 -0.177 0.734 116 39 14 0 0
1.3374 -0.3518 -13.6730 0.547 -0.382 0.745 119 46 24 0 0
1.4100 -0.3630 -13.7138 0.246 -0.383 0.891 128 79 61 0 0
1.5791 -0.3805 -13.7323 0.302 0.021 0.953 143 55 24 0 0
1.9677 -0.4219 -13.7863 0.602 0.076 0.795 145 69 43 0 0
2.2807 -0.4472 -13.7580 0.737 0.125 0.664 150 61 34 0 0
2.2973 -0.4510 -13.7784 0.643 0.223 0.733 154 64 37 0 0
2.4675 -0.4629 -13.7460 0.591 -0.012 0.807 156 69 41 0 0
3.1167 -0.5390 -13.8980 0.436 -0.326 0.839 157 98 62 0 0
3.0783 -0.5492 -14.0210 0.637 -0.235 0.734 123 71 41 0 0
3.0990 -0.5527 -14.0360 0.620 -0.051 0.783 136 77 48 0 0
3.1419 -0.5598 -14.0639 0.363 0.226 0.904 144 79 50 0 0
3.1660 -0.5632 -14.0748 0.451 0.341 0.825 127 61 34 0 0
4.8586 -0.8382 -15.1609 0.793 -0.147 0.591 83 27 14 0 0
5.0792 -0.9118 -15.6411 0.323 0.211 0.922 87 61 58 0 0
4.7919 -1.0081 -16.7416 -0.054 -0.311 0.949 125 119 119 0 0
4.8332 -1.0155 -16.7746 0.240 -0.142 0.960 131 127 126 0 0
5.0925 -1.0245 -16.6427 0.620 -0.305 0.723 161 160 158 0 0
5.3030 -1.0317 -16.5356 -0.207 -0.299 0.932 178 177 175 0 0
5.3445 -1.0332 -16.5146 -0.396 -0.018 0.918 180 178 179 0 0
-0.6969 -0.0696 -12.5506 0.739 0.111 0.665 118 40 20 0 0
-0.6784 -0.0735 -12.5705 0.762 0.126 0.636 119 39 20 0 0
-0.6392 -0.0852 -12.6435 0.851 -0.146 0.504 121 39 18 0 0
0.1235 -0.1857 -12.9259 0.143 -0.194 0.970 110 33 12 0 0
0.1805 -0.1933 -12.9479 0.511 -0.073 0.857 92 18 4 0 0
0.5756 -0.3080 -13.6512 0.323 -0.041 0.946 131 62 36 0 0
0.8872 -0.3324 -13.6185 0.433 -0.501 0.749 108 51 31 0 0
0.9103 -0.3362 -13.6338 0.412 -0.159 0.897 108 43 17 0 0
0.9672 -0.3436 -13.6541 0.719 -0.166 0.674 114 40 14 0 0
0.9690 -0.3478 -13.6900 0.355 0.258 0.899 116 42 23 0 0
1.0189 -0.3511 -13.6793 0.486 0.263 0.833 120 48 26 0 0
1.2840 -0.3754 -13.6830 0.532 0.131 0.837 115 36 17 0 0
1.3276 -0.3787 -13.6774 0.580 -0.433 0.690 121 48 32 0 0
2.1204 -0.4650 -13.8100 0.236 0.385 0.892 145 61 34 0 0
2.3190 -0.4804 -13.7877 0.058 0.173 0.983 153 66 38 0 0
2.4644 -0.4886 -13.7441 0.591 -0.012 0.807 154 67 39 0 0
2.4818 -0.4923 -13.7632 0.563 -0.183 0.806 153 66 38 0 0
3.0997 -0.5780 -14.0295 0.782 0.166 0.600 127 76 46 0 0
3.2618 -0.7624 -15.5410 0.431 0.881 0.195 58 19 11 0 0
3.5942 -0.7822 -15.4500 -0.089 0.271 0.958 96 22 5 0 0
4.9717 -0.9044 -15.4331 0.585 -0.323 0.744 82 42 34 0 0
5.0209 -0.9366 -15.6799 0.362 -0.045 0.931 87 59 55 0 0
4.7616 -1.0373 -16.7841 0.017 -0.665 0.747 131 126 127 0 0
4.7952 -1.0398 -16.7792 -0.186 -0.196 0.963 135 130 130 0 0
4.8049 -1.0446 -16.8141 0.238 -0.221 0.946 137 135 133 0 0
4.8480 -1.0461 -16.7930 -0.205 0.125 0.971 140 138 138 0 0
5.0612 -1.0478 -16.6375 0.353 0.216 0.911 160 159 157 0 0
5.0828 -1.0513 -16.6516 0.676 -0.339 0.654 165 164 162 0 0
-3.1267 0.0952 -12.7602 -0.294 -0.477 0.828 212 213 213 0 0
-2.9343 0.0851 -12.6978 -0.294 -0.477 0.828 209 210 211 0 0
-1.6400 -0.0084 -12.5050 0.183 0.172 0.968 113 44 28 0 0
-0.6996 -0.0971 -12.5481 0.703 -0.065 0.708 117 39 19 0 0
-0.6928 -0.1010 -12.5773 0.749 -0.272 0.604 119 39 19 0 0
-0.6750 -0.1049 -12.5979 0.782 -0.260 0.567 121 40 19 0 0
0.1781 -0.2204 -12.9451 0.522 -0.250 0.816 86 17 5 0 0
0.3155 -0.2887 -13.4392 0.969 0.166 -0.185 13 9 8 0 0
0.8719 -0.3597 -13.6279 0.433 -0.501 0.749 118 58 38 0 0
0.8978 -0.3634 -13.6406 0.421 -0.223 0.879 114 49 21 0 0
0.9314 -0.3670 -13.6458 0.373 0.071 0.925 115 45 16 0 0
1.0214 -0.3780 -13.6716 0.392 0.265 0.881 129 61 35 0 0
2.0921 -0.4833 -13.7585 0.614 0.640 0.462 144 71 47 0 0
2.4647 -0.5185 -13.7765 0.726 -0.032 0.687 152 65 37 0 0
3.1103 -0.6072 -14.0506 0.373 -0.021 0.928 134 81 51 0 0
3.2502 -0.6503 -14.3209 0.834 0.383 0.396 112 64 49 0 0
3.5578 -0.8057 -15.4485 -0.126 0.202 0.971 106 29 5 0 0
3.5903 -0.8086 -15.4489 -0.027 0.065 0.998 92 17 2 0 0
3.6143 -0.8121 -15.4607 0.330 -0.142 0.933 97 24 4 0 0
3.8555 -0.8262 -15.3958 0.531 0.650 0.543 22 3 1 0 0
3.8816 -0.8295 -15.4040 0.373 0.644 0.669 13 1 1 0 0
5.0218 -0.9722 -15.7654 0.525 0.495 0.693 93 72 67 0 0
4.7420 -1.0656 -16.8089 0.017 -0.665 0.747 136 132 132 0 0
4.7541 -1.0702 -16.8398 0.062 -0.171 0.983 140 138 136 0 0
4.7904 -1.0724 -16.8304 0.329 -0.534 0.779 141 140 139 0 0
5.0804 -1.0775 -16.6479 0.519 -0.081 0.851 166 165 163 0 0
-1.6116 -0.0448 -12.5487 0.632 -0.383 0.673 116 47 32 0 0
-0.6721 -0.1324 -12.5909 0.588 -0.474 0.655 119 38 19 0 0
-0.6533 -0.1363 -12.6106 0.578 -0.356 0.734 119 38 18 0 0
-0.6325 -0.1403 -12.6289 0.578 -0.356 0.734 120 38 18 0 0
-0.5864 -0.1481 -12.6616 0.391 -0.364 0.845 119 37 16 0 0
-0.2934 -0.1787 -12.7031 0.452 0.193 0.871 121 39 16 0 0
0.0942 -0.2401 -12.9415 0.224 0.246 0.943 105 24 7 0 0
0.1145 -0.2440 -12.9596 0.300 0.110 0.947 95 17 4 0 0
0.1531 -0.2477 -12.9618 0.337 0.131 0.932 82 15 5 0 0
0.1874 -0.2514 -12.9678 0.863 -0.089 0.497 69 13 4 0 0
0.2055 -0.2552 -12.9878 0.913 -0.219 0.344 66 19 9 0 0
0.8572 -0.3870 -13.6368 0.408 -0.410 0.816 117 56 34 0 0
1.0091 -0.4009 -13.6408 0.293 0.205 0.934 118 47 23 0 0
1.0470 -0.4043 -13.6416 0.438 -0.248 0.864 131 65 36 0 0
1.3045 -0.4326 -13.6899 0.397 -0.507 0.765 148 84 58 0 0
2.1494 -0.5160 -13.7683 0.406 0.298 0.864 150 73 49 0 0
2.2498 -0.5213 -13.7370 0.901 -0.048 0.432 144 59 29 0 0
3.3802 -0.7202 -14.6030 0.899 0.432 0.078 54 11 3 0 0
3.3832 -0.7247 -14.6407 0.816 0.544 0.195 56 12 5 0 0
3.6937 -0.8481 -15.4791 0.209 -0.747 0.631 135 68 32 0 0
4.5672 -0.8902 -15.1737 -0.396 -0.809 0.434 88 42 30 0 0
4.8777 -0.9310 -15.2913 0.833 -0.439 0.336 81 27 15 0 0
4.9672 -0.9862 -15.7041 0.922 0.342 0.182 89 61 55 0 0
4.7522 -1.0968 -16.8352 0.445 -0.468 0.763 144 142 143 0 0
4.7739 -1.1004 -16.8501 0.445 -0.468 0.763 146 144 145 0 0
5.0511 -1.1007 -16.6391 0.683 -0.407 0.607 166 164 165 0 0
5.2019 -1.1195 -16.6869 0.755 -0.607 0.248 182 181 180 0 0
5.2259 -1.1227 -16.6966 0.672 -0.507 0.540 185 183 184 0 0
-2.9576 0.0215 -12.7403 -0.220 -0.625 0.749 212 214 213 0 0
-1.6932 -0.0650 -12.5351 0.153 -0.220 0.963 111 42 27 0 0
-1.6084 -0.0731 -12.5417 0.533 0.079 0.843 113 44 29 0 0
-1.6101 -0.0812 -12.6125 0.767 -0.349 0.538 114 42 27 0 0
-0.6646 -0.1639 -12.6150 0.578 -0.356 0.734 120 39 21 0 0
-0.6251 -0.1717 -12.6531 0.293 -0.298 0.908 119 37 16 0 0
-0.5995 -0.1756 -12.6674 0.391 -0.364 0.845 119 37 16 0 0
0.1199 -0.2710 -12.9501 0.311 -0.133 0.941 91 14 1 0 0
0.1541 -0.2747 -12.9561 0.339 -0.464 0.819 77 12 2 0 0
0.1897 -0.2784 -12.9610 0.680 -0.539 0.496 68 16 6 0 0
0.2467 -0.3192 -13.2709 0.651 -0.493 0.578 21 17 16 0 0
0.8442 -0.4144 -13.6441 0.408 -0.410 0.816 107 43 18 0 0
0.9016 -0.4174 -13.6266 0.139 0.180 0.974 122 52 24 0 0
1.0121 -0.4277 -13.6327 0.246 -0.114 0.963 119 52 29 0 0
1.0421 -0.4313 -13.6412 0.267 -0.137 0.954 139 74 45 0 0
1.2091 -0.4531 -13.7036 0.285 -0.175 0.943 115 37 15 0 0
1.9463 -0.5227 -13.7493 0.368 0.125 0.922 143 62 30 0 0
2.1509 -0.5463 -13.7995 0.940 0.229 0.252 147 69 41 0 0
3.5269 -0.8551 -15.4329 0.318 0.375 0.870 113 46 14 0 0
3.5698 -0.8624 -15.4637 0.746 0.007 0.666 108 27 1 0 0
3.8655 -0.8875 -15.4579 0.214 0.091 0.973 28 5 1 0 0
4.7395 -1.1245 -16.8486 -0.022 -0.260 0.965 146 144 147 0 0
4.7669 -1.1276 -16.8541 0.105 -0.142 0.984 152 150 153 0 0
5.0450 -1.1272 -16.6418 0.747 -0.433 0.505 169 167 168 0 0
5.3578 -1.1336 -16.4607 0.888 -0.283 0.362 188 186 187 0 0
-1.6320 -0.1055 -12.5894 0.398 0.150 0.905 112 42 27 0 0
-1.6372 -0.1096 -12.6282 0.679 0.153 0.718 113 43 27 0 0
-1.6060 -0.1137 -12.6397 0.742 -0.368 0.560 114 42 27 0 0
-0.8996 -0.1725 -12.6218 0.251 -0.703 0.666 118 41 23 0 0
-0.6487 -0.1953 -12.6324 0.530 -0.189 0.827 119 37 17 0 0
-0.6030 -0.2031 -12.6655 0.533 -0.220 0.817 118 36 15 0 0
-0.2740 -0.2329 -12.6779 0.764 0.090 0.639 125 43 19 0 0
-0.2564 -0.2368 -12.6983 0.764 0.090 0.639 121 39 15 0 0
0.0539 -0.2907 -12.9308 0.392 -0.189 0.901 109 32 11 0 0
0.1187 -0.2981 -12.9463 0.613 -0.233 0.755 88 16 3 0 0
0.1382 -0.3020 -12.9650 0.339 -0.464 0.819 72 11 2 0 0
0.2139 -0.3428 -13.2587 0.651 -0.549 0.525 17 14 13 0 0
0.2987 -0.3841 -13.5505 0.535 -0.545 0.645 9 5 6 0 0
0.8281 -0.4419 -13.6542 0.343 -0.342 0.875 110 42 15 0 0
1.0354 -0.4584 -13.6424 0.259 0.100 0.961 139 76 44 0 0
1.6042 -0.5118 -13.6803 0.313 0.361 0.879 145 60 27 0 0
1.9444 -0.5488 -13.7460 0.436 -0.022 0.900 149 65 21 0 0
3.3136 -0.7465 -14.4281 0.125 0.244 0.962 92 35 23 0 0
3.4332 -0.7776 -14.6069 0.680 0.694 0.235 73 22 10 0 0
3.4807 -0.7990 -14.7546 0.763 0.594 0.255 74 24 6 0 0
3.5166 -0.8769 -15.3960 0.624 0.227 0.747 91 41 29 0 0
3.5368 -0.8806 -15.4131 0.631 0.321 0.706 107 43 17 0 0
3.5573 -0.8843 -15.4297 0.631 0.321 0.706 127 51 12 0 0
3.5700 -0.8886 -15.4568 0.764 -0.178 0.620 127 45 6 0 0
4.9678 -1.0472 -15.7829 0.944 -0.310 -0.113 94 74 71 0 0
4.9089 -1.0753 -16.0679 0.974 0.108 -0.200 111 108 108 0 0
4.8630 -1.0914 -16.2390 0.946 0.259 -0.194 119 119 121 0 0
4.7145 -1.1417 -16.7803 -0.427 0.194 0.883 141 139 140 0 0
4.7561 -1.1551 -16.8643 0.206 -0.463 0.862 154 152 155 0 0
4.7821 -1.1583 -16.8722 0.206 -0.463 0.862 159 157 159 0 0
5.0072 -1.1514 -16.6472 0.730 -0.389 0.562 169 167 168 0 0
5.0243 -1.1554 -16.6690 0.852 -0.207 0.480 172 170 171 0 0
-2.5886 -0.0641 -12.6840 -0.323 -0.577 0.750 208 202 201 0 0
-2.2162 -0.0811 -12.5588 -0.238 -0.619 0.749 102 50 38 0 0
-2.1378 -0.0853 -12.5374 -0.238 -0.619 0.749 101 46 34 0 0
-1.7968 -0.1179 -12.5676 0.631 -0.579 0.515 111 41 29 0 0
-1.6325 -0.1340 -12.5852 0.394 0.159 0.905 110 41 26 0 0
-0.8629 -0.1999 -12.5885 0.384 -0.336 0.860 118 41 23 0 0
-0.2708 -0.2601 -12.6705 0.768 0.092 0.633 121 39 15 0 0
-0.2534 -0.2640 -12.6911 0.768 0.092 0.633 125 43 19 0 0
0.0524 -0.3178 -12.9273 0.358 -0.232 0.904 102 23 5 0 0
0.1108 -0.3253 -12.9483 0.613 -0.233 0.755 81 13 2 0 0
0.1730 -0.3623 -13.2172 0.415 -0.537 0.735 10 8 9 0 0
0.1996 -0.3703 -13.2663 0.683 -0.554 0.475 18 14 13 0 0
0.6000 -0.4441 -13.6025 0.650 0.310 0.694 118 51 29 0 0
0.7834 -0.4658 -13.6541 0.251 -0.165 0.954 114 49 27 0 0
0.8123 -0.4694 -13.6641 0.491 -0.238 0.838 111 42 16 0 0
1.0419 -0.4851 -13.6309 0.475 -0.662 0.580 145 84 51 0 0
1.6773 -0.5401 -13.6384 0.552 0.474 0.686 139 57 27 0 0
1.9456 -0.5748 -13.7394 0.557 0.151 0.817 161 85 42 0 0
1.9634 -0.5786 -13.7587 0.788 0.251 0.562 178 112 69 0 0
2.0099 -0.5813 -13.7478 0.314 -0.206 0.927 185 131 105 0 0
3.2994 -0.7117 -13.9216 0.408 0.624 0.667 129 78 47 0 0
3.2722 -0.7317 -14.1114 0.225 0.481 0.847 124 57 27 0 0
3.3551 -0.7694 -14.3710 0.874 0.285 0.394 92 35 22 0 0
3.3595 -0.7739 -14.4061 0.835 0.470 0.285 97 44 31 0 0
3.4806 -0.8196 -14.7068 0.854 0.492 0.167 61 12 3 0 0
3.4947 -0.8236 -14.7305 0.858 0.342 0.383 49 7 2 0 0
3.5090 -0.8276 -14.7540 0.919 0.312 0.240 45 6 3 0 0
3.8895 -0.9374 -15.4111 0.709 0.329 0.623 116 57 24 0 0
3.9074 -0.9413 -15.4308 0.762 0.288 0.581 91 32 10 0 0
4.8656 -1.0996 -16.0819 0.875 -0.404 -0.266 108 103 104 0 0
5.4698 -1.2128 -16.6054 0.821 0.428 0.377 204 204 205 0 0
-2.2874 -0.1101 -12.6053 -0.241 -0.613 0.752 110 65 52 0 0
-2.1918 -0.1142 -12.5716 -0.231 -0.536 0.812 106 52 38 0 0
-2.1144 -0.1182 -12.5508 -0.252 -0.527 0.812 104 48 36 0 0
-2.0347 -0.1222 -12.5280 -0.253 -0.522 0.815 102 45 33 0 0
-1.6729 -0.1625 -12.6107 0.431 0.333 0.839 109 41 25 0 0
-0.6503 -0.2544 -12.6592 0.337 -0.013 0.941 119 37 18 0 0
-0.6234 -0.2583 -12.6725 0.475 -0.203 0.856 120 38 17 0 0
0.0506 -0.3450 -12.9240 0.364 -0.210 0.907 97 17 3 0 0
0.0830 -0.3486 -12.9318 0.720 -0.028 0.694 89 17 3 0 0
0.1106 -0.3524 -12.9436 0.702 -0.120 0.702 73 13 2 0 0
0.1556 -0.3899 -13.2275 0.415 -0.537 0.735 11 10 9 0 0
0.1363 -0.3990 -13.3175 0.223 -0.135 0.965 17 16 15 0 0
0.6037 -0.4712 -13.5939 0.650 0.310 0.694 110 40 23 0 0
0.6268 -0.4750 -13.6097 0.252 0.409 0.877 105 37 20 0 0
1.3948 -0.5450 -13.6544 0.826 0.223 0.517 118 59 36 0 0
1.8473 -0.5868 -13.6849 0.093 0.040 0.995 149 87 40 0 0
2.1332 -0.6203 -13.7641 0.077 0.017 0.997 188 137 110 0 0
3.2764 -0.7566 -14.1006 0.461 0.731 0.503 137 69 38 0 0
3.5013 -0.8487 -14.7159 0.640 0.665 0.385 73 29 18 0 0
3.5307 -0.8566 -14.7620 0.696 0.638 0.329 86 35 16 0 0
3.9266 -0.9655 -15.3974 0.171 -0.706 0.687 132 77 52 0 0
4.6557 -1.0295 -15.4192 0.068 -0.960 0.271 13 4 7 0 0
4.6764 -1.0329 -15.4335 0.199 -0.962 0.188 18 5 7 0 0
4.7938 -1.1916 -16.6847 0.189 0.056 0.980 150 148 151 0 0
4.8416 -1.1922 -16.6559 0.704 -0.194 0.683 157 155 158 0 0
5.2931 -1.2236 -16.6001 0.566 -0.076 0.821 193 193 193 0 0
5.3270 -1.2255 -16.5923 0.404 0.433 0.806 196 195 195 0 0
-2.6347 -0.1273 -12.7428 -0.275 -0.603 0.749 209 211 215 0 0
-2.4536 -0.1354 -12.6845 -0.262 -0.607 0.750 207 201 198 0 0
-2.1842 -0.1473 -12.5965 -0.271 -0.550 0.790 112 57 47 0 0
-1.1987 -0.2335 -12.6310 0.839 0.127 0.530 117 41 22 0 0
-0.7044 -0.2743 -12.6280 0.278 -0.173 0.945 118 40 20 0 0
-0.6646 -0.2821 -12.6659 0.621 -0.514 0.591 120 40 20 0 0
-0.6076 -0.2856 -12.6552 0.509 -0.553 0.660 120 40 18 0 0
-0.5053 -0.2968 -12.6776 0.405 -0.064 0.912 119 35 15 0 0
-0.4586 -0.3003 -12.6747 0.382 0.138 0.914 121 36 16 0 0
-0.3051 -0.3149 -12.6892 0.428 -0.511 0.745 119 34 14 0 0
-0.1985 -0.3300 -12.7412 0.810 0.407 0.421 128 44 19 0 0
-0.1844 -0.3339 -12.7645 0.717 0.460 0.524 124 40 14 0 0
0.0186 -0.3684 -12.9111 0.377 0.100 0.921 103 25 11 0 0
0.0564 -0.3719 -12.9142 0.578 0.020 0.816 95 17 4 0 0
0.0818 -0.3757 -12.9280 0.688 0.058 0.724 89 17 3 0 0
0.1563 -0.4259 -13.2948 0.042 0.256 0.966 20 19 18 0 0
0.1552 -0.4703 -13.6660 0.692 0.566 0.448 9 7 8 0 0
0.4924 -0.4926 -13.6178 0.183 -0.184 0.966 113 38 14 0 0
0.6053 -0.5029 -13.6247 0.016 0.116 0.993 114 46 30 0 0
2.2531 -0.6590 -13.7828 0.177 0.223 0.959 152 77 53 0 0
2.3120 -0.6655 -13.7955 0.627 -0.076 0.776 150 70 48 0 0
2.3822 -0.6713 -13.7958 0.386 -0.497 0.777 148 67 43 0 0
2.4045 -0.6749 -13.8097 0.516 -0.217 0.829 146 63 37 0 0
3.2693 -0.7774 -14.0639 0.649 -0.683 0.335 147 89 57 0 0
3.5200 -0.8728 -14.6860 0.687 0.655 0.315 119 77 50 0 0
3.5436 -0.8812 -14.7391 0.658 0.582 0.477 100 43 8 0 0
3.5611 -0.8850 -14.7585 0.658 0.582 0.477 93 34 5 0 0
3.9302 -0.9963 -15.4303 0.359 -0.701 0.616 164 126 106 0 0
3.9577 -0.9993 -15.4364 0.423 -0.030 0.905 109 59 36 0 0
4.6113 -1.0643 -15.5247 0.199 -0.962 0.188 6 3 5 0 0
4.9129 -1.2465 -16.8341 -0.264 0.315 0.912 176 176 176 0 0
5.3114 -1.2530 -16.6115 0.199 -0.064 0.978 197 197 197 0 0
5.3376 -1.2558 -16.6170 0.199 -0.064 0.978 198 198 200 0 0
-2.1755 -0.1804 -12.6205 -0.226 -0.509 0.831 109 64 56 0 0
-2.0735 -0.1841 -12.5817 -0.234 -0.615 0.753 107 52 41 0 0
-1.9951 -0.1879 -12.5597 -0.210 -0.635 0.743 107 49 38 0 0
-1.6463 -0.2192 -12.5817 0.208 -0.058 0.976 106 39 23 0 0
-1.6012 -0.2273 -12.6177 0.777 0.503 0.380 106 38 22 0 0
