ply
format ascii 1.0
element vertex 709
property float x
property float y
property float z
property uchar diffuse_red
property uchar diffuse_green
property uchar diffuse_blue
end_header
1.5019389404207986 -3.7943289280376424 -16.287383296623602 38 17 13
1.5134382846330816 -3.778472612063652 -16.364063953071504 64 39 35
1.5092514385921216 -3.795080375328781 -16.391122867278725 79 54 50
1.5032964956018822 -3.8153450572073035 -16.41257676491259 63 38 34
1.4937190852613447 -3.8430846968387344 -16.42245926311467 58 34 30
1.4850008605357157 -3.869043068559373 -16.435043978052423 48 30 27
1.48391788194295 -3.879263923167059 -16.472108631301445 66 54 53
1.466074990489141 -3.9240041005810244 -16.455307878136438 39 29 30
1.4872602786564701 -3.9045409621472214 -16.64604644415259 62 46 46
1.5013127567139404 -3.8837853384847367 -16.732755515032103 94 83 79
1.5089231991615715 -3.876305223778469 -16.79879708626842 122 116 112
1.4939228465170182 -3.931544149110546 -16.87411394681853 157 155 158
1.397197296266843 -4.145605258347811 -16.638554678133236 165 163 164
1.4096882877692423 -4.144456036255858 -16.803414640855706 179 178 176
1.2744164626728645 -4.476316105814118 -16.638862015171597 201 201 203
2.6547732496290317 -0.13402054393370033 -13.91801934815968 149 132 127
2.582001400556162 -0.3335316719419561 -13.933156635886235 122 56 40
2.493000427677413 -0.541607066916173 -13.767004119434874 123 58 40
2.477475260966356 -0.5835508888967382 -13.767047234482579 122 57 38
2.4425210682460454 -0.6693357839148844 -13.722687818646158 120 54 36
2.410707704363212 -0.7479712077089733 -13.685186285101668 113 52 37
2.4158404817079715 -0.7432259744945169 -13.732055185866423 112 54 36
2.4028161206221483 -0.7794359318273605 -13.73734655708789 122 59 37
2.3908101860327564 -0.8133365920759834 -13.744907614119 119 50 33
2.379272075960857 -0.8461712386675639 -13.75348447259606 121 48 28
2.366278627527122 -0.8822702259512107 -13.758634651500854 130 60 31
2.3535156599013893 -0.9178359442166109 -13.764243745067464 148 85 57
2.338359074430493 -0.9587698693004976 -13.764213298657538 167 103 80
2.3103566249262544 -1.0285560770410056 -13.73413624854581 131 54 32
2.306820769515662 -1.0433309425247135 -13.760986273961255 126 52 31
2.267447130571261 -1.1385797599629095 -13.703913576013653 130 62 41
2.255970874975145 -1.1711468306609634 -13.71197390184177 120 56 35
2.252937672742922 -1.1847636683306764 -13.739850329011887 135 64 38
2.2417861182298724 -1.2165888534918876 -13.748605399877718 144 68 40
2.22738753298858 -1.255679113595825 -13.749622363237176 187 124 99
2.198310298716793 -1.3276269619628902 -13.715734305291244 131 78 56
2.180401507159159 -1.374521702716799 -13.708131888643265 152 93 73
2.172057090086902 -1.399990172070419 -13.723186739604332 134 67 42
2.1452400819282165 -1.4667642943287822 -13.694085924371432 129 55 31
2.1323086714144086 -1.5024547864720779 -13.697997838707472 129 64 43
2.151969653582383 -1.465317402098921 -13.780075352581372 106 45 27
2.1258919533699565 -1.530368585106637 -13.752382934600217 146 81 50
2.1128474449651806 -1.5662874980154662 -13.755898729808058 143 73 36
2.1009485695751224 -1.5996352357576855 -13.762104239011833 120 45 25
2.090342061670486 -1.6300885649771812 -13.771375249073674 120 45 28
2.079810102658278 -1.6603655721504902 -13.780774976631557 138 71 53
2.0692610597560437 -1.690670562568017 -13.790081354916888 147 89 71
2.0593872456321742 -1.719462369073443 -13.80098459925506 139 84 69
2.049526770915116 -1.7482158958931189 -13.811876288246278 170 120 109
2.0281703430658933 -1.8025239267072362 -13.794512553888847 163 114 103
2.015948668006189 -1.8364946005919398 -13.79943835436071 142 75 61
2.0075086223220615 -1.8620508387221006 -13.81361670543209 152 71 50
2.0000257275319475 -1.8854766578934896 -13.830133434000494 155 75 47
1.9848722397239498 -1.9259202629465397 -13.827625908180675 160 82 55
1.9392190823133426 -2.0817164473087377 -13.994568859861717 177 116 101
1.8987458147439573 -2.1779715019657786 -13.927401855128554 150 79 64
1.9176016488943968 -2.1431972946540867 -14.010447532659281 116 33 11
1.869243263358003 -2.2635896636371946 -13.957870083292978 107 26 11
1.8613144980221277 -2.2879123674588877 -13.972806527678646 103 22 4
1.8623030361019195 -2.2925918840957777 -14.010581483246646 99 36 13
1.8574133821983265 -2.310227014656258 -14.033337681087175 85 19 8
1.8545434322192784 -2.323421905784951 -14.061311856506201 98 21 3
1.8427112276691213 -2.3563297160766457 -14.066181867758763 103 28 4
1.8549093475173846 -2.3364178623157326 -14.133186771728106 101 29 4
1.8576477554268283 -2.3373264174022887 -14.175873493311773 100 33 10
1.8497672583582272 -2.3615652630147075 -14.191049037628508 71 16 2
1.8687266913244056 -2.32691858520295 -14.276188427048982 56 10 2
1.8832686757859824 -2.302019022600449 -14.350097786448833 68 14 3
1.8497475218687711 -2.3824926183778867 -14.298334772805529 85 24 6
1.844622744665983 -2.400707866818963 -14.320808392506446 84 25 5
1.846135996299942 -2.404395873405919 -14.360771858479216 80 24 9
1.8422833303159574 -2.419841417907034 -14.386670703895394 90 40 14
1.8405267832768157 -2.4307097234841963 -14.418144256670992 118 67 31
1.8390211849769926 -2.441040581608557 -14.450339402597443 91 35 8
1.8375130099692738 -2.4513886381604095 -14.482587170612529 77 23 6
1.840163900885842 -2.4526705587303796 -14.525977878408035 75 28 11
1.8421120259871915 -2.455507542728979 -14.567604673149017 55 21 12
1.8440654462057489 -2.458353350329368 -14.609350329895552 36 4 1
1.8461581531783693 -2.4609161175825545 -14.651574956457189 54 15 5
1.8523517550610396 -2.454569593248902 -14.704941069038608 70 29 13
1.855647708953201 -2.4545606587628033 -14.750652551340618 59 16 5
1.8540111114749938 -2.4653044903515138 -14.783151596604885 44 9 3
1.8523719162689316 -2.4760655903851756 -14.815703332006555 36 7 3
1.850068740033911 -2.4882808695476033 -14.846511087538724 27 4 3
1.85631862460325 -2.4819351759938426 -14.900662837040823 24 3 4
1.8597466529653495 -2.48174476401255 -14.94727516143953 33 7 1
1.862687978575833 -2.4826346335131584 -14.992682931665776 33 5 1
1.8647458972784106 -2.4854628194641517 -15.035788761061944 27 4 2
1.866633292814843 -2.4886817865481072 -15.078535720877944 27 6 4
1.872579725931962 -2.4831345810983594 -15.132578650479747 34 15 12
1.8710450284315954 -2.493804831043879 -15.166114177595585 27 7 6
1.875011085803806 -2.4925933245226792 -15.214947814995723 25 7 7
1.8796759855634002 -2.4898982852556957 -15.26585854111112 24 7 4
1.8849627214636335 -2.4858888360640305 -15.318646521585197 22 8 5
1.902400050943716 -2.478146823496406 -15.5209358435215 18 2 2
1.586215862725177 -3.2094177305612943 -14.889874304835448 101 35 19
1.5773499012815009 -3.23564253723094 -14.90157593221154 102 35 19
1.5166189361007198 -3.394499642057264 -14.87492729266758 104 45 30
1.509003186228944 -3.417980923095934 -14.889884663034458 106 48 34
1.5017205290855804 -3.4407465200734935 -14.905787945805077 107 50 33
1.4782115985732862 -3.4981420594680426 -14.874410009690678 108 51 34
1.4514631869485113 -3.569582473474945 -14.870244720744239 109 52 34
1.4525614935218663 -3.5744415840641617 -14.910466635419935 109 52 33
1.394252265845506 -3.734506377842436 -14.923645863322305 119 62 46
1.4272412111647215 -3.671721317774778 -15.058933542904862 101 38 26
1.3999760245306903 -3.7368227724011476 -15.015013747731336 104 50 37
1.359755980592787 -3.8293198673642985 -14.932047542812597 100 56 45
1.3390112199696096 -3.8804753541999943 -14.906972483304969 79 46 36
1.3635533771755106 -3.8357409643438 -15.01776875488736 79 55 48
1.359831212141714 -3.8508730414823837 -15.043868212802584 105 91 85
1.3600600657156297 -3.8576602958857817 -15.081929623372563 46 36 34
1.391148961189478 -3.799280601212759 -15.213481230050114 50 41 40
1.4182252340334076 -3.7494755476987045 -15.333396832747558 19 11 11
1.4278261942238113 -3.736627132789587 -15.40064938185007 23 16 17
1.4505883912785762 -3.6960790133725165 -15.508250697771642 46 45 44
1.47624749407582 -3.649510239199537 -15.62512528171951 46 43 44
1.4904665980802305 -3.6271151193454614 -15.707424136969998 24 20 21
1.4927648746224533 -3.6298565222245864 -15.753420794040949 16 11 12
1.4960030496422485 -3.6306462051341164 -15.802434769141248 16 10 11
1.497013085365773 -3.6361439624750016 -15.84471366291878 20 14 14
1.5004182686505838 -3.636633957284081 -15.894505898849772 39 33 33
1.502062639455115 -3.6408458248366955 -15.938982152678017 48 42 42
1.5041327997511469 -3.644187697572275 -15.984898112307931 42 35 33
1.506849265707623 -3.6461994988208675 -16.03295053893758 35 25 24
1.5199447534533594 -3.6265071401462023 -16.113541645542103 36 25 23
1.5287981838594127 -3.615746283400439 -16.181145675911985 25 14 13
1.5260124389342022 -3.629364074691959 -16.212462429758226 19 7 7
1.5062180755130785 -3.6785279472202603 -16.19034539723919 20 7 7
1.500382667241036 -3.6985084589037616 -16.21202626936222 19 9 7
1.5164547813320959 -3.6727834355748588 -16.30293567032133 19 8 7
1.5084284078672223 -3.6973666563840126 -16.317856002457315 21 9 7
1.5407586653923062 -3.6378655349117217 -16.460877550470197 28 12 9
1.5110371530020554 -3.707665919371191 -16.40700778363646 45 20 18
1.4845120744243891 -3.770746999294917 -16.362978773006216 66 41 37
1.4805292889052237 -3.7869035113235627 -16.390725321396175 67 42 38
1.4758360531967945 -3.804542836920854 -16.41622993476856 59 34 30
1.4677282073740365 -3.8292755955020974 -16.430787769246756 58 33 30
1.4596266366725372 -3.8539899132064814 -16.44533794056227 56 39 37
1.4515298665697771 -3.8786888555069394 -16.45987573358878 76 66 67
1.4434388724902283 -3.9033704040389328 -16.474404316317006 40 31 33
1.426910200858918 -3.945512273504373 -16.46153377062864 51 38 39
1.4510222828555093 -3.903559391748015 -16.580655388825807 58 40 38
1.4706323257902048 -3.8710040094075193 -16.685575704264096 72 57 54
1.4845065973258436 -3.850374143835988 -16.77216011175785 101 93 90
1.4865082289883065 -3.854309825167716 -16.820176676333297 128 123 120
1.4791324552198049 -3.8776108251281 -16.837539025714378 142 140 139
1.4765498315095875 -3.891030790751614 -16.870658932367537 152 150 152
1.4570316188183279 -3.939338190251311 -16.84797368304186 159 157 160
1.3702189680102435 -4.134071341332426 -16.643626673360515 167 165 166
1.318601415516948 -4.304178593592475 -16.801320706547532 198 198 200
1.2225394975914874 -4.5564497574525245 -16.764293526875818 207 207 207
2.6362312297956345 -0.09976664063771423 -13.942903052778178 118 92 85
2.5627551157625605 -0.3014145138964892 -13.956338193490577 122 57 39
2.4707070592539235 -0.5174013745447397 -13.782433170141264 123 57 38
2.4521373940499025 -0.5663733765350338 -13.775463382127116 123 57 36
2.408576078633601 -0.6720343692326267 -13.711108483560501 120 53 36
2.4069011187794365 -0.6826043722423911 -13.742518139347133 113 52 38
2.379224031188774 -0.7521365062318237 -13.71412381502085 122 62 39
2.3741110918251778 -0.770489433639634 -13.737558550969517 158 91 54
2.3668891240535066 -0.7936220453719063 -13.756128408070737 142 68 33
2.3482356958272907 -0.8426325821261607 -13.748177582446825 132 54 25
2.3393057053585897 -0.8696137644996975 -13.762691356696479 135 62 38
2.3278663853558914 -0.9022646303840922 -13.771327307984711 147 81 63
2.31730851186129 -0.9329116364322392 -13.781963990124405 145 73 52
2.295596456840988 -0.9887522199156065 -13.766428241819893 130 51 28
2.2787576983559967 -1.033552887379929 -13.76215670445772 125 54 33
2.243962156839684 -1.1188637813142739 -13.715500180297353 128 60 38
2.233525727891168 -1.1491528978495777 -13.725986576425212 120 55 33
2.23686863527473 -1.1483595187507003 -13.769015657903442 138 65 40
2.2265791528454875 -1.1783142266394195 -13.779833806581223 151 78 49
2.1998815827924556 -1.2452244640930923 -13.751605566048081 166 106 83
2.1723251154433543 -1.3140228652229187 -13.721092265516836 126 74 56
2.1575969923943368 -1.3539022032764532 -13.720970715355518 149 90 72
2.147647157918964 -1.383013877551492 -13.732190694605437 119 50 26
2.1233498125827577 -1.4443749567877715 -13.70892866276014 130 55 26
2.108627859879669 -1.4841774073649638 -13.708493798903195 128 64 42
2.113262169096269 -1.4804852695293977 -13.754647239242319 105 48 28
2.099398898518065 -1.5183433333641752 -13.756201639610289 173 109 70
2.0855722830558747 -1.5561017115104132 -13.75775407930581 174 97 43
2.0736178132120573 -1.5896441254892784 -13.76376491549185 153 72 31
2.0631771544068007 -1.6197801467256117 -13.7733944530853 139 63 29
2.049584671853714 -1.656967609515628 -13.775277114741073 159 99 74
2.038561595067553 -1.6883846166896754 -13.783360396641097 140 84 70
2.02755705094361 -1.7197489777184956 -13.791430994603635 145 91 81
2.0135696941354038 -1.757774441208623 -13.792106509770193 175 127 117
1.992020784567149 -1.8126875465278616 -13.774042857689093 158 99 91
1.9888290134100828 -1.826544307249013 -13.801168531711804 143 70 56
1.9781826488249636 -1.857057211314701 -13.809858534498229 151 70 49
1.9743672008588908 -1.8723111901086993 -13.835461125633906 153 73 46
1.9645620932945822 -1.9009341159849678 -13.8461778786053 156 79 52
1.9213974362149768 -2.0444338855496014 -13.98444990227987 157 78 43
1.8858990991301379 -2.130100166852177 -13.929729184674393 173 114 95
1.9062152043658531 -2.091760319601323 -14.016699899806682 134 61 47
1.88749453072651 -2.1401183412807514 -14.004402680743183 123 40 22
1.8468381211465719 -2.2438717432741297 -13.971095892888162 95 17 2
1.8383396073879024 -2.2694859431929597 -13.98457871407283 107 30 6
1.8333544348875563 -2.2873139374955667 -14.007082540579798 101 40 17
1.8350884053956134 -2.29027289087286 -14.046952275775594 77 10 1
1.8248360530611725 -2.3197659140915734 -14.055890192584549 95 19 3
1.8202716334461544 -2.336673340451952 -14.079536312673833 103 27 4
1.8260874475430005 -2.330647194107792 -14.130204454857022 101 30 5
1.8237711583207317 -2.34260961288176 -14.159816986840475 98 33 11
1.818686748053272 -2.3606912388050123 -14.18224149974316 69 15 3
1.8323661968355942 -2.3373811987333735 -14.253847120182911 58 12 3
1.849775442085032 -2.305895887836704 -14.335501493970746 72 16 4
1.8205896221203575 -2.3771456480554445 -14.294766506637 84 23 7
1.8146951916358436 -2.397042278041816 -14.315214545520709 81 23 4
1.8187910404083505 -2.394949308171368 -14.362098676085258 78 22 4
1.817107499974455 -2.4055957467484914 -14.393785289880295 95 44 18
1.8179660163985925 -2.410663987913069 -14.432287808721407 112 62 25
1.8136669250268365 -2.427083155993598 -14.457134646427319 96 41 11
1.8125377298592658 -2.4365451475367337 -14.490474167735961 88 30 10
1.8140460022437086 -2.440230460004072 -14.530942089415538 76 24 4
1.8154575903334065 -2.444146966398492 -14.571249885028088 69 27 18
1.8218617473349494 -2.437136295820058 -14.625091580732224 44 7 1
1.8249490947187883 -2.437424974803732 -14.670149737371053 84 42 21
1.8247702891631419 -2.444889696685486 -14.706496925052457 107 60 29
1.817547639651231 -2.4677865224650697 -14.723829398798593 84 31 9
1.8192369077546193 -2.4711863474356592 -14.765364162788739 71 22 6
1.8210188313515363 -2.4744035314818484 -14.807255037541124 65 23 11
1.8273687193119663 -2.467660252225138 -14.861723467519212 46 15 9
1.831020958599395 -2.4668395984813545 -14.908974448277709 31 5 1
1.8356390940229357 -2.4639361012721652 -14.95900626175846 51 18 8
1.834193020611461 -2.474287034798431 -14.99250422815243 58 24 14
1.8321795545344683 -2.4858870772253177 -15.024501922003177 39 11 4
1.8340825120508828 -2.48896580687971 -15.067379342720853 33 11 5
1.8334392645712694 -2.497609292975624 -15.103312349499848 26 7 3
1.8681184631090086 -2.4294056437542144 -15.237407026214358 22 6 4
1.8825836139834315 -2.4052671884131183 -15.31578333686144 23 7 7
1.8683604276026666 -2.4435342432044855 -15.314389864525733 24 7 6
1.8859846642498237 -2.4126042497743114 -15.40196884906393 21 6 5
1.9125613456097148 -2.3623021233657795 -15.514972064456167 21 6 4
1.9093599058940411 -2.3766902219236616 -15.544728078273494 19 4 3
1.9061981721093437 -2.3910005768867517 -15.57463942611181 19 3 2
1.8907750746269538 -2.4318888932736744 -15.569967346048148 18 2 2
1.8834048922616498 -2.4553141011721475 -15.587969838564824 17 3 2
1.5533949034499492 -3.219596636968194 -14.91204125574039 101 34 18
1.524255027034973 -3.289545477093025 -14.865180373745176 101 35 19
1.5111038485987984 -3.3249976409612625 -14.864252855274433 102 36 21
1.4981476280739656 -3.3600111985886834 -14.863791844112784 98 39 22
1.4811526016414878 -3.403693860822794 -14.851494158724485 108 54 40
1.4638999590569735 -3.4479008781086087 -14.838292514798018 105 48 38
1.4468813442066768 -3.4915748864148295 -14.825616992106575 103 46 31
1.4666324468470457 -3.4562746364246957 -14.9204444398198 107 49 34
1.4503109366024265 -3.4984431308009025 -14.909763978347161 108 50 34
1.5032830975472944 -3.3919979657856176 -15.102799763917385 108 50 33
1.4827536690542609 -3.4432220010171966 -15.079909083727259 108 51 33
1.389428303733607 -3.6716792627844503 -14.95291920649652 111 54 36
1.3610637279683742 -3.746561630809299 -14.94268540286383 101 41 28
1.3540580509127056 -3.768658792196346 -14.958914882681562 103 51 38
1.355480222013215 -3.7727853723295297 -15.000465857947876 87 44 36
1.3413751454594374 -3.8171883025090256 -15.03268886533644 72 44 34
1.3381405947934366 -3.831261462335055 -15.060337840445452 100 84 78
1.3401303148041093 -3.8342335146998767 -15.103883787755285 41 31 29
1.3687712780110217 -3.7805946208512173 -15.228634057529215 50 42 41
1.3989486436708254 -3.723790279896181 -15.358576371424753 17 9 7
1.4133614079037964 -3.7005429178748663 -15.440853663332783 18 10 10
1.4379243877110426 -3.6558272003126904 -15.554537541277027 38 35 34
1.4660358243039282 -3.6036777578291286 -15.679573228454352 50 48 48
1.4668314899823407 -3.6094781106153464 -15.721001268751358 50 48 51
1.4696428176170935 -3.6110320901788837 -15.76875402879585 42 40 44
1.4720604593857691 -3.6134443416222304 -15.815421962090419 42 40 40
1.4744046829902537 -3.616036334459892 -15.861990078401211 48 44 43
1.484986174221861 -3.6012538021165286 -15.934294797187375 53 45 46
1.4867965805902008 -3.605033340758215 -15.979515742282208 43 37 37
1.4889847483358567 -3.6080391505935214 -16.026037084175336 37 31 30
1.4870498573142834 -3.6197602888731204 -16.05977384174269 32 21 21
1.4852967285195793 -3.6311110054295197 -16.094145992509517 36 24 23
1.478948312228636 -3.652147935855095 -16.11412707542872 20 11 10
1.4819140521604515 -3.65359159846704 -16.163483784267186 19 9 8
1.476644397476143 -3.672373865876006 -16.186943272529117 20 8 8
1.4824539294304393 -3.6678854247321686 -16.24552980383788 19 8 7
1.4967411798062376 -3.64563584491032 -16.331231971418056 19 7 7
1.4948185843431645 -3.6574505015438357 -16.365629150696904 23 9 8
1.4831040137524645 -3.697603254375288 -16.409445207520594 49 24 21
1.4563816451538436 -3.761359007486303 -16.36444134249747 67 43 38
1.4355700789391603 -3.812689947223922 -16.33812704907882 60 35 30
1.4488794895954868 -3.7926526448344955 -16.42155386714049 56 31 27
1.438471170564413 -3.8222169435011804 -16.428662612575184 53 30 25
1.4280785397149172 -3.8517362537577853 -16.435758420104236 53 37 35
1.4192082655103673 -3.878067848830919 -16.44773216698936 47 38 40
1.4153447491910265 -3.8939556339605925 -16.47595693584185 40 30 33
1.4221677608547176 -3.8875917170155763 -16.539075376713676 57 41 39
1.4369241207633412 -3.86475477923035 -16.628337096899422 65 42 37
1.4526184098045423 -3.840030526541053 -16.721003243940366 83 69 63
1.461681921913794 -3.8291540763630616 -16.79223240237312 109 104 100
1.464134136245514 -3.8320550919647367 -16.841933123966253 135 131 128
1.4546499053539292 -3.859755161847233 -16.85237124565883 146 145 144
1.4477745698693558 -3.8820354072362084 -16.871392868665723 153 151 153
1.2859910975758644 -4.304223975354866 -16.787407509401337 199 199 201
2.6036732761483248 -0.09052662380087995 -13.900466664053997 162 150 148
2.6176029032979473 -0.06543875338051919 -13.967828261648531 111 76 68
2.499670145527335 -0.369199496579836 -13.879599892180085 122 57 37
2.4349391190747234 -0.5237959117495867 -13.767155372725052 123 56 37
2.4123266236325174 -0.5821340836164968 -13.750739233527261 124 56 37
2.3941191502045127 -0.630387895348238 -13.744276300965808 122 55 34
2.3804824886602387 -0.6681934680836337 -13.748223822630607 110 51 36
2.350960309508559 -0.7421895535073535 -13.715349105225549 126 66 42
2.3443369881047227 -0.7639692814573236 -13.735300106333625 167 96 56
2.33946409896203 -0.7817626490693401 -13.759316420153498 161 85 37
2.320082654019438 -0.8325797768271208 -13.749545290018496 162 86 37
2.3129085313409345 -0.8555987211854816 -13.768137106328082 166 100 69
2.3017166559926414 -0.8877512117297277 -13.77731176084351 196 134 120
2.2923940682656854 -0.9156448271732227 -13.790818063334655 143 70 48
2.269718619071047 -0.9738636516709116 -13.772869431979181 129 51 27
2.2517962125288102 -1.0212549361774528 -13.765942878122678 131 60 37
2.2266452235412126 -1.0850248213518956 -13.741787780394548 133 66 43
2.2150068234000075 -1.1181031610272543 -13.749444962904123 125 57 33
2.2210312247832174 -1.1111256075367724 -13.799013117249519 139 65 40
2.1967870606469946 -1.1727648346082384 -13.776618492731092 167 96 68
2.1671387122929753 -1.2466041663786305 -13.741107421021564 150 91 71
2.145617148853044 -1.301993957640616 -13.724776844000719 132 79 65
2.1354299804206684 -1.3317034552607119 -13.735467439725834 142 83 66
2.1181515182179 -1.3774415427738953 -13.729051224448341 119 46 23
2.1012364177842695 -1.422333488582109 -13.723380560383188 133 55 27
2.0830388383312135 -1.470098924377134 -13.71448246482374 117 52 33
2.0681458539663202 -1.5103749287133672 -13.713450783696887 117 59 41
2.04727815125097 -1.5641166418029924 -13.697799752091058 147 81 46
2.0357720921167974 -1.5967058697210907 -13.704773719224082 171 91 38
2.0458614107954975 -1.580589669783107 -13.764408440149573 174 91 39
2.0295075292763425 -1.6241045730239323 -13.759519070536221 180 107 61
2.0224073031403877 -1.6467521874089073 -13.777211111556774 183 130 98
2.0115147208339312 -1.6779357496796026 -13.785564689138937 163 113 98
2.001928842553923 -1.706168108975123 -13.797083000915745 143 93 84
1.9900300556433452 -1.7395945951474072 -13.802843446951092 161 109 102
1.9695325703940914 -1.792337380777746 -13.78723006165287 150 86 79
1.960699976916573 -1.8188384572727152 -13.800414561315108 142 66 50
1.948216928119952 -1.8535309711634778 -13.804477490383604 146 66 45
1.9542310194515458 -1.84669207765244 -13.854629477699651 155 74 49
1.9351671195241118 -1.8961397037871137 -13.84218526953472 162 84 60
1.9064285060965416 -2.0006616455901893 -13.981623814082692 156 70 37
1.8684131063084892 -2.0923577636986135 -13.920359128079935 150 68 36
1.8374024375758096 -2.1683303230046125 -13.876569559037968 169 102 83
1.8663579380075817 -2.110351162357916 -13.985835690118467 131 58 40
1.8756982276866399 -2.0962286587632306 -14.045249939955884 113 32 13
1.8369234535070877 -2.1894605564980436 -13.98120012296669 98 19 3
1.8259180331126046 -2.2207100112295137 -13.988283355774687 96 18 3
1.818114112659438 -2.2448146365544543 -14.003573048085817 105 30 3
1.810492055822539 -2.2685101867565143 -14.019311988252776 92 31 9
1.8093793922629584 -2.277714282997837 -14.051924653950897 83 14 3
1.7966337676716173 -2.312807538499336 -14.054336988264682 96 20 3
1.790151857705304 -2.3339588551030976 -14.07299979040734 101 25 3
1.792032322913816 -2.336527415679136 -14.11351839099031 99 27 3
1.804671758894334 -2.315220949918505 -14.1823328074361 97 34 11
1.8017509156058262 -2.3284982538669867 -14.210510361926787 64 12 1
1.807206680947346 -2.323200231204421 -14.26078701879657 59 11 3
1.794900380483396 -2.3573129380084126 -14.264324935166346 76 18 6
1.7945019080684042 -2.365022673992504 -14.299293385916876 86 26 8
1.7897577176811583 -2.382371251493602 -14.322808130508673 78 21 4
1.7937058620894122 -2.3804820709674956 -14.369453850781483 76 23 8
1.7929607706268789 -2.3890006577114775 -14.403720057736702 71 22 6
1.791325042201629 -2.399501797179666 -14.435676402799526 97 53 26
1.7889610806633436 -2.4116233517673615 -14.465740767871742 95 52 28
1.7879957416767318 -2.420665160140639 -14.499609643148288 96 51 30
1.78881486135177 -2.4257807308718498 -14.538349005463164 86 42 23
1.7909154129723202 -2.4280865053486114 -14.580636880651031 64 24 16
1.7968467941323945 -2.4219660204049687 -14.63339370712636 50 9 1
1.7982895575726892 -2.4257672400740065 -14.674140313027795 93 48 25
1.799736059415239 -2.4295792549623183 -14.714997489457105 107 60 30
1.801210501817609 -2.4333488682240407 -14.756031577020572 85 30 8
1.8026421131879737 -2.4372319428032503 -14.797050195611522 75 21 1
1.804100470914953 -2.4410754014492024 -14.838243300456007 71 23 4
1.8061417972167193 -2.443657140395489 -14.881138109156915 52 17 9
1.8058955207166076 -2.451283737805954 -14.917850273181422 41 10 4
1.805202508747445 -2.4599060335142875 -14.95341052080119 91 49 29
1.8036564462153837 -2.47041369829853 -14.986687063240314 88 44 19
1.8043070975838116 -2.476117261254992 -15.02611336069491 67 26 8
1.8034906263749515 -2.4850530394728496 -15.06155743223676 57 22 13
1.8026734696116808 -2.494004215434889 -15.097072923311961 43 16 12
1.8364308245581935 -2.4273006922212357 -15.229159011608807 26 6 4
1.8562305805740047 -2.39122893641417 -15.322736159347132 24 8 7
1.8422376822765998 -2.429095103783342 -15.32189516349272 23 6 6
1.8658287675451433 -2.3848311928915074 -15.426610157849158 21 5 5
1.9058195341133721 -2.3048368688070617 -15.577948076386061 20 4 4
1.9025845801155394 -2.3192868481321547 -15.607809352262905 20 4 4
1.8719862255928896 -2.3934204363334857 -15.56022837584146 19 4 4
1.8770414621301272 -2.3897826405919886 -15.613522248648515 19 3 4
1.8947891326520132 -2.3585273950048427 -15.703089017744606 19 4 3
1.5625630837651758 -3.1245001347342747 -14.980977166669312 100 34 18
1.5003251080069435 -3.27364512648181 -14.875515972208763 101 35 19
1.4856775693065032 -3.312434133087417 -14.870157346147513 98 35 19
1.4785509797653544 -3.3349168182688773 -14.886601058691063 114 59 47
1.4635765821158049 -3.374377322963582 -14.880098763239593 142 91 79
1.446891308688442 -3.4175135958854854 -14.86845945870591 132 75 62
1.4302976666720522 -3.4604233296249802 -14.856938713007263 107 50 37
1.4369863943656478 -3.460089734484968 -14.951091488199863 108 49 34
1.4743897207114522 -3.38649430168074 -15.099092133280593 108 48 33
1.4532251019306257 -3.4392704355790054 -15.07408835093691 108 48 32
1.3957102494580127 -3.570316196943292 -14.940849312356539 108 50 33
1.4228772121796291 -3.5189044626246258 -15.059123357352952 108 51 34
1.4205201787063249 -3.5311072570385083 -15.089715749734008 108 51 34
1.3770741822811872 -3.63167164355346 -14.997374608112132 109 51 34
1.3312800273465866 -3.7442352012761217 -14.934678652736736 102 45 31
1.3297176030515818 -3.7546602644675042 -14.967284707564456 102 52 39
1.3102917123405406 -3.803410339702558 -14.94596892743159 82 39 33
1.3090322401817038 -3.8131857168438517 -14.979490936359381 55 18 12
1.3121465912693622 -3.813605367956983 -15.026363596956454 71 42 32
1.3021163766812935 -3.842187608748442 -15.033356581283552 62 43 36
1.3564036833422768 -3.740375424421565 -15.274572475339252 43 35 34
1.3741052671762128 -3.7097803771257833 -15.366962085303566 16 8 7
1.3951206255765758 -3.6721767738915423 -15.469887198836837 21 14 14
1.4285045920018213 -3.6082591139022737 -15.611319382823558 28 23 23
1.4418758193583152 -3.5871241739562816 -15.69153242740346 41 35 37
1.4469638760107297 -3.583694178740429 -15.74639343599158 52 46 52
1.4511002438118072 -3.582322535003577 -15.79846909964158 51 47 52
1.4562692191717608 -3.5787827539833232 -15.853911130545821 50 48 49
1.4592698744891117 -3.579886327958733 -15.902762339572465 45 39 39
1.463252291850858 -3.5789297328941654 -15.954820537555591 34 25 26
1.4672500960966557 -3.5779695719958484 -16.007080559893193 23 16 16
1.4712636402630481 -3.5770052653976423 -16.059544409147414 33 28 27
1.4652208825818227 -3.597398354284163 -16.080503461453603 32 23 22
1.4659869115417097 -3.6033613807530127 -16.1229533410605 37 26 25
1.447246624961557 -3.6506586702032244 -16.103802800328467 22 12 11
1.4476991144628935 -3.6572977076102084 -16.145323818681 17 7 6
1.450933502768149 -3.658072175311448 -16.195790032529285 18 6 6
1.4520078745129765 -3.663439687379535 -16.2395190157476 18 6 6
1.4694934864268845 -3.6341649094877724 -16.33577842597596 19 7 7
1.4562724848791102 -3.6697728409878794 -16.33408990457102 24 10 9
1.4518372054969044 -3.6945421298008023 -16.401191520133835 53 28 24
1.4313689100005031 -3.745386871372906 -16.375981197506633 59 35 29
1.4229612733652124 -3.7708038476139523 -16.389538843725166 53 28 23
1.419919986683735 -3.7849270377566926 -16.42045282906585 55 30 26
1.408291313798807 -3.8171098255867157 -16.423523892420747 49 26 22
1.3945663504059018 -3.8536799434328826 -16.419686022262585 68 53 51
1.3861107701656474 -3.879167801136412 -16.43293020446915 36 28 29
1.3834883521883032 -3.892414345479919 -16.465224720755366 44 34 35
1.394554010978198 -3.876981994558016 -16.54246818016685 59 42 38
1.4116590781853675 -3.8489521590585616 -16.639840015831805 68 46 41
1.434139627960541 -3.8097417764241275 -16.755296681530012 95 84 78
1.4417979622880308 -3.8016182702049335 -16.82224772651286 115 111 108
1.4416760499628791 -3.8097974821124527 -16.863659220358414 138 134 133
1.4130204897736496 -3.8855063550412634 -16.852249345214723 156 154 155
2.4295335326311402 -0.4539840045404615 -13.785968477723163 123 57 38
2.3668961939231012 -0.6110426731084839 -13.71282899503546 124 56 38
2.37088989801227 -0.6085045986555322 -13.7574781892929 119 55 39
2.334434280832879 -0.698714244359949 -13.708490629824622 105 51 39
2.320527939679609 -0.7371918465702931 -13.711553035240172 113 56 41
2.31858700840725 -0.7482496089473356 -13.742400378035025 130 61 36
2.310930821242457 -0.7723999994873187 -13.759952722073242 149 75 32
2.294666027476069 -0.8162446945017603 -13.757337877406654 169 97 45
2.2865545601239132 -0.8414213474003436 -13.77374179597242 187 126 92
2.2757218285953087 -0.8728147082560733 -13.783723318432926 187 125 110
2.267161993687897 -0.8990051537141523 -13.799012894472254 142 70 48
2.2486654592203266 -0.9478834188144267 -13.790784239249259 128 53 27
2.2332077472168366 -0.9897985966520926 -13.789615549719551 132 63 38
2.2158814328080987 -1.035957045845234 -13.783900223124048 126 60 38
2.196614281152712 -1.086517277026374 -13.773432963328409 135 63 37
2.1949506412155877 -1.0969246697714627 -13.804844344841424 140 65 39
2.167265371928928 -1.1666256174730343 -13.774026090034802 172 105 79
2.1383077627271816 -1.2391765916896968 -13.739902147030216 134 77 58
2.106265302354062 -1.318698534149659 -13.698089335044791 141 87 74
2.109610217800939 -1.3176600539841763 -13.741300625793603 132 71 54
2.0921794258981086 -1.3638826738628653 -13.734405341651353 128 53 26
2.076840817649201 -1.4053254646102715 -13.732446431949537 136 57 32
2.058588679207193 -1.4533661885729057 -13.723301113464721 113 46 30
2.0398294301034396 -1.5025313424985205 -13.712776795224212 112 49 33
2.020065949557548 -1.5539472673068397 -13.699650341797781 118 51 29
2.0096208211362416 -1.5841967224777953 -13.709164384981353 128 53 20
2.0178761136806647 -1.5720411605613505 -13.764502831807985 146 65 26
1.9976108581625267 -1.6245443891708273 -13.749876592441481 178 109 68
1.9765465408466085 -1.678825505743431 -13.733110106903977 171 117 87
1.950097727275953 -1.7452616975160478 -13.702856130767636 161 110 94
1.9775471089751955 -1.689704155438636 -13.80588378055949 152 105 96
1.9688829558398733 -1.715890798849201 -13.81963215724516 157 104 97
1.9538684034097495 -1.7564254044981658 -13.81754009924466 145 78 68
1.927943168662307 -1.8215884782240188 -13.788109929868007 147 68 50
1.91527736754828 -1.8567666072814513 -13.791610468619872 150 69 46
1.918087303586266 -1.8570034468069494 -13.833843518464858 152 72 48
1.9017051995097352 -1.9005521646644192 -13.827935313454311 150 75 53
1.8526084019650342 -2.0507171291139583 -13.915332267234312 143 53 25
1.8186854862839539 -2.133580566164164 -13.863976706907808 163 86 63
1.8092665041063105 -2.1679302700988226 -13.910381895087667 136 59 40
1.8557771351639527 -2.0701691764115955 -14.065572065844417 110 31 11
1.810138971751697 -2.179210404881193 -13.983435393456674 95 18 1
1.8001881257924712 -2.208158240537924 -13.993193684539886 99 21 4
1.7875873330352166 -2.243034204514889 -13.996025803625688 105 32 5
1.7744392899973631 -2.2791202142612974 -13.997351655120047 96 35 15
1.7751450706643939 -2.2841826252390467 -14.034718454551458 95 23 10
1.7667930854287692 -2.30952296745508 -14.048491364672541 100 23 5
1.7621658561381393 -2.326530246848174 -14.071996969328218 102 26 4
1.7592791380743822 -2.3396517249236712 -14.100093749417697 101 29 5
1.7695663458528978 -2.323358687847829 -14.1629256525867 95 32 10
1.7710986251029497 -2.3266474109643926 -14.202855166149472 64 12 2
1.7725630126926597 -2.3301059815595586 -14.242703340203647 60 10 2
1.7716223709128813 -2.3389454566690295 -14.276269092357326 79 20 6
1.7787635047114831 -2.329786855634592 -14.331393889929602 88 27 8
1.7701108407690052 -2.3558384636317298 -14.344587508490404 77 19 6
1.7695640118168856 -2.363839416943062 -14.37940971118153 75 22 10
1.7684418038401943 -2.373134143129467 -14.412763383873868 63 16 3
1.7671231649672303 -2.382877921558827 -14.445655107990438 61 19 7
1.7654637529925419 -2.3933908675936246 -14.477692699072701 59 20 12
1.7641141260142572 -2.403226724750966 -14.510625144010422 54 21 14
1.7651070924393382 -2.4078738172898335 -14.549957445122187 51 20 13
1.7671741115345205 -2.4101554417559923 -14.592296332971692 37 7 5
1.7706349553961958 -2.4093665203361176 -14.63853256051273 45 11 5
1.7691999645048733 -2.4194521238329108 -14.67155628931854 73 33 17
1.7718125558103914 -2.420583832408491 -14.715698594961179 94 55 32
1.770422269265535 -2.4305991106060327 -14.748997925003835 95 52 35
1.7733021592291371 -2.4311782450968424 -14.794081661527976 92 48 30
1.7761005119962945 -2.431960364801249 -14.839062362054843 87 45 28
1.774938564639881 -2.4415176556337874 -14.873241043089756 48 15 8
1.7740872218223442 -2.4504015786882336 -14.908346429087644 43 11 4
1.772163076377865 -2.4616673318148727 -14.94055096776902 94 51 31
1.7725893132145853 -2.4677582544533623 -14.979343446345947 90 44 18
1.769009769105544 -2.482699019321485 -15.007070228159687 71 25 6
1.7712440194367478 -2.484834114513676 -15.051063456214663 63 22 12
1.7704938380281297 -2.4935640426604975 -15.0868200141207 53 22 18
1.8099018874039718 -2.413909096053838 -15.235304918299601 29 7 6
1.8256106941205321 -2.3865085435369613 -15.317768287049214 24 8 7
1.8257466874136827 -2.393404405875957 -15.356634640053759 21 6 6
1.8752538299261934 -2.2918267399513184 -15.535097593545828 21 5 5
1.867006490818861 -2.3172301967476976 -15.55073372670757 20 4 4
1.866539648199729 -2.3255517561643373 -15.58843687274672 20 4 4
1.831074021074385 -2.4106615724093787 -15.526605146249391 23 7 7
1.8392469593271117 -2.4000277203731937 -15.588882068474483 27 9 10
1.8827255772984888 -2.3120765516588007 -15.7523383452214 29 10 10
1.8721790450225306 -2.3425541160821215 -15.761594095080646 35 12 11
1.4763771615736987 -3.2576871263604072 -14.88591310064604 99 33 17
1.4596315648881497 -3.3011634763263507 -14.874318436965568 96 34 16
1.4620169615142091 -3.302945822020324 -14.918628497577629 120 64 55
1.4455641187297523 -3.3457537244409483 -14.907726609745898 135 79 70
1.4296639060722556 -3.3873319014658074 -14.898304162859459 135 74 57
1.4153388344051692 -3.425459593853879 -14.893390311577303 114 56 43
1.4139870961464542 -3.4353793091673097 -14.92674050565186 103 44 29
1.4262804160165437 -3.415684538284733 -15.000624917329732 105 43 28
1.4449324759738598 -3.382240941386568 -15.093675947063646 105 43 28
1.392394444872982 -3.5032449790730293 -14.974930700182579 107 45 30
1.39404283785462 -3.5066893974487083 -15.017385807412055 107 48 32
1.3748783326308707 -3.555232800633142 -14.997627689157586 108 49 33
1.3683057130092715 -3.576485197293443 -15.015477032856815 107 49 33
1.310255115873036 -3.730052573441692 -14.990534234475946 101 53 41
1.2849089921080528 -3.7917618483556925 -14.951073736316296 81 39 34
1.2986948295481917 -3.769036079086743 -15.030505864195725 56 19 13
1.3552228674491593 -3.6756998701772305 -15.355407829650968 41 31 33
1.3684663842948033 -3.6544152095127016 -15.434641439209702 16 7 8
1.396613852500649 -3.601170020563508 -15.560214561034076 19 13 14
1.4043312063230098 -3.591876610790119 -15.623019067029883 22 15 17
1.409720016265164 -3.587617259136202 -15.678801071821393 29 20 21
1.418366174706446 -3.5764070151940324 -15.744894177049702 34 24 25
1.4280519685658972 -3.563011043420402 -15.814453468606338 34 25 26
1.4346737061700763 -3.556220026283227 -15.87466937563238 30 21 22
1.4391897237511964 -3.553970670598975 -15.928477679987468 21 12 13
1.4397081041042696 -3.5602994790815288 -15.969885898990455 15 7 7
1.4482175227879985 -3.5495722785087107 -16.036569104676524 15 7 8
1.4455919062540659 -3.5626644162630914 -16.068315572301714 20 14 14
1.4056713047553753 -3.655352274513737 -15.98206688307138 32 26 24
1.4134329028407244 -3.6462610137570746 -16.04659765808227 35 27 25
1.4182384234461283 -3.6435094495230382 -16.101940501136053 28 19 17
1.4188047128607506 -3.6498176625715884 -16.143937031832667 16 6 5
1.424302625167866 -3.645649979377911 -16.201799952780064 17 5 5
1.4194461491775774 -3.663537583712011 -16.226671920355408 17 5 5
1.4510062225709652 -3.6040324379386472 -16.368515228018993 19 7 7
1.42970355237887 -3.656910650830869 -16.34077010789183 24 9 9
1.4138545873004114 -3.7134222466661964 -16.411968741952077 53 26 21
1.391550369910201 -3.76831709086517 -16.380408284966098 50 24 20
1.3862304650849755 -3.7872164624580833 -16.40393549779592 50 28 24
1.3728939360563948 -3.8230746824144743 -16.401295025001325 55 36 33
1.3611468596263403 -3.8555526230455106 -16.403747302931656 48 36 35
1.3551392550052304 -3.875891777285714 -16.42494941079422 39 30 30
1.3817805255053692 -3.8273206561188022 -16.553563609685554 49 39 36
1.3912566567417528 -3.8150517683048184 -16.626094614633093 60 43 37
1.3981118183245176 -3.80835410036003 -16.690212921847543 77 60 55
1.390257591615551 -3.8326768171423913 -16.705799748477627 102 95 91
1.4191465267975971 -3.7796612503237084 -16.843410947419265 127 123 122
-0.42896859195040404 -8.74965962439207 -16.48248306285891 219 219 219
-0.43103558258424246 -8.761412337362922 -16.515209638373058 219 219 219
-0.4336772033217293 -8.774203566851588 -16.545113320283537 218 218 218
-0.43588209428907776 -8.786230306243631 -16.577295113318268 218 218 218
2.376625753733758 -0.49997725318620745 -13.731190609268044 123 58 37
2.336682855998424 -0.5987149064873734 -13.674424954249178 124 58 36
2.355551803049469 -0.5617179581730669 -13.753554016975434 124 56 39
2.338246256808735 -0.6081812612639519 -13.748940965502637 116 55 40
2.307579823668948 -0.6854129427038336 -13.713087449178072 112 54 38
2.2940128393745587 -0.7232035103240051 -13.71687255526399 118 57 40
2.2947480595096854 -0.7280482527202645 -13.754046430566081 119 52 36
2.276308746330814 -0.7770364553207969 -13.746315928025105 122 52 28
2.2693062892772433 -0.799690227808969 -13.765344233825648 145 70 38
2.2615677922660966 -0.8240349366897233 -13.782629470565515 167 100 73
2.252076348070056 -0.8524052212510274 -13.795755045363581 173 107 87
2.242466507239353 -0.8810406795137391 -13.808563230053034 130 58 33
2.2245005403055247 -0.9288547793831663 -13.801483714443084 127 55 30
2.2194966334248125 -0.9468967503704198 -13.825134052616349 128 61 39
2.201585275003807 -0.9945491376687379 -13.817987231939163 120 53 32
2.1817421193345563 -1.046605392772289 -13.80608047784514 140 64 36
2.1575963884760085 -1.108492098760948 -13.783691422577794 148 74 47
2.1359568888469034 -1.1645990845377545 -13.767117992948442 169 104 79
2.104636001562129 -1.242837521073139 -13.727020739687067 127 71 53
2.071905222568473 -1.3242472206670728 -13.683217255649065 134 80 66
2.05418691016175 -1.3712611863173532 -13.675470503492486 125 63 44
2.06078156521701 -1.3626665772840667 -13.726638648510567 132 59 28
2.05022328465652 -1.3932955549289394 -13.73619549234037 132 56 31
2.0219202783949086 -1.4644427736630412 -13.702387673362313 115 49 28
2.0074799570418937 -1.5038947867312524 -13.702234124312831 124 60 32
1.9919961912704554 -1.5457092694202528 -13.6994214483867 117 51 25
1.9825078567705752 -1.5738298195129294 -13.711238820494714 112 42 20
1.985049682518223 -1.5745204325009512 -13.752670786368713 128 51 28
1.9684873317781744 -1.6187567569751833 -13.746999941764859 144 74 50
1.9426520286160038 -1.6840864714425017 -13.718231602333558 142 80 61
1.9249288764532797 -1.730907753163426 -13.709368168559452 140 79 68
1.9504523506546672 -1.6793175160360834 -13.808022261359055 181 130 122
1.9430628641058378 -1.7026381056881803 -13.82492836120485 149 95 89
1.9288253134642397 -1.741519669057359 -13.824687677032008 140 71 58
1.9051989321313199 -1.8017104539507498 -13.80080186445613 149 68 49
1.9032454989064134 -1.8126541596295933 -13.831186658038197 152 69 44
1.8836890387312701 -1.8635541256352992 -13.817260087792258 150 69 45
1.875475298397142 -1.8886962546953905 -13.831823462220292 153 79 57
1.8301826094866533 -2.0238913602482613 -13.893446923727238 172 111 90
1.860993755319482 -1.9607542017644466 -14.007880590199289 158 65 28
1.780744608598689 -2.174818734382792 -13.978925306645985 98 23 3
1.7647969569300526 -2.2173316638341403 -13.973022428577698 100 22 3
1.7544215820007658 -2.2472665919180193 -13.98152732300085 106 33 7
1.7491507689994887 -2.2656963792606595 -14.003323462757315 86 24 8
1.7462633534201195 -2.2787636810482024 -14.031376675598768 92 18 5
1.7422707492862224 -2.2943247136607816 -14.056567131556083 101 25 5
1.7321167100409691 -2.3237438677185427 -14.065556653274234 102 26 5
1.7314330470648882 -2.331871730521338 -14.099497587353573 99 27 4
1.735992569452602 -2.3282363118884444 -14.147385192653518 94 30 10
1.7393227283406385 -2.327385967047605 -14.192148893771668 65 10 2
1.7447449287167682 -2.3218644670950086 -14.24259891636068 60 9 2
1.7422043648726064 -2.334226317672175 -14.271969121068675 79 21 7
1.7469351091623335 -2.330300311774187 -14.32081952084815 86 27 8
1.741231851728158 -2.3497725724213483 -14.34185728485934 79 22 8
1.7406350167039824 -2.3578136716274223 -14.37661506839521 76 21 6
1.7400375326912723 -2.3658696224297273 -14.41144376975225 93 42 18
1.7348617855924788 -2.384177707040955 -14.4339894254231 86 35 10
1.740784316989169 -2.377681776617518 -14.48657335082427 69 18 5
1.7382371209119893 -2.3901360899552033 -14.516346646901512 55 13 2
1.7397148516802023 -2.3936126976030367 -14.55711008184073 46 11 4
1.7422573241866137 -2.3947320331696655 -14.600876597913707 39 6 3
1.7455737602200498 -2.3941465868766194 -14.646873378824111 48 11 6
1.746180093862783 -2.399625417565086 -14.685574956949706 56 14 4
1.743996960357777 -2.4113354083216345 -14.716709624743652 53 18 5
1.7459334211103574 -2.4138827153285254 -14.759234897168138 50 16 11
1.7489472158074877 -2.4140527243974006 -14.804841350883578 50 17 12
1.751994537136599 -2.4141710445014093 -14.850664583353497 48 17 11
1.7515892621645985 -2.421987053146875 -14.887041896493013 31 7 3
1.749390105876382 -2.43380290547523 -14.91851308690841 39 14 8
1.7500196139590323 -2.439348167765832 -14.957918522795143 77 41 30
1.7472896518522425 -2.4523657066335964 -14.988036379876618 81 46 33
1.7430116930562618 -2.4688253425249345 -15.013869102813333 67 32 22
1.7385512049785246 -2.4856945607385477 -15.039216690395609 67 36 28
1.7473600841646244 -2.4731719650740125 -15.101912916686345 50 25 21
1.784266186756161 -2.3984775238689267 -15.244039305514232 28 9 7
1.8001062887378911 -2.370507749304977 -15.327215055647287 23 7 6
1.7939741287969644 -2.391187188906648 -15.348440156951156 22 5 5
1.8347466549688614 -2.3081941404382613 -15.502889359574027 20 4 4
1.8324031549815765 -2.3205652099843688 -15.535231356597556 21 5 5
1.8251581454954908 -2.3437679368337374 -15.55364039851861 25 8 8
1.8328849457556118 -2.3339337712618535 -15.614872359817486 36 18 18
1.8257322065018178 -2.3569479688595507 -15.633627067246849 45 21 20
1.8364539709140983 -2.340566714325936 -15.703759490930048 49 23 20
1.8253454800844098 -2.3723131977882908 -15.711218786586773 52 24 20
1.8144993541699994 -2.403470111156296 -15.719370840007954 62 21 14
1.7858837385915936 -2.4737090141129956 -15.676002277399226 95 30 14
1.4523946240413186 -3.2417069772909635 -14.89632418644927 99 33 17
1.4353537913626113 -3.2859739701407236 -14.883725369549827 98 34 16
1.4444571694555732 -3.2729330003130777 -14.947976888489311 99 45 30
1.4268591848509715 -3.318396572185507 -14.933606415559666 144 94 80
1.4128307284710657 -3.3560186763491213 -14.92963585740385 135 80 64
1.3979026082938286 -3.395587189263966 -14.922881661552573 109 51 35
1.3960259461129318 -3.4066068362971134 -14.954816542621094 97 37 20
1.4097398612590613 -3.3835834617195637 -15.033292361904035 102 41 23
1.4154937502599405 -3.3779890199689753 -15.088264654309349 101 39 23
1.3650853531123341 -3.501888763618231 -15.01278456799632 108 46 31
1.3481664876255242 -3.5457085303478264 -14.999568811045378 108 47 32
1.2944381489704895 -3.697320072789063 -15.025146076843473 100 53 41
1.2627217897962082 -3.7731271389017005 -14.965999985539348 77 36 30
1.2858086939464526 -3.729971513776741 -15.074268763165566 56 19 14
1.3418160793791498 -3.6367849283529408 -15.399320460341206 41 31 33
1.3504975458688502 -3.625132041459997 -15.464844009893284 15 7 8
1.3791059097768188 -3.570454242979796 -15.592492865475396 16 10 12
1.388990080253598 -3.5563133134540585 -15.662355846663392 24 14 18
1.3868753772197895 -3.5681154918103006 -15.695005042473142 49 39 39
1.407769283100303 -3.5302989744032747 -15.799712951693689 47 33 31
1.4100354560965804 -3.5327124361876328 -15.84640091177187 39 23 22
1.415347414841266 -3.528588333354409 -15.902794499007133 27 12 13
1.4190123808198623 -3.528042275303788 -15.95417241557297 17 7 8
1.4226913891609585 -3.5274938565101035 -16.005745731106703 13 7 7
1.426384304986496 -3.526943526252067 -16.057514882254605 14 6 7
1.412097079571492 -3.565053240304797 -16.052351951401228 13 7 7
1.3685195455488257 -3.6660315324311297 -15.953847772855406 18 14 11
1.3704443604516436 -3.6692671196060234 -15.999932917039402 27 22 18
1.3770985810499137 -3.662384491900503 -16.06126828812774 32 23 22
1.3907721395732509 -3.6404968870409933 -16.14530502857971 23 13 12
1.3999323039131888 -3.6283315531857925 -16.21514706821188 18 6 6
1.4059711630795748 -3.622890159586751 -16.27517449458687 18 6 6
1.4116982948962653 -3.618150849430191 -16.334387442859935 19 7 7
1.3933010300404147 -3.665003803949843 -16.31570093400729 24 10 10
1.3821816604143105 -3.6962783552280545 -16.320439647041404 38 19 17
1.3730178104998838 -3.7233653458185128 -16.331463050964715 49 24 20
1.386093039679933 -3.703012211743159 -16.414949997762296 49 23 19
1.3608563301065237 -3.764371860997156 -16.373527150442108 47 23 20
1.350223893729328 -3.794570676888581 -16.379651745968303 43 24 20
1.338593795494572 -3.826880249437309 -16.382430978414003 39 27 24
1.331996855661523 -3.8484687652310186 -16.401694865225352 30 22 21
1.3364708756191879 -3.8465249942654687 -16.45748855439733 44 32 33
1.3601650829116736 -3.8037886555915037 -16.577035395232613 56 39 36
1.367688096744227 -3.7954650622073896 -16.643437712698628 65 46 40
1.3811826111385541 -3.7745164782351672 -16.729912134299482 89 75 71
1.3629228387961594 -3.8209327872603556 -16.710896252680115 109 104 102
1.3387248646551788 -3.8798914323997478 -16.671853741309445 132 128 130
1.356444637575397 -3.8733300421806725 -16.898996312263353 163 161 162
1.2188596792835857 -4.2251215388582954 -16.766835520719614 196 196 198
-0.43919037639634984 -8.71048144750774 -16.50758874246607 219 219 219
-0.44387769090780904 -8.72691857299094 -16.527230015448144 218 218 218
-0.44558560480807885 -8.738000804659116 -16.562006265349254 219 219 219
-0.4500768648524063 -8.754098080590975 -16.582711367501688 214 214 214
-0.4528448069711495 -8.767108310972631 -16.61222647414428 216 216 216
-0.4492294620655559 -8.768697923005284 -16.674450406985372 218 218 218
