ply
format ascii 1.0
element vertex 838
property float x
property float y
property float z
property float nx
property float ny
property float nz
property uchar diffuse_red
property uchar diffuse_green
property uchar diffuse_blue
property uchar class
property uchar detection
end_header
-2.9802 0.5573 -12.4977 -0.213 0.258 0.942 109 47 32 0 0
-3.0099 0.5717 -12.5056 -0.403 0.528 0.747 108 47 33 0 0
-3.5524 0.8344 -12.5149 -0.149 0.130 0.980 105 43 30 0 0
-3.5822 0.8488 -12.5213 -0.149 0.130 0.980 107 43 31 0 0
-3.6282 0.8710 -12.5106 -0.147 -0.165 0.975 108 44 30 0 0
-3.6951 0.9034 -12.5152 -0.147 -0.165 0.975 113 45 33 0 0
-3.7305 0.9206 -12.5152 -0.246 -0.182 0.952 116 44 30 0 0
-4.8638 1.5197 -16.9502 -0.885 0.277 0.375 92 83 79 0 0
2.6002 -2.0891 -13.7698 -0.028 -0.011 1.000 135 66 34 0 0
-1.9340 0.0840 -12.5457 -0.374 -0.298 0.878 109 45 33 0 0
-3.2759 0.7309 -12.4875 -0.568 0.431 0.701 107 48 34 0 0
-3.3145 0.7500 -12.5229 -0.315 0.506 0.803 107 48 34 0 0
-3.4102 0.7964 -12.5371 -0.336 -0.329 0.883 106 44 31 0 0
-3.5027 0.8408 -12.5165 -0.404 -0.440 0.802 106 42 29 0 0
-3.5346 0.8562 -12.5207 -0.254 -0.007 0.967 107 41 29 0 0
-4.7496 1.4737 -14.9890 0.368 0.185 0.911 75 28 20 0 0
-4.8523 1.5220 -14.8927 0.268 0.892 0.364 72 25 17 0 0
-5.2679 1.7472 -16.8526 -0.380 -0.405 0.832 169 169 167 0 0
-5.3376 1.7801 -16.7913 -0.074 0.497 0.865 172 172 171 0 0
3.5896 -2.5211 -14.1120 -0.318 0.939 0.133 188 180 173 0 0
2.5616 -2.0309 -13.7706 -0.038 0.068 0.997 144 78 46 0 0
1.7307 -1.6311 -13.7569 -0.561 -0.059 0.826 110 45 34 0 0
1.2251 -1.3881 -13.7255 0.105 0.166 0.981 119 54 36 0 0
-0.8327 -0.4124 -12.6386 -0.093 -0.276 0.957 113 51 40 0 0
-3.2237 0.7360 -12.4532 -0.213 0.126 0.969 109 48 35 0 0
-3.2623 0.7551 -12.4888 -0.474 0.399 0.785 109 47 34 0 0
-3.3063 0.7762 -12.4814 -0.279 0.380 0.882 109 48 35 0 0
-3.3380 0.7920 -12.5238 -0.668 0.137 0.731 111 49 36 0 0
-3.7453 0.9879 -12.5115 -0.353 -0.118 0.928 111 44 32 0 0
-3.8128 1.0204 -12.5146 -0.098 -0.128 0.987 109 41 25 0 0
-3.9134 1.0689 -12.5193 -0.379 -0.183 0.907 115 43 25 0 0
-4.8533 1.5817 -16.9250 -0.910 -0.130 0.393 88 79 76 0 0
1.5865 -1.5235 -13.7550 -0.512 -0.137 0.848 113 48 34 0 0
1.5549 -1.5080 -13.7716 -0.512 -0.137 0.848 115 49 34 0 0
1.2355 -1.3554 -13.7215 -0.266 -0.241 0.933 122 55 38 0 0
1.1344 -1.3069 -13.7220 -0.198 -0.278 0.940 122 55 38 0 0
1.0805 -1.2810 -13.7193 -0.288 -0.116 0.951 120 53 36 0 0
-0.8606 -0.3656 -12.6028 -0.238 0.100 0.966 113 51 40 0 0
-1.9132 0.1382 -12.5030 -0.245 -0.504 0.828 111 47 35 0 0
-2.9772 0.6490 -12.5009 -0.264 0.223 0.939 108 44 32 0 0
-3.6999 0.9961 -12.5093 -0.215 0.492 0.844 111 45 31 0 0
-3.7233 1.0076 -12.5219 -0.215 0.492 0.844 111 44 30 0 0
-3.9349 1.1091 -12.5207 -0.273 -0.157 0.949 113 41 26 0 0
-4.6675 1.4979 -15.0220 0.194 0.037 0.980 73 29 21 0 0
-4.7138 1.5198 -15.0036 0.275 0.820 0.501 70 26 17 0 0
-4.7379 1.5316 -15.0154 0.250 0.842 0.479 68 24 15 0 0
-5.2697 1.7960 -15.6308 -0.244 0.289 0.926 76 47 42 0 0
3.4930 -2.3939 -14.0155 -0.875 -0.207 0.438 173 156 148 0 0
2.6493 -1.9938 -13.7703 -0.002 0.094 0.996 144 81 49 0 0
1.1309 -1.2678 -13.7065 -0.166 -0.124 0.978 122 55 38 0 0
1.0862 -1.2463 -13.7113 -0.166 -0.124 0.978 120 53 36 0 0
-2.1800 0.2978 -12.4696 -0.973 0.230 -0.008 112 48 36 0 0
-2.4132 0.4102 -12.5123 0.014 0.505 0.863 110 47 34 0 0
-3.2173 0.7946 -12.4721 -0.358 0.542 0.760 111 46 34 0 0
-3.3002 0.8347 -12.4999 -0.296 -0.310 0.904 111 45 33 0 0
-3.4907 0.9264 -12.5282 -0.219 0.358 0.907 109 43 31 0 0
-3.6139 0.9845 -12.4749 -0.313 0.588 0.746 108 42 30 0 0
-3.6300 0.9926 -12.4953 -0.336 0.353 0.873 110 44 30 0 0
-3.6675 1.0111 -12.5306 -0.330 0.001 0.944 109 43 28 0 0
-3.8618 1.1044 -12.5487 -0.315 0.526 0.790 110 38 23 0 0
-3.9033 1.1242 -12.5417 -0.274 0.210 0.938 111 39 24 0 0
-3.9977 1.1695 -12.5520 -0.044 0.041 0.998 112 40 27 0 0
-4.1289 1.2319 -12.5215 -0.493 -0.336 0.803 113 38 27 0 0
-4.6922 1.5413 -15.0160 0.238 -0.044 0.970 68 23 16 0 0
-4.8699 1.6253 -14.9506 0.425 0.779 0.462 63 18 12 0 0
-5.2547 1.8205 -15.6345 -0.244 0.289 0.926 77 48 42 0 0
-4.8973 1.6698 -16.9173 0.196 -0.370 0.908 106 98 95 0 0
2.7204 -1.9882 -13.7693 -0.008 0.088 0.996 117 60 36 0 0
2.6677 -1.9630 -13.7720 -0.008 0.088 0.996 124 67 44 0 0
-3.6135 1.0142 -12.4627 -0.647 0.507 0.569 110 44 31 0 0
2.8908 -2.0307 -13.7152 0.089 0.609 0.788 116 62 41 0 0
2.0932 -1.6504 -13.7405 -0.107 -0.156 0.982 140 71 42 0 0
1.3588 -1.3013 -13.7008 -0.071 -0.126 0.990 103 44 31 0 0
-0.7564 -0.3136 -12.6184 0.236 -0.005 0.972 111 49 38 0 0
-3.1265 0.8118 -12.4269 -0.823 0.340 0.456 113 47 35 0 0
-3.6015 1.0386 -12.4626 -0.745 0.308 0.592 111 43 30 0 0
-4.0224 1.2411 -12.5741 -0.548 -0.356 0.757 114 40 26 0 0
-5.0431 1.7810 -15.5354 -0.758 0.236 0.607 69 36 27 0 0
2.9499 -2.0192 -13.7047 -0.090 0.548 0.832 116 74 56 0 0
2.5796 -1.8430 -13.7229 -0.096 0.043 0.994 106 52 42 0 0
1.1979 -1.1866 -13.7238 -0.518 0.252 0.817 108 46 28 0 0
-2.7253 0.6528 -12.4749 -0.220 -0.219 0.951 114 48 36 0 0
-3.1043 0.8321 -12.4367 -0.760 0.098 0.643 113 47 35 0 0
-3.1431 0.8512 -12.4722 -0.712 0.130 0.690 110 44 31 0 0
-4.0192 1.2684 -12.5274 -0.329 -0.016 0.944 113 40 25 0 0
-4.0582 1.2868 -12.5224 -0.094 0.074 0.993 117 44 29 0 0
-4.1461 1.3296 -12.5757 -0.489 0.125 0.863 114 40 27 0 0
-4.2246 1.3666 -12.5640 -0.234 -0.096 0.967 116 39 27 0 0
-4.7974 1.6874 -15.0887 0.118 -0.691 0.714 57 17 10 0 0
-5.0325 1.8076 -15.5325 -0.758 0.236 0.607 69 36 27 0 0
-5.2140 1.8959 -15.6391 -0.403 0.134 0.905 77 49 42 0 0
3.0145 -2.0093 -13.7406 0.052 0.253 0.966 111 64 46 0 0
2.6485 -1.8363 -13.7206 0.018 0.227 0.974 104 51 41 0 0
2.5942 -1.8106 -13.7217 0.008 0.421 0.907 104 52 41 0 0
-3.0909 0.8564 -12.4377 -0.807 0.281 0.520 113 47 35 0 0
-3.1242 0.8738 -12.5160 -0.675 0.428 0.601 111 45 31 0 0
-4.0130 1.2949 -12.5213 -0.369 0.284 0.885 114 41 26 0 0
-4.2884 1.4261 -12.5550 -0.306 0.267 0.914 111 35 20 0 0
-4.3164 1.4394 -12.5613 -0.407 0.124 0.905 112 36 22 0 0
-4.3373 1.4496 -12.5753 -0.393 -0.006 0.919 111 34 20 0 0
-4.3622 1.4616 -12.5849 -0.374 0.078 0.924 112 33 19 0 0
-4.8012 1.6915 -13.6586 -0.950 -0.310 -0.025 86 59 58 0 0
-4.8002 1.6919 -13.7003 -0.950 -0.310 -0.025 98 78 74 0 0
-5.0219 1.8342 -15.5296 -0.758 0.236 0.607 70 37 28 0 0
-5.0359 1.8413 -15.5558 -0.777 0.255 0.575 71 39 31 0 0
3.0636 -1.9930 -13.7224 -0.518 0.417 0.747 134 78 51 0 0
3.0504 -1.9861 -13.7551 -0.085 -0.089 0.992 123 62 40 0 0
1.2042 -1.1149 -13.7039 -0.509 -0.046 0.859 109 48 25 0 0
-3.9472 1.2930 -12.5050 -0.572 -0.046 0.819 118 46 29 0 0
-3.9740 1.3059 -12.5133 -0.249 0.072 0.966 119 47 30 0 0
-4.0199 1.3281 -12.5382 -0.315 0.469 0.825 115 43 26 0 0
-4.0461 1.3407 -12.5471 -0.226 0.255 0.940 113 41 26 0 0
-4.1680 1.3978 -12.5258 -0.296 -0.202 0.933 118 43 29 0 0
-4.1842 1.4059 -12.5452 -0.317 -0.311 0.896 116 40 26 0 0
-4.3279 1.4744 -12.5726 -0.362 0.040 0.931 112 35 21 0 0
-4.6971 1.6543 -12.8286 -0.394 0.072 0.916 92 50 44 0 0
-4.7239 1.6671 -12.8352 -0.343 -0.005 0.939 101 61 54 0 0
-4.8048 1.7200 -13.5182 -0.787 0.611 0.088 110 86 84 0 0
-4.8166 1.7279 -13.6241 -0.898 0.426 0.114 89 62 61 0 0
-4.8220 1.7311 -13.6578 -0.948 0.316 0.045 88 63 60 0 0
-5.0218 1.8664 -15.5579 -0.765 0.486 0.423 71 39 32 0 0
-5.1466 1.9538 -16.8796 0.439 0.836 0.329 166 164 165 0 0
3.0639 -1.9535 -13.7105 -0.548 -0.262 0.794 135 73 47 0 0
2.8139 -1.8351 -13.7362 -0.225 -0.259 0.939 108 55 42 0 0
2.7596 -1.8096 -13.7378 -0.162 -0.138 0.977 101 51 38 0 0
2.3966 -1.6380 -13.7576 -0.098 -0.086 0.991 107 50 38 0 0
1.2151 -1.0827 -13.7002 -0.227 0.256 0.940 126 63 32 0 0
-0.4190 -0.3344 -12.7425 0.036 0.373 0.927 113 51 41 0 0
-2.6559 0.7134 -12.4681 0.001 0.231 0.973 114 48 34 0 0
-4.1176 1.4035 -12.5307 -0.051 0.095 0.994 123 50 35 0 0
-4.2947 1.4876 -12.5593 -0.383 0.136 0.914 116 38 25 0 0
-4.3367 1.5080 -12.5871 -0.640 0.528 0.558 113 36 20 0 0
-4.3557 1.5173 -12.6032 -0.734 0.445 0.513 114 37 21 0 0
-4.7367 1.7023 -12.8444 -0.707 -0.139 0.693 87 43 36 0 0
-4.8179 1.7418 -12.9008 -0.836 -0.275 0.475 98 66 63 0 0
-5.0215 1.8975 -15.5400 -0.485 0.759 0.434 71 39 31 0 0
3.0675 -1.9156 -13.7010 -0.421 -0.232 0.877 140 82 58 0 0
3.0289 -1.8971 -13.7148 -0.263 -0.347 0.900 139 69 45 0 0
2.2235 -1.5181 -13.7380 -0.066 -0.037 0.997 112 54 40 0 0
-2.6807 0.7563 -12.4692 -0.086 0.139 0.987 114 48 33 0 0
-4.1641 1.4541 -12.5042 -0.270 -0.301 0.915 117 41 27 0 0
-4.3348 1.5361 -12.5761 -0.721 0.339 0.605 117 41 25 0 0
-4.3911 1.5637 -12.6251 -0.526 0.691 0.496 115 39 23 0 0
-4.8028 1.7629 -12.8668 -0.719 -0.005 0.695 97 49 44 0 0
-4.7668 1.7835 -14.4481 -0.996 0.055 0.076 64 15 11 0 0
-4.8124 1.8075 -14.5596 -0.976 -0.193 0.102 51 10 7 0 0
-4.9194 1.8798 -15.4841 -0.986 -0.076 0.151 65 27 20 0 0
-4.9544 1.9073 -15.9499 -0.034 0.989 -0.146 76 50 43 0 0
-4.8159 1.8647 -16.8995 0.306 -0.408 0.860 112 106 105 0 0
-5.0491 1.9765 -16.9931 0.450 -0.072 0.890 166 164 165 0 0
2.7621 -1.7323 -13.7152 -0.365 -0.303 0.880 134 65 38 0 0
-3.1367 1.0016 -12.4910 -0.556 0.034 0.830 116 47 34 0 0
-3.1586 1.0123 -12.5061 -0.556 0.034 0.830 114 45 30 0 0
-3.8816 1.3500 -12.4627 -0.662 0.468 0.586 116 40 24 0 0
-3.9297 1.3740 -12.5225 -0.628 0.414 0.659 118 44 29 0 0
-4.3008 1.5489 -12.5637 -0.546 -0.011 0.838 116 41 24 0 0
-4.3192 1.5580 -12.5805 -0.854 0.271 0.444 119 43 26 0 0
-4.7719 1.8170 -14.4680 -0.980 -0.137 -0.144 64 14 10 0 0
-4.8231 1.8425 -14.5289 -0.862 0.492 -0.119 65 14 8 0 0
-4.8246 1.8486 -14.7442 -0.910 0.141 0.389 74 32 18 0 0
-4.8394 1.8572 -14.8118 -0.916 0.081 0.392 72 29 24 0 0
-4.8306 1.8545 -14.8680 -0.964 0.095 0.250 45 10 3 0 0
2.7630 -1.6937 -13.7038 -0.138 -0.092 0.986 140 72 42 0 0
2.7198 -1.6732 -13.7135 -0.372 -0.302 0.877 137 69 40 0 0
-3.0278 0.9799 -12.4389 -0.140 0.345 0.928 116 47 32 0 0
-3.1091 1.0187 -12.4691 -0.595 -0.073 0.800 119 49 37 0 0
-3.4828 1.1941 -12.4975 0.115 0.825 0.553 118 42 28 0 0
-3.5637 1.2307 -12.4510 -0.267 -0.002 0.964 118 42 28 0 0
-3.5986 1.2470 -12.4518 -0.104 -0.263 0.959 118 42 28 0 0
-4.4832 1.6674 -12.7195 -0.335 0.872 0.356 116 39 22 0 0
-4.8032 1.8191 -12.8009 -0.646 -0.043 0.762 82 23 13 0 0
-4.9102 1.8807 -13.2499 -0.819 -0.567 0.087 95 55 47 0 0
-4.8972 1.8771 -13.3447 -0.808 -0.587 0.048 97 57 49 0 0
-4.9167 1.8939 -13.6398 -0.847 -0.532 -0.024 106 69 61 0 0
-4.8075 1.8660 -14.5333 -0.698 0.706 -0.119 67 15 7 0 0
-4.8126 1.8739 -14.7436 -0.721 0.558 0.410 62 21 14 0 0
-4.8156 1.8763 -14.7834 -0.354 0.558 0.751 79 38 30 0 0
-4.8311 1.8853 -14.8503 -0.279 0.670 0.688 78 34 28 0 0
2.7233 -1.6358 -13.7039 -0.138 -0.092 0.986 142 73 44 0 0
-3.6928 1.3208 -12.4519 -0.152 -0.146 0.978 118 42 26 0 0
-3.7254 1.3361 -12.4547 -0.152 -0.146 0.978 117 41 25 0 0
-3.7903 1.3665 -12.4602 -0.228 -0.114 0.967 117 41 25 0 0
-3.8219 1.3813 -12.4638 -0.181 -0.033 0.983 114 38 22 0 0
-3.9509 1.4427 -12.5113 -0.432 0.191 0.882 114 38 22 0 0
-3.9731 1.4534 -12.5245 -0.432 0.191 0.882 116 40 25 0 0
-4.9057 1.9064 -13.2019 -0.822 -0.485 0.298 90 50 42 0 0
-4.9170 1.9124 -13.2271 -0.864 -0.421 0.276 90 50 42 0 0
-4.9182 1.9140 -13.2648 -0.841 -0.435 0.321 92 52 44 0 0
-4.9009 1.9075 -13.3256 -0.855 -0.422 0.301 93 53 45 0 0
-4.9621 1.9437 -13.6074 -0.890 -0.454 0.032 99 56 48 0 0
-4.8763 1.9155 -14.0454 -0.913 0.230 -0.336 72 22 11 0 0
-4.7979 1.8933 -14.5728 -0.821 0.557 -0.125 70 19 11 0 0
-4.8130 1.9080 -14.8581 -0.111 0.696 0.709 96 49 43 0 0
-4.8667 1.9456 -15.3218 -0.669 0.695 0.264 56 17 10 0 0
-4.8747 1.9503 -15.3561 -0.691 0.693 0.204 57 18 11 0 0
-4.8820 1.9571 -15.4835 -0.711 0.533 0.458 65 28 21 0 0
2.6875 -1.5799 -13.7070 0.005 0.047 0.999 134 71 44 0 0
-2.4069 0.7530 -12.4596 -0.079 0.251 0.965 116 50 35 0 0
-3.8124 1.4064 -12.4612 -0.181 -0.033 0.983 116 39 23 0 0
-3.8426 1.4206 -12.4661 -0.222 -0.026 0.975 116 39 23 0 0
-4.9507 1.9689 -13.6472 -0.971 -0.176 -0.163 88 49 42 0 0
-4.9510 1.9702 -13.6872 -0.923 -0.385 -0.017 83 43 38 0 0
-4.8520 1.9370 -14.1448 -0.897 0.352 -0.268 98 64 58 0 0
-4.7665 1.9301 -15.3085 -0.844 0.175 0.507 55 16 9 0 0
-4.7759 1.9354 -15.3408 -0.893 -0.135 0.429 56 17 10 0 0
-4.8893 2.0005 -15.7809 -0.975 0.220 0.028 72 42 34 0 0
-4.5966 1.8974 -16.9515 -0.326 0.873 0.362 88 81 79 0 0
2.5974 -1.4988 -13.7110 0.005 0.207 0.978 131 68 40 0 0
2.3854 -1.4003 -13.7174 -0.012 0.044 0.999 134 64 34 0 0
-0.2632 -0.2016 -12.7256 -0.826 0.560 0.059 115 53 42 0 0
-2.4728 0.8149 -12.4594 -0.040 0.189 0.981 117 51 35 0 0
-2.5564 0.8535 -12.4538 -0.043 -0.071 0.997 118 51 35 0 0
-2.6159 0.8805 -12.4338 0.007 0.435 0.900 117 50 34 0 0
-2.9226 1.0226 -12.4320 -0.596 -0.246 0.765 117 48 33 0 0
-4.0042 1.5261 -12.5025 -0.561 0.134 0.817 118 42 26 0 0
-4.3221 1.6763 -12.5995 -0.866 -0.192 0.462 122 47 29 0 0
-4.7470 1.8788 -12.7885 -0.387 -0.236 0.891 93 24 8 0 0
-4.8023 1.9047 -12.7990 -0.781 0.263 0.567 70 14 6 0 0
-4.9026 1.9692 -13.4130 -0.508 0.271 0.817 89 49 44 0 0
-4.9097 1.9734 -13.4438 -0.947 0.079 0.312 90 51 45 0 0
-4.9139 1.9764 -13.4783 -0.965 0.262 -0.034 91 53 44 0 0
-4.9120 1.9767 -13.5206 -0.942 0.298 -0.153 92 54 45 0 0
-4.9132 1.9784 -13.5591 -0.979 -0.031 -0.202 93 54 45 0 0
-4.9069 2.0351 -15.5965 -0.829 0.465 0.311 70 39 32 0 0
-4.9457 2.0542 -15.6334 -0.594 0.659 0.462 71 41 35 0 0
-4.7342 1.9851 -16.6218 -0.147 0.851 0.503 77 70 67 0 0
-2.5228 0.8686 -12.4367 -0.350 0.667 0.658 116 49 33 0 0
-2.5611 0.8863 -12.4372 -0.481 0.291 0.827 116 49 33 0 0
-2.9269 1.0547 -12.4156 -0.392 -0.149 0.908 117 48 33 0 0
-3.7649 1.4431 -12.4492 -0.159 -0.047 0.986 133 57 38 0 0
-3.9946 1.5509 -12.5000 -0.561 0.134 0.817 118 42 26 0 0
-4.2081 1.6504 -12.5270 -0.633 0.544 0.551 125 48 29 0 0
-4.2248 1.6587 -12.5457 -0.481 0.181 0.858 121 45 25 0 0
-4.2545 1.6726 -12.5500 -0.502 0.291 0.814 121 44 25 0 0
-4.2741 1.6821 -12.5654 -0.502 0.291 0.814 121 45 26 0 0
-4.9486 2.0115 -13.1454 -0.625 0.315 0.715 82 44 36 0 0
-4.9064 1.9960 -13.2755 -0.987 0.059 0.153 87 48 40 0 0
-4.9053 2.0003 -13.4346 -0.977 0.022 0.213 89 51 45 0 0
-4.7092 1.9530 -14.8606 -0.138 0.731 0.668 87 56 50 0 0
1.4092 -0.8741 -13.6754 -0.360 0.124 0.924 114 52 37 0 0
-3.9893 1.5775 -12.4931 -0.726 0.068 0.685 115 39 23 0 0
-4.0236 1.5934 -12.4931 -0.290 -0.016 0.957 123 50 33 0 0
-4.2730 1.7102 -12.5537 -0.490 -0.109 0.865 120 44 26 0 0
-4.2940 1.7204 -12.5675 -0.492 0.104 0.864 122 47 28 0 0
-4.8017 1.9621 -12.8102 -0.686 0.470 0.555 70 15 7 0 0
-4.8429 1.9855 -12.9513 -0.834 0.330 0.442 63 21 15 0 0
-4.9094 2.0221 -13.1404 -0.394 0.632 0.668 79 42 35 0 0
-4.7110 1.9842 -14.8413 -0.573 -0.062 0.817 90 61 55 0 0
-4.8352 2.0645 -15.5706 -0.924 0.076 0.375 71 39 33 0 0
-4.8468 2.0707 -15.6004 -0.924 0.076 0.375 72 41 35 0 0
-4.8742 2.0836 -15.6073 -0.702 0.498 0.508 72 42 36 0 0
1.4112 -0.8380 -13.6645 -0.258 0.168 0.951 111 52 35 0 0
1.3750 -0.8210 -13.6767 -0.344 0.299 0.890 114 54 36 0 0
-0.3596 -0.0557 -12.6868 -0.908 -0.414 0.066 114 49 40 0 0
-2.8736 1.0910 -12.4066 -0.718 -0.065 0.693 116 48 32 0 0
-2.9778 1.1392 -12.4150 -0.200 -0.026 0.979 120 51 36 0 0
-3.0020 1.1508 -12.4279 -0.356 -0.151 0.922 126 56 41 0 0
-3.0242 1.1615 -12.4428 -0.384 -0.263 0.885 119 47 32 0 0
-3.3335 1.3032 -12.4278 -0.516 0.094 0.852 119 44 30 0 0
-3.3531 1.3128 -12.4447 -0.588 0.155 0.794 123 48 33 0 0
-3.9221 1.5767 -12.5154 -0.546 0.241 0.803 115 37 21 0 0
-3.9821 1.6034 -12.4880 -0.726 0.068 0.685 113 37 21 0 0
-4.7840 1.9828 -12.8175 -0.756 0.404 0.515 74 16 7 0 0
-4.7677 1.9772 -12.8748 -0.718 0.050 0.694 63 14 8 0 0
-4.7832 1.9849 -12.8944 -0.743 0.166 0.648 59 13 7 0 0
-4.8061 1.9958 -12.9051 -0.647 0.411 0.643 58 14 8 0 0
-4.8238 2.0045 -12.9222 -0.481 0.431 0.763 59 16 10 0 0
-4.8372 2.0114 -12.9443 -0.768 0.161 0.620 61 20 15 0 0
-4.8981 2.0509 -13.2960 -0.939 0.097 0.330 82 46 40 0 0
-4.8757 2.0428 -13.3631 -0.858 -0.399 0.324 86 51 45 0 0
-4.9070 2.0584 -13.4033 -0.997 0.082 -0.015 88 53 47 0 0
-4.8480 2.1023 -15.5804 -0.931 -0.098 0.353 72 41 36 0 0
1.4764 -0.8306 -13.6633 -0.255 -0.314 0.914 100 45 31 0 0
-2.8620 1.1163 -12.4058 -0.378 0.735 0.563 117 48 33 0 0
-2.9681 1.1652 -12.4123 -0.200 -0.026 0.979 120 51 36 0 0
-3.5466 1.4318 -12.4550 -0.515 -0.287 0.808 119 43 27 0 0
-3.7867 1.5434 -12.4990 -0.777 0.095 0.622 122 45 27 0 0
-3.9640 1.6246 -12.4947 -0.385 0.393 0.835 121 44 26 0 0
-4.3173 1.7885 -12.5527 -0.708 -0.064 0.704 120 44 28 0 0
-4.6043 1.9293 -12.8255 -0.615 -0.715 0.332 117 39 19 0 0
-4.7794 2.0103 -12.8472 -0.781 -0.274 0.561 65 13 3 0 0
-4.8632 2.0595 -13.1685 -0.678 0.507 0.532 74 38 32 0 0
-4.8674 2.0626 -13.2022 -0.860 0.155 0.486 75 38 32 0 0
-4.8765 2.0730 -13.3871 -0.958 -0.013 0.285 83 48 42 0 0
-4.8669 2.0771 -13.6383 -0.994 -0.054 0.094 80 46 40 0 0
-4.9213 2.1038 -13.6903 -0.644 0.187 0.742 72 39 32 0 0
2.4111 -1.2172 -13.7601 -0.086 0.338 0.937 109 53 39 0 0
-2.9218 1.1743 -12.4088 -0.078 0.152 0.985 118 49 34 0 0
-2.9906 1.2060 -12.4148 -0.198 -0.028 0.980 121 52 37 0 0
-3.3459 1.3702 -12.4641 -0.426 -0.088 0.900 122 49 32 0 0
-3.6019 1.4870 -12.4589 -0.354 0.124 0.927 124 48 32 0 0
-3.9888 1.6651 -12.4923 -0.498 0.119 0.859 128 51 33 0 0
-4.1276 1.7298 -12.5266 -0.198 0.275 0.941 120 42 24 0 0
-4.2618 1.7924 -12.5642 -0.556 -0.147 0.818 120 44 28 0 0
-4.2899 1.8055 -12.5701 -0.867 -0.139 0.478 120 44 28 0 0
-4.8685 2.0942 -13.2646 -0.977 0.063 0.202 78 41 35 0 0
-4.8743 2.0980 -13.2966 -0.902 0.114 0.417 80 44 38 0 0
-4.8779 2.1091 -13.5695 -0.951 0.303 -0.065 79 44 38 0 0
-4.8935 2.1184 -13.6300 -0.843 0.030 0.537 75 43 38 0 0
-4.8629 2.1185 -14.0366 -0.982 -0.153 0.111 96 68 63 0 0
-4.7138 2.0982 -15.4131 -0.353 0.454 0.818 25 13 11 0 0
-4.7237 2.1317 -16.2452 -0.841 0.517 -0.159 51 41 42 0 0
-4.7124 2.1288 -16.3105 -0.869 0.468 -0.161 58 47 47 0 0
3.8482 -1.8248 -14.0108 0.026 0.031 0.999 182 166 156 0 0
-0.2551 -0.0021 -12.6623 -0.343 -0.581 0.739 114 52 41 0 0
-3.2872 1.3724 -12.4377 -0.405 -0.038 0.914 118 45 30 0 0
-3.3384 1.3966 -12.4594 -0.405 -0.038 0.914 119 46 29 0 0
-3.9363 1.6706 -12.4991 -0.384 0.498 0.778 124 47 29 0 0
-4.2946 1.8359 -12.5520 -0.625 0.412 0.663 123 47 31 0 0
-4.8376 2.0907 -12.7512 -0.631 -0.355 0.690 89 17 5 0 0
-4.8223 2.0994 -13.1900 -0.726 0.093 0.681 71 36 30 0 0
-4.8281 2.1032 -13.2218 -0.715 0.005 0.699 75 38 32 0 0
-4.8743 2.1307 -13.4003 -0.831 0.224 0.510 82 47 41 0 0
-4.8812 2.1349 -13.4312 -0.905 0.083 0.417 83 48 42 0 0
-4.8929 2.1412 -13.4562 -0.771 0.533 0.349 82 47 41 0 0
-4.8949 2.1434 -13.4935 -0.965 0.186 0.183 79 44 38 0 0
-4.8395 2.1397 -14.0929 -0.837 0.182 0.516 93 65 60 0 0
-4.8309 2.1377 -14.1459 -0.990 -0.020 0.138 93 62 57 0 0
-4.8206 2.1395 -14.3274 -0.871 0.489 0.045 93 62 57 0 0
-4.7900 2.1456 -14.8865 -0.890 0.427 0.162 85 56 50 0 0
-4.7815 2.1698 -15.6677 -0.885 0.461 0.071 24 17 17 0 0
-4.7834 2.1722 -15.7117 -0.855 0.515 0.063 27 17 18 0 0
-4.7258 2.1609 -16.1266 -0.838 0.516 -0.174 39 34 31 0 0
-4.7187 2.1597 -16.1852 -0.854 0.497 -0.151 42 38 37 0 0
-4.7073 2.1569 -16.2502 -0.841 0.517 -0.159 50 42 43 0 0
3.8825 -1.7993 -14.0234 0.115 0.009 0.993 192 180 174 0 0
-0.3197 0.0603 -12.6353 -0.177 -0.489 0.854 113 51 40 0 0
-3.2850 1.4011 -12.4275 -0.661 -0.081 0.746 120 47 30 0 0
-3.3049 1.4107 -12.4442 -0.661 -0.081 0.746 121 48 32 0 0
-3.3249 1.4204 -12.4608 -0.661 -0.081 0.746 119 46 29 0 0
-3.3367 1.4267 -12.4856 -0.720 -0.002 0.694 119 45 28 0 0
-3.7399 1.6096 -12.4737 -0.529 0.073 0.845 122 46 25 0 0
-3.8237 1.6472 -12.4590 -0.343 0.100 0.934 124 47 28 0 0
-4.7869 2.0949 -12.7223 -0.726 0.461 0.510 118 35 3 0 0
-4.8148 2.1092 -12.7646 -0.672 0.466 0.575 97 20 4 0 0
-4.8734 2.1445 -12.9982 -0.877 0.427 0.221 69 34 28 0 0
-4.9005 2.1907 -13.9157 -0.979 0.202 0.011 93 60 53 0 0
-4.9041 2.1937 -13.9521 -0.890 0.377 0.254 89 61 56 0 0
4.0611 -1.8401 -14.0101 -0.723 -0.557 0.408 213 213 212 0 0
4.1030 -1.8562 -14.0837 0.063 -0.140 0.988 211 211 212 0 0
-3.8351 1.6822 -12.4710 -0.315 0.297 0.902 123 46 28 0 0
-3.9811 1.7494 -12.4994 -0.726 0.137 0.674 128 49 32 0 0
-4.0212 1.7688 -12.5299 -0.314 0.486 0.816 122 43 26 0 0
-4.8137 2.1381 -12.7900 -0.706 -0.339 0.622 87 18 5 0 0
-4.8853 2.2043 -13.6760 -0.969 0.135 0.205 70 37 35 0 0
-4.8916 2.2084 -13.7083 -0.969 0.135 0.205 68 37 34 0 0
-4.8979 2.2125 -13.7408 -0.969 0.135 0.205 70 35 33 0 0
-4.7501 2.1866 -14.8193 -0.981 -0.075 -0.178 86 57 52 0 0
-4.7507 2.1935 -14.9947 -0.882 0.457 -0.112 88 59 53 0 0
-4.7419 2.1917 -15.0512 -0.846 0.508 -0.162 89 59 55 0 0
-0.3174 0.1262 -12.6141 0.281 -0.414 0.866 112 50 39 0 0
-3.4526 1.5363 -12.4162 -0.389 0.040 0.920 120 44 28 0 0
-3.9407 1.7600 -12.4932 -0.635 -0.067 0.770 126 46 29 0 0
-3.9749 1.7755 -12.4933 -0.722 0.316 0.615 128 48 31 0 0
-4.0045 1.7906 -12.5351 -0.648 0.429 0.629 124 45 28 0 0
-4.8510 2.1915 -12.9974 -0.885 0.318 0.339 70 33 27 0 0
-4.8460 2.2047 -13.3918 -0.902 0.058 0.429 80 43 37 0 0
-4.8750 2.2257 -13.5939 -0.973 0.167 0.161 74 40 35 0 0
-4.8813 2.2314 -13.6661 -0.964 0.152 0.217 72 39 33 0 0
-4.8870 2.2353 -13.6991 -0.973 0.136 0.187 75 42 35 0 0
-4.8928 2.2392 -13.7322 -0.973 0.136 0.187 84 46 38 0 0
-4.7516 2.2224 -14.9322 -0.998 -0.023 0.062 87 57 52 0 0
-4.7580 2.2267 -14.9677 -0.951 -0.284 0.120 89 58 53 0 0
-4.7435 2.2226 -15.0319 -0.991 0.117 0.070 90 57 54 0 0
-3.9599 1.7980 -12.4967 -0.627 0.342 0.700 127 46 29 0 0
-4.7133 2.1427 -12.6188 -0.893 -0.087 0.443 127 59 42 0 0
-4.7498 2.1635 -12.7255 -0.592 0.433 0.680 120 41 14 0 0
-4.8893 2.2395 -13.0522 -0.931 0.167 0.324 75 38 32 0 0
-4.8489 2.2343 -13.3736 -0.950 -0.220 0.220 81 44 38 0 0
-4.8749 2.2543 -13.5791 -0.950 0.284 0.131 84 47 38 0 0
-4.8754 2.2577 -13.6586 -0.964 0.152 0.217 95 60 46 0 0
-4.8823 2.2621 -13.6902 -0.975 0.168 0.142 99 67 49 0 0
-4.8896 2.2666 -13.7212 -0.929 0.339 0.152 112 79 59 0 0
-4.7694 2.2596 -14.8910 -0.957 0.287 0.044 91 58 53 0 0
-4.7692 2.2631 -14.9795 -0.986 -0.151 -0.069 91 57 54 0 0
-4.3793 2.1218 -15.8388 -0.826 0.524 -0.206 6 5 7 0 0
-4.3762 2.1225 -15.8899 -0.896 0.421 -0.138 9 7 10 0 0
-4.3743 2.1237 -15.9396 -0.909 0.412 -0.054 13 11 14 0 0
-4.3735 2.1252 -15.9880 -0.923 0.365 0.120 16 14 16 0 0
-4.3613 2.1223 -16.0526 -0.695 0.594 0.405 18 17 15 0 0
2.4778 -1.0184 -13.6962 0.074 0.203 0.976 149 82 51 0 0
1.5851 -0.6183 -13.6642 -0.049 0.057 0.997 107 50 35 0 0
-3.7156 1.7153 -12.4491 -0.729 0.192 0.657 127 49 29 0 0
-3.9322 1.8139 -12.4769 -0.684 -0.093 0.723 125 44 27 0 0
-4.2590 1.9644 -12.5638 -0.846 0.161 0.508 124 49 33 0 0
-4.2780 1.9736 -12.5798 -0.594 0.074 0.801 126 53 36 0 0
-4.7554 2.1967 -12.7804 -0.573 0.118 0.811 110 31 4 0 0
-4.8800 2.2638 -13.0494 -0.925 0.267 0.270 78 41 35 0 0
-4.8443 2.2608 -13.3649 -0.913 0.293 0.283 82 45 39 0 0
-4.8653 2.2708 -13.3782 -0.936 0.349 0.051 88 48 43 0 0
-4.8687 2.2837 -13.6522 -0.941 0.286 0.178 99 58 45 0 0
-4.8740 2.2874 -13.6857 -0.940 0.303 0.158 92 50 37 0 0
-4.8800 2.2915 -13.7184 -0.929 0.339 0.152 91 49 36 0 0
-4.7618 2.2794 -14.7100 -0.848 0.521 -0.098 106 72 60 0 0
-4.3373 2.1369 -15.8794 -0.938 0.180 -0.295 21 20 21 0 0
-3.4222 1.6130 -12.4468 -0.188 0.364 0.912 117 41 25 0 0
-4.2525 1.9900 -12.5581 -0.763 0.080 0.641 128 52 36 0 0
-4.2681 1.9979 -12.5777 -0.763 0.080 0.641 133 60 43 0 0
-4.7284 2.2105 -12.7237 -0.505 0.155 0.849 134 53 20 0 0
-4.7867 2.2514 -13.0714 -0.769 0.431 0.471 76 39 33 0 0
-4.8409 2.2795 -13.1599 -0.585 0.053 0.810 81 44 38 0 0
-4.8354 2.2856 -13.3615 -0.913 0.293 0.283 83 46 40 0 0
-4.8487 2.3010 -13.5825 -0.873 0.478 0.101 88 49 40 0 0
-4.8514 2.3037 -13.6191 -0.873 0.478 0.101 84 44 36 0 0
-4.8544 2.3066 -13.6554 -0.855 0.499 0.142 85 44 36 0 0
-4.8583 2.3099 -13.6906 -0.855 0.499 0.142 83 41 33 0 0
-4.8623 2.3131 -13.7259 -0.855 0.499 0.142 82 39 31 0 0
-4.7534 2.3022 -14.6184 -0.734 0.670 -0.107 99 65 57 0 0
-0.0884 0.1619 -12.6808 -0.422 0.297 0.857 115 53 42 0 0
-3.4004 1.6333 -12.4568 -0.134 0.526 0.840 119 43 27 0 0
-4.4206 2.0949 -12.5796 -0.540 0.219 0.813 130 62 47 0 0
-4.6778 2.2150 -12.6944 -0.505 0.155 0.849 154 93 72 0 0
-4.7184 2.2343 -12.7219 -0.524 0.168 0.835 125 41 9 0 0
-4.8328 2.3044 -13.1557 -0.585 0.053 0.810 81 44 38 0 0
-4.8379 2.3081 -13.1882 -0.705 0.604 0.373 82 45 39 0 0
-4.8223 2.3070 -13.3240 -0.870 0.412 0.271 83 46 40 0 0
-4.8239 2.3094 -13.3613 -0.890 0.366 0.274 82 45 39 0 0
-4.8388 2.3291 -13.6602 -0.843 0.526 0.108 77 38 31 0 0
-4.8417 2.3319 -13.6968 -0.843 0.526 0.108 76 37 30 0 0
-4.8474 2.3377 -13.7702 -0.843 0.526 0.108 85 41 31 0 0
-4.8758 2.3559 -13.8965 -0.805 0.593 -0.024 89 57 52 0 0
-4.8977 2.3663 -13.9092 -0.938 0.336 0.089 92 56 51 0 0
-4.9013 2.3694 -13.9455 -0.933 0.359 -0.017 93 57 50 0 0
-4.9000 2.3707 -13.9883 -0.933 0.359 -0.017 94 58 50 0 0
-4.8975 2.3716 -14.0326 -0.977 0.211 -0.018 91 55 49 0 0
-4.8965 2.3729 -14.0754 -0.977 0.211 -0.018 94 58 51 0 0
-4.7342 2.3245 -14.6276 -0.702 0.709 -0.065 94 63 55 0 0
-4.7249 2.3246 -14.7266 -0.702 0.709 -0.065 93 62 54 0 0
-4.2421 2.1714 -16.1657 -0.765 0.602 -0.227 24 20 19 0 0
2.6997 -1.0019 -13.7026 -0.149 -0.208 0.967 110 54 40 0 0
-0.0667 0.1865 -12.6871 -0.398 -0.721 0.567 114 52 41 0 0
-2.7403 1.3663 -12.4032 -0.712 -0.292 0.639 127 58 40 0 0
-4.3988 2.1143 -12.5910 -0.420 0.474 0.774 138 69 55 0 0
-4.7132 2.2600 -12.7146 -0.654 0.485 0.580 126 43 12 0 0
-4.7284 2.2677 -12.7343 -0.674 0.399 0.622 123 40 7 0 0
-4.8455 2.3323 -13.0110 -0.741 0.189 0.645 76 39 33 0 0
-4.7859 2.3106 -13.1214 -0.664 0.253 0.704 78 41 35 0 0
-4.8497 2.3425 -13.1983 -0.457 0.711 0.534 81 43 38 0 0
-4.8011 2.3270 -13.3358 -0.726 0.393 0.564 85 48 41 0 0
-4.8061 2.3307 -13.3688 -0.779 0.491 0.390 84 47 39 0 0
-4.8245 2.3396 -13.3853 -0.837 0.514 0.186 82 45 36 0 0
-4.8336 2.3610 -13.7727 -0.852 0.487 0.191 83 39 30 0 0
-4.8595 2.3783 -13.9022 -0.900 0.428 0.086 88 57 52 0 0
-4.8596 2.3802 -13.9430 -0.935 0.354 -0.033 88 57 51 0 0
-4.7823 2.3613 -14.2926 -0.816 0.576 -0.055 91 59 52 0 0
-4.7482 2.3615 -14.6356 -0.821 0.564 -0.092 93 63 56 0 0
-4.3584 2.2457 -15.9360 -0.423 0.378 0.824 20 18 19 0 0
-4.2596 2.2100 -16.1224 -0.886 -0.458 0.069 22 19 18 0 0
-4.2640 2.2138 -16.1638 -0.894 -0.443 0.068 23 18 17 0 0
3.9595 -1.5107 -13.9817 -0.527 -0.162 0.835 213 213 215 0 0
2.5999 -0.9190 -13.6988 -0.289 -0.347 0.892 111 52 37 0 0
1.6587 -0.5016 -13.6739 -0.094 0.114 0.989 111 48 26 0 0
-4.3841 2.1365 -12.5944 -0.647 0.542 0.535 138 67 53 0 0
-4.6449 2.2559 -12.6687 -0.514 0.384 0.767 122 50 30 0 0
-4.7103 2.2866 -12.7047 -0.450 0.525 0.722 120 39 8 0 0
-4.7331 2.2989 -12.7528 -0.635 0.313 0.706 117 41 7 0 0
-4.7394 2.3170 -13.0865 -0.573 -0.036 0.819 76 37 32 0 0
-4.8168 2.3560 -13.1856 -0.806 0.485 0.338 80 41 36 0 0
-4.7812 2.3511 -13.4244 -0.954 0.059 0.294 85 48 39 0 0
-4.7898 2.3562 -13.4532 -0.954 0.059 0.294 81 44 35 0 0
-4.8277 2.3855 -13.7248 -0.767 0.580 0.274 68 29 21 0 0
-4.7435 2.4032 -14.9300 -0.737 0.402 0.544 89 55 47 0 0
-4.2845 2.2512 -16.0688 -0.837 -0.539 0.095 20 16 16 0 0
-2.7480 1.4290 -12.3719 -0.552 -0.497 0.669 120 50 32 0 0
-4.2543 2.1050 -12.5414 -0.607 0.214 0.766 141 66 45 0 0
-4.6666 2.2937 -12.6676 -0.583 0.261 0.769 114 36 14 0 0
-4.6795 2.3005 -12.6898 -0.718 0.468 0.515 126 48 20 0 0
-4.6992 2.3099 -12.7043 -0.650 0.398 0.647 127 51 21 0 0
-4.7142 2.3175 -12.7241 -0.650 0.398 0.647 107 31 2 0 0
-4.7326 2.3424 -13.0806 -0.573 -0.036 0.819 76 37 32 0 0
-4.7701 2.3605 -13.1124 -0.754 0.590 0.288 76 39 33 0 0
-4.7759 2.3773 -13.4165 -0.893 0.222 0.392 84 47 38 0 0
-4.7862 2.3831 -13.4432 -0.893 0.222 0.392 84 47 38 0 0
-4.7432 2.4008 -14.2284 -0.759 0.649 -0.055 86 56 48 0 0
-4.2877 2.2796 -15.9517 -0.880 -0.467 0.088 3 3 5 0 0
-4.2951 2.2846 -15.9884 -0.892 -0.442 0.099 4 4 5 0 0
-4.3002 2.2887 -16.0283 -0.880 -0.467 0.088 8 7 6 0 0
3.8012 -1.3561 -14.0583 -0.017 -0.101 0.995 199 195 196 0 0
3.5341 -1.2412 -13.9916 0.394 0.299 0.869 113 78 73 0 0
1.7481 -0.4663 -13.6791 -0.207 0.123 0.971 168 91 49 0 0
1.7153 -0.4511 -13.6944 -0.325 0.344 0.881 138 65 37 0 0
-2.7266 1.4503 -12.3806 -0.484 0.207 0.850 117 48 29 0 0
-2.7594 1.4650 -12.3855 -0.116 0.061 0.991 118 47 29 0 0
-4.1853 2.1009 -12.4942 -0.478 0.306 0.823 134 56 37 0 0
-4.2006 2.1085 -12.5142 -0.682 -0.075 0.728 131 52 35 0 0
-4.6180 2.3008 -12.6732 -0.514 0.384 0.767 117 41 23 0 0
-4.6773 2.3291 -12.7164 -0.626 0.363 0.690 118 43 20 0 0
-4.7678 2.3987 -13.3337 -0.869 0.253 0.425 81 44 36 0 0
-4.7666 2.4020 -13.4135 -0.852 0.324 0.411 82 45 36 0 0
-4.7823 2.4099 -13.4335 -0.799 0.252 0.545 89 52 43 0 0
-4.6154 2.4082 -14.9385 -0.924 0.356 -0.139 91 60 53 0 0
-4.6786 2.4384 -14.9848 -0.382 0.585 0.715 89 56 48 0 0
-4.3215 2.3237 -15.8862 -0.881 -0.245 0.405 4 4 6 0 0
3.8688 -1.3459 -14.0522 -0.149 -0.251 0.957 209 209 212 0 0
3.7429 -1.2907 -14.0466 -0.041 -0.100 0.994 199 195 194 0 0
3.4953 -1.1841 -13.9936 0.394 0.299 0.869 109 75 70 0 0
1.8326 -0.4676 -13.6510 -0.207 0.193 0.959 133 67 27 0 0
1.8006 -0.4528 -13.6671 -0.397 0.373 0.839 155 81 41 0 0
1.7709 -0.4388 -13.6850 -0.363 0.243 0.900 168 88 47 0 0
-3.6289 1.8839 -12.4890 -0.477 -0.259 0.840 126 45 24 0 0
-3.6734 1.9030 -12.4792 -0.324 0.282 0.903 124 43 22 0 0
-4.6665 2.3525 -12.7156 -0.654 0.411 0.635 107 32 8 0 0
-4.6810 2.3600 -12.7360 -0.626 0.363 0.690 96 22 2 0 0
-4.7461 2.3923 -12.8096 -0.614 0.607 0.504 48 8 5 0 0
-4.7607 2.4241 -13.3280 -0.827 0.397 0.398 80 43 37 0 0
-4.7752 2.4316 -13.3493 -0.862 0.154 0.482 81 44 37 0 0
-4.7575 2.4267 -13.4103 -0.774 0.152 0.615 81 44 36 0 0
-4.7732 2.4346 -13.4303 -0.881 0.111 0.461 82 45 37 0 0
-4.6144 2.4487 -15.1440 -0.779 0.597 -0.192 86 50 40 0 0
-4.2618 2.3282 -15.8579 -0.648 -0.674 0.356 4 5 7 0 0
3.7894 -1.2720 -14.0253 -0.385 -0.352 0.853 209 209 212 0 0
3.7588 -1.2575 -14.0461 -0.138 -0.191 0.972 205 205 205 0 0
3.6977 -1.2308 -14.0444 -0.114 -0.147 0.983 195 194 192 0 0
3.5549 -1.1689 -14.0254 0.374 0.268 0.888 129 109 105 0 0
1.8070 -0.4186 -13.6600 -0.501 0.367 0.784 158 80 40 0 0
-4.6711 2.3838 -12.7342 -0.616 0.411 0.672 103 31 6 0 0
-4.6848 2.3908 -12.7556 -0.626 0.363 0.690 104 34 7 0 0
-4.7625 2.4548 -13.3506 -0.735 0.644 0.212 81 44 38 0 0
-4.5972 2.4724 -15.1505 -0.791 0.532 -0.302 87 51 43 0 0
-4.6093 2.4791 -15.1784 -0.812 0.357 -0.462 93 62 54 0 0
-4.3720 2.4002 -15.6871 -0.936 0.317 -0.150 4 4 6 0 0
3.8215 -1.2476 -13.9935 -0.432 -0.396 0.811 213 213 215 0 0
3.7420 -1.2113 -14.0216 -0.385 -0.352 0.853 209 211 212 0 0
3.7057 -1.1945 -14.0380 -0.114 -0.147 0.983 203 204 205 0 0
3.6508 -1.1703 -14.0408 -0.114 -0.147 0.983 194 194 194 0 0
3.5980 -1.1469 -14.0449 0.305 0.192 0.933 172 165 163 0 0
3.5119 -1.1103 -14.0243 0.305 0.192 0.933 133 115 110 0 0
3.4124 -1.0682 -13.9935 0.383 0.277 0.882 108 76 70 0 0
-2.7446 1.5483 -12.3638 -0.319 0.203 0.926 120 51 32 0 0
-3.6612 1.9555 -12.4671 -0.610 0.506 0.609 126 45 24 0 0
-4.7398 2.4724 -13.3251 -0.735 0.644 0.212 83 46 40 0 0
-4.7454 2.4765 -13.3572 -0.735 0.644 0.212 83 46 40 0 0
-4.7409 2.4768 -13.4019 -0.774 0.152 0.615 84 47 39 0 0
-4.5826 2.4948 -15.1089 -0.983 -0.135 -0.123 85 54 47 0 0
-4.5412 2.4864 -15.2994 -0.804 0.406 -0.434 62 51 47 0 0
-4.3635 2.4280 -15.6810 -0.936 0.317 -0.150 3 3 5 0 0
-4.3494 2.4252 -15.7468 -0.984 0.149 -0.097 5 5 7 0 0
3.7013 -1.1534 -14.0227 -0.353 -0.295 0.888 210 210 212 0 0
3.6543 -1.1324 -14.0312 -0.277 -0.278 0.920 204 204 206 0 0
3.6042 -1.1102 -14.0373 -0.114 -0.147 0.983 196 194 196 0 0
3.5530 -1.0875 -14.0424 0.305 0.192 0.933 177 168 166 0 0
3.4672 -1.0511 -14.0219 0.305 0.192 0.933 129 109 104 0 0
3.3820 -1.0149 -14.0015 0.305 0.192 0.933 108 77 71 0 0
-2.9624 1.6753 -12.3953 -0.083 0.526 0.846 123 49 34 0 0
-2.9946 1.6897 -12.4001 -0.665 -0.348 0.661 121 47 31 0 0
-3.4209 1.8766 -12.4106 -0.334 -0.054 0.941 123 45 27 0 0
-3.4879 1.9062 -12.4149 -0.520 -0.057 0.853 126 47 30 0 0
-3.6638 1.9850 -12.4519 -0.797 0.222 0.562 131 50 29 0 0
-4.0005 2.1346 -12.4974 -0.351 -0.126 0.928 129 48 27 0 0
-4.7326 2.4977 -13.3196 -0.898 0.359 0.256 84 47 41 0 0
-4.7154 2.5184 -13.8578 -0.772 0.634 -0.044 108 69 53 0 0
-4.7601 2.5413 -13.9229 -0.704 0.694 0.150 88 58 53 0 0
-4.7569 2.5422 -13.9679 -0.861 0.496 -0.112 89 58 53 0 0
-4.6007 2.5315 -15.0673 -0.971 0.194 -0.141 84 54 48 0 0
-4.5577 2.5204 -15.2148 -0.645 0.648 -0.405 95 62 57 0 0
-4.4306 2.4786 -15.4792 -0.828 0.443 -0.342 16 14 17 0 0
3.6066 -1.0719 -14.0268 -0.257 -0.239 0.936 205 204 207 0 0
3.5628 -1.0522 -14.0375 -0.023 -0.054 0.998 197 193 194 0 0
3.5081 -1.0283 -14.0400 0.305 0.192 0.933 174 164 161 0 0
3.4227 -0.9921 -14.0195 0.305 0.192 0.933 134 114 110 0 0
3.3378 -0.9562 -13.9991 0.305 0.192 0.933 109 76 70 0 0
-3.6196 1.9947 -12.4490 -0.332 0.042 0.942 124 43 24 0 0
-3.6471 2.0071 -12.4569 -0.768 0.270 0.581 127 46 25 0 0
-3.6608 2.0143 -12.4792 -0.846 0.220 0.486 126 45 24 0 0
-3.6729 2.0209 -12.5031 -0.861 0.222 0.457 127 46 25 0 0
-4.6737 2.4956 -13.2216 -0.545 0.044 0.837 79 42 36 0 0
-4.6943 2.5053 -13.2355 -0.545 0.044 0.837 80 43 37 0 0
-4.6795 2.5187 -13.6067 -0.552 0.618 0.560 80 46 37 0 0
-4.6017 2.5385 -14.6143 -0.705 0.450 0.549 84 53 45 0 0
-4.3234 2.4826 -15.8400 -0.858 0.502 -0.107 48 48 49 0 0
-5.0788 2.8683 -16.8942 0.056 -0.632 0.773 181 181 181 0 0
3.5186 -0.9933 -14.0355 -0.040 -0.051 0.998 197 193 194 0 0
3.4585 -0.9673 -14.0338 0.284 0.184 0.941 179 171 170 0 0
3.3783 -0.9334 -14.0171 0.305 0.192 0.933 134 115 111 0 0
3.2938 -0.8977 -13.9968 0.305 0.192 0.933 108 77 72 0 0
-2.7068 1.6224 -12.3645 -0.291 0.443 0.848 121 48 33 0 0
-2.8793 1.7002 -12.4161 -0.568 -0.163 0.807 121 47 32 0 0
-3.5420 1.9899 -12.4441 -0.299 -0.012 0.954 125 44 25 0 0
-4.6599 2.5163 -13.1856 -0.897 0.418 0.139 77 40 34 0 0
-4.6583 2.5178 -13.2262 -0.792 0.017 0.611 79 42 36 0 0
-4.6890 2.5334 -13.2665 -0.792 0.017 0.611 79 42 36 0 0
-4.7028 2.5406 -13.2886 -0.847 -0.034 0.531 79 42 36 0 0
-4.7170 2.5479 -13.3102 -0.778 0.011 0.628 85 48 42 0 0
-4.7250 2.5594 -13.4569 -0.948 0.303 0.092 83 48 42 0 0
-4.7089 2.5819 -13.9988 -0.789 0.610 0.075 89 58 53 0 0
-4.3224 2.5082 -15.7307 -0.633 0.774 -0.021 47 47 51 0 0
-4.3092 2.5060 -15.7953 -0.710 0.700 -0.080 38 39 41 0 0
-5.0942 2.9047 -16.8492 -0.147 -0.813 0.563 181 181 181 0 0
-5.1182 2.9158 -16.8615 -0.168 -0.826 0.537 183 183 183 0 0
-5.3711 3.0228 -16.8073 -0.969 0.030 0.246 192 192 192 0 0
-5.3679 3.0299 -16.9643 -0.570 -0.562 0.599 196 196 196 0 0
3.4983 -0.9440 -14.0511 0.258 0.180 0.949 198 196 197 0 0
3.4150 -0.9089 -14.0321 0.284 0.184 0.941 177 169 167 0 0
3.3326 -0.8742 -14.0135 0.283 0.202 0.938 131 113 109 0 0
3.2388 -0.8351 -13.9861 0.320 0.229 0.920 106 77 72 0 0
0.3013 0.3681 -12.7185 0.259 -0.137 0.956 116 63 52 0 0
-2.8732 1.7252 -12.3737 -0.445 -0.197 0.874 119 46 31 0 0
-3.4820 1.9918 -12.4205 -0.250 0.412 0.876 124 45 28 0 0
-3.4971 1.9995 -12.4415 -0.204 0.538 0.818 124 44 26 0 0
-4.7049 2.6068 -13.9477 -0.904 0.413 -0.110 90 59 54 0 0
-4.6858 2.6021 -14.0130 -0.729 0.561 0.392 90 59 54 0 0
-4.5794 2.6085 -14.9576 -0.911 0.356 0.207 101 68 56 0 0
-4.3071 2.5284 -15.6421 -0.774 0.634 0.008 9 11 11 0 0
3.6243 -0.9615 -14.0033 -0.679 -0.446 0.583 212 213 215 0 0
3.4963 -0.9043 -14.0374 -0.049 0.055 0.997 206 206 208 0 0
3.4503 -0.8839 -14.0461 0.221 0.144 0.965 199 196 196 0 0
3.3716 -0.8507 -14.0303 0.283 0.202 0.938 178 169 168 0 0
3.2918 -0.8172 -14.0135 0.283 0.202 0.938 131 116 111 0 0
3.2008 -0.7793 -13.9881 0.316 0.254 0.914 106 80 74 0 0
2.2506 -0.3880 -13.6440 -0.553 0.284 0.783 116 54 43 0 0
2.2227 -0.3748 -13.6638 -0.559 0.022 0.829 116 56 41 0 0
2.1932 -0.3610 -13.6823 -0.344 -0.002 0.939 117 57 41 0 0
2.1579 -0.3449 -13.6964 -0.197 -0.007 0.980 121 62 46 0 0
-3.1043 1.8580 -12.4256 -0.172 0.076 0.982 121 44 28 0 0
-3.4892 2.0251 -12.4373 -0.384 -0.016 0.923 123 43 23 0 0
-3.5198 2.0386 -12.4423 -0.213 0.122 0.970 124 42 22 0 0
-3.9724 2.2362 -12.4772 -0.248 -0.166 0.955 129 48 27 0 0
-4.0015 2.2491 -12.4825 -0.248 -0.166 0.955 133 54 32 0 0
-4.2710 2.5516 -15.7661 -0.640 0.764 -0.080 49 51 57 0 0
3.5822 -0.9037 -14.0030 -0.585 -0.211 0.783 212 213 215 0 0
3.4077 -0.8260 -14.0450 0.221 0.144 0.965 201 195 198 0 0
3.3307 -0.7937 -14.0303 0.283 0.202 0.938 180 173 171 0 0
2.1030 -0.2845 -13.6830 -0.058 -0.211 0.976 117 57 43 0 0
-2.9108 1.8020 -12.3858 -0.029 -0.222 0.975 129 57 40 0 0
-3.1178 1.8900 -12.3636 -0.271 0.115 0.956 120 43 27 0 0
-3.1677 1.9128 -12.3867 -0.098 0.227 0.969 122 45 29 0 0
-3.4738 2.0479 -12.4408 -0.401 0.002 0.916 121 40 20 0 0
-3.5081 2.0628 -12.4420 -0.107 -0.022 0.994 123 41 20 0 0
-3.8404 2.2070 -12.4595 -0.524 0.093 0.847 129 47 26 0 0
-4.0608 2.3052 -12.5154 -0.542 0.362 0.758 135 56 39 0 0
-4.6532 2.5973 -13.1518 -0.768 0.445 0.461 81 44 38 0 0
-4.6645 2.6036 -13.1767 -0.768 0.445 0.461 81 44 38 0 0
-4.6398 2.6265 -13.7570 -0.825 0.290 0.484 48 9 5 0 0
-4.6524 2.6333 -13.7816 -0.790 0.390 0.473 74 27 14 0 0
-4.6490 2.6462 -14.0295 -0.832 0.547 0.096 93 60 55 0 0
-4.2540 2.5712 -15.6797 -0.384 0.908 0.170 13 13 17 0 0
-4.2490 2.5720 -15.7325 -0.629 0.777 -0.019 41 43 49 0 0
-4.2457 2.5735 -15.7833 -0.629 0.777 -0.019 43 43 49 0 0
-4.2302 2.5735 -15.8975 -0.741 0.648 -0.177 37 33 35 0 0
3.5187 -0.8327 -14.0724 0.199 0.078 0.977 210 209 214 0 0
3.4391 -0.7994 -14.0562 0.221 0.144 0.965 206 205 209 0 0
3.3653 -0.7684 -14.0439 0.221 0.144 0.965 199 199 200 0 0
2.1766 -0.2785 -13.6867 0.035 0.118 0.992 115 56 43 0 0
-3.0816 1.9075 -12.4239 -0.122 0.148 0.981 122 45 29 0 0
-3.1518 1.9358 -12.3904 -0.098 0.227 0.969 122 45 29 0 0
-3.3885 2.0384 -12.4066 -0.217 -0.041 0.975 124 45 25 0 0
-3.4654 2.0733 -12.4372 -0.401 0.002 0.916 124 42 22 0 0
-3.5686 2.1178 -12.4401 -0.538 -0.020 0.843 130 48 27 0 0
-3.7681 2.2063 -12.4870 -0.591 -0.015 0.806 129 48 27 0 0
-3.9248 2.2725 -12.4665 -0.283 -0.030 0.959 134 52 31 0 0
-4.0101 2.3102 -12.4845 -0.462 0.105 0.881 129 50 28 0 0
-4.0245 2.3176 -12.5055 -0.784 0.025 0.620 133 54 36 0 0
-4.0861 2.3466 -12.5485 -0.751 0.369 0.547 139 63 45 0 0
-4.5137 2.5370 -12.6612 -0.549 0.445 0.708 95 25 6 0 0
-4.6225 2.6231 -13.3292 -0.674 0.724 0.149 83 46 38 0 0
-4.6288 2.6509 -13.7560 -0.871 0.490 -0.027 48 8 4 0 0
-4.6406 2.6575 -13.7814 -0.822 0.436 0.368 79 31 17 0 0
-4.6844 2.6778 -13.8069 -0.512 0.812 0.279 102 68 59 0 0
-4.4186 2.6488 -15.2569 -0.701 0.642 -0.309 91 55 43 0 0
-4.2407 2.5999 -15.7263 -0.878 0.452 -0.161 41 42 47 0 0
-4.2301 2.5989 -15.7870 -0.878 0.452 -0.161 48 47 52 0 0
-4.2092 2.5971 -15.9087 -0.793 0.573 -0.206 21 16 17 0 0
3.3966 -0.7418 -14.0551 0.221 0.144 0.965 207 207 210 0 0
3.3230 -0.7110 -14.0428 0.221 0.144 0.965 201 201 202 0 0
2.3805 -0.3221 -13.7908 0.385 0.277 0.881 112 52 41 0 0
1.9517 -0.1483 -13.6232 -0.445 0.125 0.887 116 54 42 0 0
1.9212 -0.1342 -13.6405 -0.445 0.125 0.887 116 53 39 0 0
-3.0995 1.9409 -12.3578 -0.416 0.322 0.850 124 47 31 0 0
-3.1496 1.9638 -12.3805 -0.082 0.530 0.844 118 41 25 0 0
-4.0014 2.3349 -12.4813 -0.394 0.314 0.864 135 54 33 0 0
-4.0260 2.3460 -12.4913 -0.687 0.356 0.634 134 55 37 0 0
-4.0578 2.3620 -12.5300 -0.476 0.110 0.873 137 60 41 0 0
-4.6631 2.6962 -13.7786 0.074 0.496 0.865 110 64 49 0 0
-4.6609 2.6978 -13.8217 -0.512 0.812 0.279 102 67 60 0 0
-4.5095 2.6895 -14.7674 -0.751 0.630 0.199 107 73 62 0 0
-4.3909 2.6692 -15.2773 -0.701 0.642 -0.309 92 56 44 0 0
-4.2187 2.6258 -15.7849 -0.873 0.450 -0.187 44 44 47 0 0
3.2093 -0.6239 -14.0307 0.246 0.157 0.957 193 185 187 0 0
3.0408 -0.5544 -13.9887 0.400 0.281 0.872 119 93 89 0 0
2.1360 -0.1870 -13.6724 -0.775 -0.287 0.562 114 55 43 0 0
2.1143 -0.1762 -13.6968 -0.775 -0.287 0.562 115 55 44 0 0
0.0529 0.6364 -12.5754 0.177 -0.407 0.896 114 51 40 0 0
-3.2866 2.0538 -12.4127 0.000 0.270 0.963 125 47 27 0 0
-3.8231 2.2870 -12.4768 -0.448 0.444 0.776 127 45 24 0 0
-3.9878 2.3577 -12.4834 -0.394 0.314 0.864 133 52 31 0 0
-4.0088 2.3676 -12.4972 -0.586 0.197 0.786 135 57 36 0 0
-4.0265 2.3762 -12.5147 -0.476 0.110 0.873 133 55 35 0 0
-4.0482 2.3863 -12.5278 -0.476 0.110 0.873 134 56 36 0 0
-4.5033 2.6178 -13.1352 -0.833 0.166 0.528 78 40 36 0 0
-4.4986 2.6184 -13.1791 -0.889 -0.209 0.408 80 42 37 0 0
-4.6082 2.7027 -13.7923 -0.668 0.733 0.128 96 44 28 0 0
-4.6295 2.7126 -13.8058 0.036 0.522 0.852 110 66 52 0 0
-4.6393 2.7185 -13.8338 -0.441 0.810 0.386 102 68 60 0 0
3.1738 -0.5694 -14.0343 0.139 0.014 0.990 194 188 190 0 0
2.9178 -0.4644 -13.9680 0.378 0.139 0.915 107 69 65 0 0
2.3826 -0.2462 -13.8098 0.312 0.057 0.948 114 54 42 0 0
2.1486 -0.1526 -13.7114 -0.081 0.107 0.991 114 54 43 0 0
-3.0197 1.9649 -12.3400 -0.430 0.583 0.690 122 48 31 0 0
-3.5368 2.1912 -12.4361 -0.479 0.425 0.768 129 47 26 0 0
-3.5498 2.1981 -12.4591 -0.293 0.412 0.863 131 50 29 0 0
-3.8079 2.3095 -12.4804 -0.532 0.424 0.733 129 47 26 0 0
-3.9741 2.3806 -12.4855 -0.394 0.314 0.864 132 51 30 0 0
-4.0233 2.4028 -12.5055 -0.600 0.319 0.734 134 56 34 0 0
-4.6174 2.7392 -13.8464 -0.702 0.659 0.270 100 67 59 0 0
-4.4803 2.7356 -14.7304 -0.843 0.538 0.007 100 67 55 0 0
2.8641 -0.4010 -13.9995 -0.056 -0.597 0.801 106 61 54 0 0
2.3498 -0.1968 -13.7722 0.245 0.014 0.969 113 53 42 0 0
-3.5218 2.2140 -12.4393 -0.433 0.476 0.765 130 48 27 0 0
-3.5757 2.2380 -12.4563 -0.670 0.182 0.720 127 46 25 0 0
-3.9605 2.4035 -12.4876 -0.394 0.314 0.864 134 53 32 0 0
-4.0008 2.4202 -12.4807 -0.822 0.355 0.445 135 56 34 0 0
-4.0109 2.4261 -12.5063 -0.448 0.246 0.859 135 57 35 0 0
-4.5207 2.6722 -12.9734 -0.599 0.747 0.288 69 32 26 0 0
-4.4660 2.6554 -13.0752 -0.813 -0.258 0.522 76 38 32 0 0
-4.5659 2.7420 -13.7752 -0.834 0.490 0.254 65 18 8 0 0
-4.4566 2.7514 -14.6597 -0.738 0.667 0.098 71 26 11 0 0
-4.4619 2.7586 -14.7384 -0.751 0.636 0.178 99 66 58 0 0
-4.2277 2.7123 -15.5822 -0.837 0.403 -0.371 27 25 31 0 0
-3.5088 2.2376 -12.4404 -0.297 0.631 0.717 131 49 28 0 0
-3.6946 2.3156 -12.4293 -0.530 0.506 0.681 128 45 26 0 0
-3.7827 2.3564 -12.4822 -0.850 0.169 0.499 131 49 28 0 0
-4.5002 2.6926 -12.9837 -0.599 0.747 0.288 70 34 30 0 0
-4.6093 2.7877 -13.7465 -0.839 -0.418 0.349 105 55 37 0 0
-4.4237 2.7639 -14.6013 -0.482 0.754 0.446 73 46 45 0 0
-4.4341 2.7702 -14.6303 -0.648 0.757 0.081 54 21 16 0 0
-4.4400 2.7750 -14.6652 -0.783 0.604 0.152 70 25 10 0 0
-4.4331 2.7781 -14.7600 -0.902 0.285 0.324 96 62 51 0 0
0.3099 0.6678 -12.6612 -0.961 0.189 0.201 114 52 41 0 0
-3.4593 2.2483 -12.4790 -0.802 0.073 0.592 129 47 26 0 0
-3.5004 2.2653 -12.4731 -0.788 0.090 0.610 129 47 26 0 0
-3.6421 2.3227 -12.4354 -0.695 -0.146 0.705 129 48 26 0 0
-3.7191 2.3571 -12.4639 -0.374 0.140 0.917 128 44 24 0 0
-3.7505 2.3729 -12.5037 -0.448 0.489 0.749 126 43 22 0 0
-3.7718 2.3828 -12.5176 -0.324 0.484 0.813 129 47 26 0 0
-4.1887 2.5606 -12.5430 -0.502 0.670 0.546 153 88 76 0 0
-4.5059 2.7147 -12.8510 -0.923 0.346 0.168 47 15 13 0 0
-4.4099 2.7857 -14.5607 -0.475 0.864 0.168 86 55 53 0 0
-4.4021 2.7859 -14.6133 -0.539 0.726 0.427 74 47 44 0 0
-4.4330 2.8130 -14.8301 -0.809 0.441 0.388 88 58 53 0 0
-4.4455 2.8201 -14.8568 -0.576 0.091 0.812 97 60 52 0 0
-4.4658 2.8297 -14.8732 -0.566 0.277 0.777 105 68 59 0 0
0.3171 0.6983 -12.6557 -0.961 0.189 0.201 115 53 42 0 0
-3.4964 2.2921 -12.4649 -0.716 0.008 0.698 130 48 27 0 0
-3.7081 2.3811 -12.4631 -0.374 0.140 0.917 125 44 23 0 0
-3.8301 2.4336 -12.4799 -0.314 -0.349 0.883 131 50 30 0 0
-4.4464 2.7265 -12.9815 -0.777 0.410 0.479 69 33 30 0 0
-4.5093 2.7709 -13.2508 -0.880 0.460 0.119 17 3 3 0 0
-4.3233 2.8262 -15.2664 -0.803 0.549 -0.230 97 72 68 0 0
-4.8340 3.1586 -17.0341 -0.805 0.213 0.554 180 180 180 0 0
-3.4579 2.3043 -12.4559 -0.836 -0.146 0.530 130 48 27 0 0
-4.4289 2.7480 -12.9884 -0.753 0.390 0.530 77 38 36 0 0
-4.5072 2.7850 -13.0484 -0.940 -0.044 0.338 15 5 2 0 0
-4.4971 2.7944 -13.2514 -0.880 0.460 0.119 21 3 1 0 0
-4.4425 2.8462 -14.3611 -0.802 0.597 -0.019 94 61 58 0 0
-4.2981 2.8477 -15.2834 -0.566 0.804 -0.182 75 55 50 0 0
-3.4796 2.3425 -12.4576 -0.511 0.276 0.814 128 46 25 0 0
-3.6825 2.4305 -12.5015 -0.448 0.667 0.595 128 43 23 0 0
-4.1071 2.6097 -12.5213 -0.267 0.215 0.939 144 75 58 0 0
-4.4200 2.7725 -12.9852 -0.647 0.596 0.476 83 43 40 0 0
-4.5126 2.8194 -13.1044 -0.793 0.418 0.443 14 2 2 0 0
-4.4548 2.8678 -14.1643 -0.841 0.540 -0.026 92 59 54 0 0
-4.4409 2.8745 -14.3476 -0.933 0.311 -0.180 93 62 57 0 0
-4.3447 2.8484 -14.5549 -0.465 0.546 0.697 93 63 57 0 0
-3.5508 2.4003 -12.4446 -0.135 0.495 0.858 130 48 27 0 0
-3.6794 2.4574 -12.4923 -0.881 -0.096 0.464 128 43 23 0 0
-3.8729 2.5341 -12.4335 -0.553 0.069 0.830 132 51 32 0 0
-3.9335 2.5624 -12.4777 -0.396 0.003 0.918 130 51 34 0 0
-4.0371 2.6081 -12.5118 -0.386 0.208 0.898 143 70 52 0 0
-4.4774 2.8592 -13.4796 -0.698 0.068 0.713 106 63 31 0 0
-4.5569 2.9076 -13.6982 0.254 0.057 0.966 94 41 27 0 0
-4.4052 2.8857 -14.2944 -0.900 0.289 0.327 92 58 54 0 0
-4.4344 2.8982 -14.2988 -0.936 0.337 -0.107 92 60 55 0 0
-3.8980 2.8002 -16.1105 -0.460 0.873 -0.163 24 20 19 0 0
-3.4206 2.3733 -12.4212 -0.467 0.228 0.855 127 46 25 0 0
-3.4495 2.3858 -12.4278 -0.818 -0.038 0.574 127 46 25 0 0
-3.6741 2.4808 -12.4492 -0.541 -0.104 0.835 127 45 23 0 0
-3.8459 2.5499 -12.4135 -0.615 0.158 0.772 132 51 31 0 0
-3.8645 2.5587 -12.4301 -0.615 0.158 0.772 131 50 31 0 0
-3.8830 2.5676 -12.4466 -0.615 0.158 0.772 138 57 38 0 0
-4.0051 2.6246 -12.5338 -0.572 0.200 0.796 143 71 52 0 0
-4.4828 2.9083 -13.7351 -0.329 0.338 0.882 60 13 6 0 0
-4.3957 2.9113 -14.2910 -0.900 0.289 0.327 93 59 55 0 0
-4.4256 2.9240 -14.2945 -0.936 0.337 -0.107 95 63 58 0 0
-4.7753 3.2531 -16.8940 -0.126 0.969 0.212 177 177 177 0 0
-3.0291 2.2359 -12.3679 -0.611 0.032 0.791 121 44 26 0 0
-3.4250 2.4029 -12.4045 -0.342 -0.368 0.865 127 46 25 0 0
-3.7828 2.5534 -12.4316 -0.217 0.393 0.894 132 52 31 0 0
-3.8506 2.5816 -12.4324 -0.513 0.404 0.757 133 52 33 0 0
-3.8638 2.5886 -12.4546 -0.371 0.353 0.859 137 55 36 0 0
-3.9081 2.6088 -12.4800 -0.404 0.296 0.866 134 57 38 0 0
-4.3954 2.8438 -12.9359 -0.684 0.636 0.359 76 39 30 0 0
-4.4043 2.8495 -12.9631 -0.684 0.636 0.359 91 56 46 0 0
-4.4133 2.8552 -12.9903 -0.684 0.636 0.359 46 24 20 0 0
-4.4233 2.8612 -13.0165 -0.677 0.571 0.465 12 3 5 0 0
-4.4519 2.9234 -13.7186 -0.799 0.597 0.064 42 10 5 0 0
-4.4612 2.9293 -13.7470 -0.568 0.633 0.526 68 20 10 0 0
-4.4137 2.9311 -14.0476 -0.919 0.379 0.105 93 61 55 0 0
-4.3842 2.9333 -14.2489 -0.650 0.729 0.215 93 59 54 0 0
-3.8267 2.8363 -16.1248 -0.605 0.794 -0.054 24 19 19 0 0
-3.0340 2.2661 -12.3511 -0.827 0.183 0.532 122 43 26 0 0
-3.1101 2.3000 -12.3841 -0.697 0.214 0.684 124 45 27 0 0
-3.8338 2.6034 -12.4378 -0.313 0.522 0.793 134 53 34 0 0
-3.8543 2.6130 -12.4522 -0.313 0.522 0.793 135 53 35 0 0
-3.8708 2.6211 -12.4710 -0.371 0.353 0.859 132 54 34 0 0
-4.3769 2.8623 -12.9062 -0.831 0.400 0.387 65 26 24 0 0
-4.3862 2.8763 -13.0460 -0.887 0.442 -0.129 11 2 4 0 0
-4.2227 2.8393 -13.4677 -0.547 -0.369 0.752 22 4 4 0 0
-4.4433 2.9515 -13.7544 -0.568 0.633 0.526 72 24 11 0 0
-4.4735 2.9642 -13.7571 -0.004 0.544 0.839 104 57 40 0 0
-4.5604 2.9981 -13.7295 -0.160 0.793 0.588 96 67 58 0 0
-3.8225 2.8661 -16.1126 -0.982 -0.177 -0.065 25 19 19 0 0
-3.8196 2.8685 -16.1635 -0.982 -0.177 -0.065 25 19 19 0 0
-3.4499 2.4726 -12.4270 -0.482 0.312 0.819 128 46 25 0 0
-3.8746 2.6526 -12.4907 -0.387 0.011 0.922 147 72 51 0 0
-4.3648 2.8856 -12.9069 -0.871 0.232 0.433 66 27 25 0 0
-4.3755 2.8919 -12.9320 -0.871 0.232 0.433 82 44 37 0 0
-4.3879 2.8987 -12.9553 -0.917 0.398 0.017 87 55 48 0 0
-4.4265 2.9711 -13.7206 -0.615 0.774 0.154 46 8 4 0 0
-4.1582 2.9657 -15.1476 -0.461 0.703 0.541 87 56 48 0 0
-4.1513 2.9668 -15.2007 -0.839 0.543 0.031 85 52 45 0 0
-4.0325 2.9459 -15.5818 -0.768 0.525 -0.367 51 46 46 0 0
-3.8939 2.9057 -15.8132 -0.988 -0.111 -0.110 48 44 45 0 0
-3.8880 2.9073 -15.8670 -0.988 -0.111 -0.110 44 40 40 0 0
-3.7295 2.6183 -12.4506 -0.274 0.534 0.800 131 52 31 0 0
-4.3535 2.9092 -12.9065 -0.837 -0.056 0.544 70 31 29 0 0
-4.3621 2.9148 -12.9341 -0.844 0.011 0.536 87 49 43 0 0
-4.3774 2.9225 -12.9540 -0.975 0.157 0.158 82 51 45 0 0
-4.4234 3.0040 -13.7894 -0.497 0.667 0.555 103 59 42 0 0
-4.4405 3.0125 -13.8084 -0.584 0.666 0.463 103 69 60 0 0
-4.3198 3.0109 -14.4505 -0.862 0.504 -0.059 93 63 57 0 0
-4.1422 2.9871 -15.1081 -0.628 0.664 0.406 87 54 45 0 0
-4.1461 2.9916 -15.1469 -0.699 0.491 0.520 85 52 44 0 0
-4.1371 2.9953 -15.2469 -0.878 0.474 -0.061 86 51 43 0 0
-3.9810 2.9600 -15.6335 -0.856 0.371 -0.360 50 44 42 0 0
-3.9270 2.9467 -15.7513 -0.897 0.345 -0.276 47 43 44 0 0
-3.4874 2.5464 -12.4365 -0.384 0.096 0.918 126 45 24 0 0
-4.3496 2.9351 -12.8977 -0.837 -0.056 0.544 72 34 33 0 0
-4.3785 3.0117 -13.7501 -0.442 0.801 0.404 49 10 4 0 0
