ply
format ascii 1.0
element vertex 709
property float x
property float y
property float z
property uchar diffuse_red
property uchar diffuse_green
property uchar diffuse_blue
end_header
2.6264893571088446 -2.6785275079834516 -14.285435042941305 68 14 1
2.6258781793190695 -2.6712718969078137 -14.33460049696188 73 17 3
2.6276759494944266 -2.672987876163071 -14.372307167649819 80 23 7
2.6333796013994157 -2.68928085056527 -14.391152012928856 79 26 5
2.637552147441429 -2.699848950587036 -14.417490017201246 77 28 8
2.640247034691437 -2.704883767220079 -14.451136254980339 78 34 15
2.6429000077262943 -2.709749047485169 -14.485106689446928 79 39 20
2.6455596973601976 -2.71462651751349 -14.519164314879017 81 44 26
2.6482261649375887 -2.7195163568917806 -14.553309293537815 87 52 35
2.6506505009769525 -2.723485861847168 -14.588778541318359 90 59 41
2.6524498418117823 -2.725098327279647 -14.627493714813076 88 61 43
2.654828143508484 -2.7288658074530465 -14.663466022854127 84 57 39
2.6568241494347404 -2.731184295121121 -14.701491082946939 81 55 37
2.659686005789342 -2.7367375597900496 -14.735303582226408 81 56 38
2.661761057823855 -2.739322579996805 -14.773211428438373 75 52 35
2.664583973914218 -2.744702310181764 -14.80747401324931 66 42 28
2.667253913151557 -2.7494937027315363 -14.842637151354053 59 33 23
2.666200584708332 -2.7402646266862645 -14.896941497724413 49 23 14
2.6701560295042914 -2.749859621248108 -14.925840946616823 42 14 7
2.673267652121237 -2.756267885835472 -14.959163957885988 37 7 3
2.674771036765989 -2.756604405235506 -15.000900792175663 37 7 3
2.6769687552759818 -2.7595395654881854 -15.039216411523789 39 8 3
2.679068157207556 -2.762087758415281 -15.078193013541064 46 12 6
2.6811739976752627 -2.7646435904843036 -15.11729078352223 49 14 4
2.6778113845082028 -2.746536650496753 -15.185157293280488 59 22 9
2.6815456863713356 -2.7551995179489843 -15.216116892884127 65 26 11
2.68462718252069 -2.7613845714869845 -15.250614495380947 77 37 18
2.688310857374213 -2.7698334636944617 -15.28205112225563 86 45 25
2.693691286845259 -2.7846909558654183 -15.304586040116572 81 33 15
2.704895163283248 -2.821588504814569 -15.296150881408069 74 15 2
2.7078091469701384 -2.8271077926904784 -15.331834572605946 75 13 1
2.7134521492352226 -2.842954429164605 -15.353015980190234 81 19 1
2.7187586224698186 -2.857521927164104 -15.376037956718761 90 24 3
2.7222188815005115 -2.8650811122019 -15.409072831510208 101 30 6
2.7287966115940328 -2.884460818329014 -15.425325968175745 110 37 6
2.733642294122833 -2.897263338146188 -15.450993772677233 106 34 3
2.738387878994795 -2.9096789077287086 -15.477269251248265 111 47 15
2.740905014062976 -2.913615177571306 -15.515816500112669 88 32 11
2.743744204520819 -2.9187600651343146 -15.552746396855564 58 13 4
2.748691590232882 -2.9319136311296354 -15.578187983186673 38 8 5
2.7662325675029527 -2.9930193312524684 -15.533969523391464 25 8 7
2.7472557191155214 -2.915028366829029 -15.692201887990137 18 6 5
2.7615568042744063 -2.963798718005421 -15.665894648945764 15 5 5
2.7693211126777495 -2.9876675046242402 -15.675853842163285 13 4 4
2.837751357385196 -3.208831992612887 -15.66331227356309 20 20 26
2.8326120437724716 -3.1833291139357627 -15.746867068529703 17 16 22
2.8254472985480406 -3.1500080345483816 -15.842610437342024 15 14 20
2.819484683175898 -3.10333800296931 -16.098237328257532 19 18 23
2.8245783435198755 -3.1169006088844418 -16.12424401411171 21 20 24
2.8468288888406303 -3.1964778236036446 -16.048967170049462 29 26 29
2.8719926814895516 -3.2873451992073015 -15.955741259779845 31 27 28
2.8583263138451067 -3.216549219296989 -16.205605039989592 27 23 24
2.9039044652484334 -3.3433957905176035 -16.38732881827589 64 60 57
2.8794779639476276 -3.2360161112386914 -16.655954022842693 83 82 82
2.8930738399006763 -3.2824344842186015 -16.63045199435264 93 90 91
2.9103408343081227 -3.3431563443693575 -16.581623341222674 100 98 99
2.924546375673334 -3.3920248833423363 -16.551552790163022 106 104 105
2.923234974393137 -3.380542670848887 -16.619087281449715 113 111 113
2.9317978879120687 -3.407474283443566 -16.62442462769368 120 118 121
2.931535954409486 -3.3935633977546766 -16.745838789291447 137 136 138
2.9371259644157495 -3.4088792469717175 -16.770369791045425 149 148 152
2.946673200766247 -3.4396413229899023 -16.769496093564662 154 153 158
2.957279195777238 -3.4745554024280505 -16.761645548102106 161 160 165
2.9628046057957347 -3.4896253381189624 -16.786533307429544 168 167 172
2.997336337015716 -3.618179902408814 -16.62274966312476 172 171 175
2.997073955686523 -3.610654282186439 -16.684832038309274 176 177 179
3.0062977886463482 -3.640258597485057 -16.685063010734176 180 181 183
2.998884228688038 -3.6046477137738027 -16.794653439559323 184 185 187
3.0106692558268247 -3.6442838665665613 -16.778119283821038 188 189 191
3.0194657758429955 -3.6722149826623385 -16.78114248987795 189 190 192
3.0645330596207008 -3.829564627996673 -16.66425103100553 195 195 197
3.0811710237878587 -3.888468658200618 -16.613538694183948 197 197 199
3.0926206819958884 -3.926987749171187 -16.597374051862225 197 197 199
3.1344842921625777 -4.065795981907229 -16.557128280795908 199 199 201
3.1457190704117286 -4.103595334192309 -16.54123761953969 200 200 202
3.1379465575610195 -4.066210207298006 -16.656598927432228 200 200 202
1.1878201649491422 1.6986172999488627 -12.888014368323766 173 155 145
1.2019239536229218 1.653195467940054 -12.885441346255615 143 108 94
1.2158714663607189 1.608307143497984 -12.883188384450364 139 93 75
1.2228673371317287 1.5877402816483492 -12.900859826284298 125 69 52
1.2429352487126222 1.5214014951016095 -12.880705578511858 114 54 37
1.2599628934242366 1.4656862913452349 -12.869136924261 112 46 31
1.2494754449083048 1.5063473577316424 -12.937493754933563 118 42 29
1.2533333878953594 1.5007219896471726 -13.002398715716698 119 44 26
1.267380221989336 1.455435624061315 -12.999373319241016 117 43 27
1.289193252003456 1.382898376723392 -12.97332110918778 114 42 29
1.2906947156297237 1.3815876199712296 -13.007058914333314 106 40 29
1.3210188156913372 1.2791467005182184 -12.955394101583089 95 36 27
1.3378545117507277 1.2240052151588472 -12.943431454032721 89 31 25
1.3504958505274742 1.1835706821451772 -12.943802145632807 100 52 43
1.3516035296138207 1.1836304150578147 -12.97859882605476 112 70 61
1.3603233849913088 1.1569601551599717 -12.99063669729226 79 30 22
1.3587289071364004 1.166529535655469 -13.033715685237397 87 36 26
1.358387480764954 1.1717109237800925 -13.073164788405155 85 35 23
1.3610472963520222 1.1663543520071986 -13.103648879682051 84 36 24
1.362358470301693 1.1657488375840677 -13.13831306378453 85 38 25
1.3659722508443242 1.1570539973625724 -13.166056536065582 87 42 28
1.3688799488256955 1.1508500380764595 -13.1960218915283 89 43 29
1.3714876202527666 1.1457098595713573 -13.226983111427643 88 43 29
1.3741005060591518 1.1405597075601577 -13.258009184911145 84 38 23
1.378419388903061 1.129409808761772 -13.283846152613695 87 40 24
1.3824958140330326 1.1191190776170634 -13.3104831152268 87 41 25
1.38598858030453 1.1108905954608783 -13.338988061787619 81 37 22
1.3897157583762407 1.1018426156997068 -13.366827235616768 84 42 23
1.3947664892824219 1.0881343445896725 -13.390587063722736 85 45 26
1.3976970464684615 1.0819072411467632 -13.42103529836151 82 43 27
1.4019138159773075 1.0711505684209675 -13.44751198389405 69 34 22
1.4047144795655204 1.0653965749853072 -13.47851252947429 50 21 12
1.4071416869756774 1.0609691941060895 -13.510776582934955 39 15 7
1.4127972718466264 1.0451517784321522 -13.53287071038978 28 8 3
1.420254491415014 1.022973576689247 -13.549246538309681 21 4 3
1.4302076339563317 0.9919760711103516 -13.557630097998636 17 4 4
1.4357404286509787 0.9765938924336526 -13.580130537406301 10 4 3
1.4419041316586476 0.9589842019368247 -13.600628024164156 9 7 4
1.4447237246051117 0.9532012508535379 -13.631933945050864 12 6 4
1.4461402060673705 0.9523899130372602 -13.667865405192202 49 25 13
1.4369179105694667 0.9892327335474222 -13.73846389516483 118 65 34
1.4786275643958193 0.8458459793504511 -13.643440209423943 145 70 31
1.4876124550747263 0.8182429991540854 -13.654665855618514 129 49 24
1.4993082492619942 0.7810350119252956 -13.656959251394246 120 43 24
1.5024476652463608 0.7741276797408672 -13.687296140651558 119 46 25
1.5107892419504112 0.7487940613106137 -13.700545307549556 112 42 20
1.5185831098842457 0.7253986861191457 -13.715576514547763 119 47 28
1.5330644984641006 0.678289101453128 -13.708383232643506 116 45 25
1.5633711503229208 0.5750335937780253 -13.648319134118573 123 51 29
1.5834996098584186 0.5078382950277316 -13.621770650700533 127 55 34
1.599943962090006 0.4536887755298693 -13.60728977260241 125 54 32
1.6055278142788687 0.4380739018711193 -13.629122211332938 131 61 40
1.6222004506031533 0.38308313624128587 -13.613576393857915 123 55 36
1.6290330424484911 0.3630253041687004 -13.631115353002102 124 53 35
1.6381219107240144 0.3349497974850042 -13.640993677880022 125 54 35
1.6400840997914687 0.3322010237355064 -13.6750890645186 124 52 33
1.6269844959387116 0.3830172202389317 -13.760737171074695 124 51 32
1.6486475790332284 0.3102353579025401 -13.72769217146284 124 51 32
1.660990019904113 0.27058180547698285 -13.726364757746229 125 52 32
1.6709033855110613 0.2395607588816846 -13.733292305578301 125 51 33
1.6971102169010206 0.15052546284169654 -13.683785406242272 125 51 34
1.6706412372799302 0.24903924223564644 -13.816654776464269 134 55 31
1.6818784092418837 0.2133035238784089 -13.818986075152417 147 63 29
1.695703517593432 0.16833529405265413 -13.812180554956647 158 89 46
1.7904233856023102 -0.1481061997463229 -13.684972458999951 131 57 33
1.7945948315208238 -0.1587345165576961 -13.711287482551727 126 52 35
1.8067277338517171 -0.19779292221014444 -13.709229428846307 120 49 31
1.8110736872979825 -0.209042515647762 -13.734940718997002 118 48 30
1.823821308869063 -0.25031471360249746 -13.730511956830854 116 46 28
1.835883300475642 -0.28915013316663707 -13.728414879716116 128 62 37
1.8508850775499557 -0.3385124500544192 -13.715560919445233 154 88 49
1.8647549291007177 -0.38384522103025187 -13.706620096944542 126 56 33
1.8777109194705734 -0.42592489688721447 -13.700836979889559 119 48 30
1.8905176855947268 -0.4674856958470972 -13.695450599402593 153 79 39
1.9008222244872832 -0.5001004965869109 -13.699084243698769 163 81 36
1.905943752929017 -0.5141564981123654 -13.721675896797779 147 65 35
1.9170212046048678 -0.5495530761639253 -13.722345329443352 136 56 34
1.9278729146358549 -0.5841514496011104 -13.723742924424615 143 75 41
1.9398527948148145 -0.6228061382714696 -13.72085305768515 168 110 74
1.949127966139923 -0.6517714889961148 -13.727900555561082 158 101 75
1.96049918605503 -0.6882654810389806 -13.727056242714323 149 86 66
1.9711041201040098 -0.7220206681214174 -13.728966216224674 149 77 58
1.9821040336773423 -0.7572044435514087 -13.729293617450388 137 60 38
1.9893152467617439 -0.7787892172017745 -13.743795591797612 132 54 31
2.0003303622553155 -0.8140453979700188 -13.743893972060018 128 51 23
2.0126245666077893 -0.8539110761204904 -13.739029478958315 136 57 26
2.026198781119117 -0.8983944809658713 -13.72915116733618 138 60 30
2.0391511139097003 -0.9406587597060181 -13.72147375643371 134 59 36
2.051516133660924 -0.9808260387738761 -13.715886759829164 121 54 39
2.064439589451004 -1.0230187683121823 -13.708007635011032 110 52 33
2.0747926983583342 -1.055971790552591 -13.70987816895792 121 65 37
2.0894554954585267 -1.1044605606330258 -13.694981024085147 147 77 43
2.104693534614926 -1.1550437045135427 -13.677645885635602 148 65 30
2.1184213248430757 -1.200205208123827 -13.665968883020293 146 62 30
2.1236717932371905 -1.214813308103956 -13.687216576421523 158 78 44
2.134967196947928 -1.251226778867017 -13.684806999060859 156 84 48
2.147472583975617 -1.29202001911258 -13.677516347768812 138 77 45
2.1547675664329353 -1.314018159387011 -13.690617548348744 127 71 47
2.160208195368982 -1.3293215024457634 -13.711031359607333 117 60 43
2.1695031166400573 -1.3585479194134162 -13.71616988683924 124 64 48
2.178128208726352 -1.3853612051625346 -13.723900063721237 133 70 51
2.1864431423103436 -1.41105916046273 -13.732810512514504 133 68 46
2.194235484158193 -1.43487219846548 -13.74376439868609 137 70 46
2.2056462718131344 -1.4717819667543797 -13.740130509143455 131 61 35
2.2173982395984697 -1.509940455591373 -13.734987592644348 134 62 37
2.221737401946973 -1.521271431195295 -13.759703795754238 133 60 36
2.242009633159813 -1.590313486435332 -13.719776951653706 129 56 35
2.2511149839112816 -1.618927205760527 -13.724971079241605 124 55 38
2.259485236001604 -1.6448837999061086 -13.73309482435213 117 50 34
2.2685502151205976 -1.6733656204813663 -13.738314460278522 120 59 34
2.274178414791047 -1.689386691191598 -13.757597419178495 161 99 57
2.2851350458262054 -1.7247446596170999 -13.754906813918911 178 109 53
2.2945896593813013 -1.7546622710840065 -13.758309248185297 155 78 36
2.3033860794805032 -1.7821981692628688 -13.764359640139176 131 55 34
2.3132652692869913 -1.8136755119997012 -13.76582841041537 129 53 29
2.3221354960459992 -1.8414955502667594 -13.771417195606169 163 80 42
2.3309809736748437 -1.869233032834905 -13.777037997572627 182 115 79
2.3386697508915955 -1.892770063811473 -13.787455678146568 182 127 97
2.347980932899734 -1.922215582330721 -13.790982372158487 155 87 58
2.3554271189329654 -1.944880066290282 -13.802325026426285 143 74 44
2.3633611582034564 -1.9693248837340152 -13.811560208581565 127 60 35
2.3697485175426114 -1.988139183303491 -13.82734357135998 125 60 42
2.3758439167683107 -2.005889744755903 -13.844371589035763 135 70 57
2.380711418620028 -2.0191623923357547 -13.866674278791141 150 87 73
2.3910704106805456 -2.0524638476362895 -13.86536441272289 151 91 76
2.394652393008856 -2.061045153067055 -13.893221057624682 151 93 80
2.41481371436829 -2.1301485690526443 -13.849275707385303 157 95 81
2.421681878665998 -2.150741329523119 -13.86275191990808 175 108 90
2.432734445358199 -2.18662549172792 -13.857947693675149 170 102 83
2.441694437658532 -2.2148750073066035 -13.862165491226161 169 100 80
2.442272149653582 -2.2124796598143153 -13.903126692622973 170 99 78
2.4572350224007473 -2.262694293425347 -13.880846532187284 163 89 66
2.477754957696893 -2.3332740168211954 -13.833734684485417 158 82 57
2.486062374001559 -2.3591818362635584 -13.840387844331957 157 76 49
2.491003361803137 -2.359127766393371 -13.993554939383571 152 73 48
2.4966408910782456 -2.375228825761792 -14.012354285706994 154 77 54
2.506551699196799 -2.407014246591465 -14.011827109222711 139 57 31
2.5155916229565096 -2.4356132171401486 -14.015142271567695 129 43 17
2.535320122788799 -2.503489710466866 -13.96966447173753 120 34 6
2.541631168020482 -2.522093828557054 -13.985118324504523 110 26 5
2.550963149338439 -2.551806612239176 -13.986708651052464 99 21 7
2.5575362710115024 -2.571380729785526 -14.00089914904817 93 19 5
2.558580359758394 -2.570608074172565 -14.040610529328443 83 15 1
2.558534276986762 -2.5658051971759512 -14.085531500618146 76 11 1
2.55959869261556 -2.5650728063861834 -14.125482323982688 76 12 1
2.5709880916972927 -2.6023723965730907 -14.117426134747845 80 13 2
2.5760174420170987 -2.6162412877099106 -14.13897555884212 88 16 4
2.5819380816179347 -2.633393887535264 -14.156374547135066 93 19 6
2.5867212667692256 -2.6463484998407925 -14.179141216188029 98 27 9
2.590169145243523 -2.6543690837357765 -14.20826549592286 100 32 9
2.5966497037938314 -2.6735813010147496 -14.223088479427803 83 24 7
2.600907452249984 -2.6845813321712155 -14.248482905416306 64 14 2
2.601103031866549 -2.6805585653763293 -14.293342164223102 64 16 5
2.603743640321 -2.685558245280868 -14.326676650592717 65 16 4
2.60770465570491 -2.695431497260456 -14.353776582371678 66 16 4
2.6107993074311677 -2.7020901621869315 -14.385130015675912 67 15 4
2.614283288799366 -2.7101801177632288 -14.41470025550883 70 17 4
2.617121920281045 -2.7158696757241447 -14.447495529910153 71 17 4
2.61992941679718 -2.7214322466336576 -14.480554272699141 69 17 2
2.622743653767206 -2.7270080560035197 -14.513693510466144 68 18 3
2.6190618192935675 -2.708469689198778 -14.578831228288404 71 22 6
2.6214034601081506 -2.712256192181119 -14.614635868435906 71 24 8
2.6233923391295426 -2.7147189384730392 -14.652315785169709 72 28 12
2.625340434292479 -2.717015145523832 -14.690342733262174 76 33 17
2.6272947423588615 -2.719319198140786 -14.72848591627191 77 40 22
2.630952449970359 -2.7279429954414782 -14.758271975859842 82 49 29
2.633097249075692 -2.730928105271037 -14.795728371377834 86 57 36
2.636282272195515 -2.737770756134613 -14.828098366101457 86 58 37
2.6385692520862354 -2.7412574904530507 -14.865106901071513 87 60 40
2.640843097185303 -2.7446807573437173 -14.902322073217867 86 57 39
2.643146685366583 -2.748200237678506 -14.939527721850226 77 47 31
2.6444490036150246 -2.747970442885114 -14.981978511129707 69 39 23
2.6459043387454773 -2.7482932378217795 -15.023824425475157 59 30 17
2.648260224660071 -2.751960288323243 -15.061221788081092 43 15 7
2.650384617915057 -2.754747835946822 -15.099954118293734 44 15 9
2.6544242409880976 -2.7646773097446307 -15.128940027852398 43 15 6
2.649590637314433 -2.741420153213655 -15.204028593396497 41 13 7
2.6528206085214845 -2.748286632727508 -15.237557269516813 42 11 7
2.6566228167937256 -2.7572829464387887 -15.268212947029292 41 7 4
2.660940713291376 -2.7682004919114664 -15.296261501277392 44 7 2
2.667096598374133 -2.7859963160399825 -15.31472139502323 66 17 8
2.67716450645027 -2.81845548055927 -15.312546427998061 102 45 27
2.684779342029407 -2.8417284213626974 -15.323228076736445 109 50 19
2.6894589322119016 -2.853991782753173 -15.349464436316794 116 54 17
2.6967724769585466 -2.8761371090404433 -15.36171884528435 116 49 16
2.700930483590532 -2.8864328758704882 -15.390827570617247 115 44 14
2.7053718868105348 -2.897784869677145 -15.418499559752952 110 36 6
2.7098197542940965 -2.9091533824059086 -15.446211857005828 108 32 5
2.7156568438276807 -2.9257405209691916 -15.466486008531216 107 40 10
2.721889797393098 -2.9438153618784453 -15.484634501848838 96 44 19
2.7231742377470947 -2.943252771114759 -15.529744241556429 59 14 5
2.7246259643356754 -2.943299937745355 -15.574138308549049 31 5 4
2.736721910651979 -2.98345689400469 -15.560338248470714 19 6 6
2.722883171478683 -2.925807696626504 -15.689085748856115 16 4 4
2.7416119919195885 -2.990991169064653 -15.638710061161422 13 3 4
2.7410864337250858 -2.9835163053344056 -15.694601199926755 12 3 4
2.7555114682893365 -3.0324996465433642 -15.667586402846865 12 2 3
2.78735664016283 -3.1473687843062095 -15.54298889351865 16 8 9
2.7995284247781784 -3.187931042258427 -15.52762086085735 30 27 32
2.8246584597215247 -3.2721055155309795 -15.491751520846023 80 79 84
2.8047304522404093 -3.1855813854170805 -15.711003355575109 29 28 34
2.790719397558079 -3.126865853448102 -15.844716828714628 20 19 25
2.8202812567982245 -3.199428042594411 -16.05781389094949 35 31 34
2.8386264555614256 -3.2635613377382766 -16.005720240888582 32 28 29
2.84294891050431 -3.2627134656595587 -16.14743824709052 27 23 24
2.8602882766689772 -3.2936997600885523 -16.384117705738525 49 44 41
2.8659064559325182 -3.3092619090294804 -16.407519393770087 56 51 48
2.871484334108492 -3.3246649453022235 -16.43121136613844 65 61 58
2.9137689532701456 -3.450922573003594 -16.519235408868873 113 111 113
2.909840047538715 -3.4296948079495264 -16.602691126691923 120 118 121
2.9171396695099574 -3.4516928202474393 -16.615936893876782 129 127 130
2.913445699915744 -3.4312959495394244 -16.69863306653762 138 137 140
2.923653550866775 -3.4644967304577756 -16.69362533585302 147 146 150
2.9288073496930314 -3.4781986152258675 -16.720630936595494 156 155 160
2.938655499501563 -3.510032233513267 -16.717702939462086 161 160 165
2.9472578544579147 -3.5370649463631016 -16.722613353689706 168 167 172
2.9710948439721983 -3.6230506667039224 -16.6293197104717 172 172 176
2.9774711084970327 -3.641523164246472 -16.648058480654463 176 177 180
2.973407088696227 -3.619548195716403 -16.734550053425522 180 181 183
2.9817832069337116 -3.645744694029692 -16.740540106344586 184 185 187
2.9911979718104784 -3.675979323820102 -16.739652447242097 188 189 191
3.000062202011029 -3.704091369406541 -16.742238295950976 188 189 191
3.011840034455498 -3.743532557799411 -16.725517218082803 193 194 196
3.0316652938825 -3.807986467878716 -16.71605438097596 195 195 197
3.052925369807797 -3.884406099767287 -16.635456892516967 196 196 198
3.088869108932116 -3.999251913178906 -16.637704322842815 198 198 200
3.090280297456819 -3.9984131128040907 -16.689395024559357 198 198 200
3.1033724266614064 -4.043198983501344 -16.661704719202937 199 199 201
1.159401608512081 1.6853962371328963 -12.780931976631676 206 199 200
1.1413177402363681 1.7519154019605327 -12.86936294423176 179 160 153
1.1595790752088875 1.6922438065832441 -12.855333146772438 157 122 104
1.1747228714916291 1.6433828396200125 -12.849956682507017 150 101 80
1.1883558278653132 1.5997574145394644 -12.848738037623775 150 88 66
1.2022486849036573 1.5552166448809865 -12.846656568502635 132 67 44
1.1946529431044164 1.585373372575554 -12.906046311266028 120 52 33
1.209632541111786 1.5370473757513246 -12.90078022290642 116 45 29
1.2293513096446844 1.4722216650473143 -12.881699477637127 114 40 26
1.2225867400247274 1.4995190239748357 -12.93901165885056 113 37 24
1.2491370989179806 1.4222341107217016 -13.013671631563618 125 57 43
1.261442642827634 1.3831671405644999 -13.015690024401303 118 53 39
1.2722273881684392 1.3493899174907744 -13.022091292428197 101 41 28
1.3148357997213567 1.2046765702951738 -12.934321071165158 92 35 24
1.330250869260067 1.1547113238851745 -12.926549942011622 80 27 18
1.3308436829812114 1.1564238563671463 -12.96272002910684 81 28 17
1.3354228538738662 1.1442413641205782 -12.98710656147081 84 31 19
1.3380587440551008 1.138843838732126 -13.017351584826223 87 36 25
1.3394344129000233 1.137852600538885 -13.051458300616645 88 37 23
1.3406292019627393 1.1375029244955561 -13.086210878765186 89 45 32
1.3421004452936076 1.136198257233482 -13.12023287295413 85 46 33
1.340919360204866 1.1441685747869563 -13.162395233786466 74 39 26
1.3422870458733458 1.1432482581218384 -13.196958022722393 66 33 22
1.3470156769885557 1.1305915701354898 -13.221372105002494 60 29 19
1.34968013881572 1.1251551680574359 -13.25214195904858 54 25 15
1.3536632185569117 1.1151155430695523 -13.27894387620676 43 17 9
1.3567123657620854 1.1083481532657347 -13.308675849721112 34 11 6
1.3597514667552226 1.1016231633410163 -13.33851160431528 26 6 3
1.3637934807458234 1.091395466547854 -13.36531344808215 21 6 3
1.3685663641104786 1.0786145644224163 -13.38989811959621 19 6 3
1.372200686911103 1.0698246374567741 -13.418072709559326 18 5 3
1.3789957061982263 1.0499699301015042 -13.43642553055161 14 3 2
1.3832539289866004 1.0390035077317243 -13.462737809501592 16 6 5
1.3857855953782416 1.0340931832290616 -13.49453443809757 21 12 11
1.3901699059683073 1.0226966329963743 -13.520568030904407 21 12 11
1.3989692886616614 0.9958229331597526 -13.532669924608552 24 15 18
1.4035329445328637 0.9838027664098608 -13.558188605833731 20 13 15
1.4123679629644479 0.9568006191767404 -13.570142672773148 12 9 10
1.4259629612293114 0.9130889237524151 -13.566842707891428 6 6 6
1.4344088865724438 0.8874401780133114 -13.579918434461563 9 7 5
1.4435252858404501 0.8594338237929042 -13.590805785712764 9 4 2
1.4259365386454297 0.9252276764283422 -13.687813634353235 54 24 8
1.4510632452882533 0.8409850615334458 -13.647059593193028 147 82 41
1.46454630187479 0.79762867955115 -13.643740535740818 137 56 26
1.4779793155768441 0.7544348036853536 -13.640449725593214 128 53 27
1.4791557584485946 0.7543297349019351 -13.677069517056012 121 45 25
1.4883283911198846 0.7261081905177216 -13.687598160282192 120 48 29
1.491555555781345 0.718802255485369 -13.717626423476903 123 50 31
1.5060447924081521 0.6718642479353889 -13.710586098721313 120 47 28
1.526534515188279 0.603784153474427 -13.6835352553304 119 47 27
1.5441961258714532 0.5456358411395605 -13.66558672842724 123 52 32
1.562188450022683 0.48629993148429307 -13.646310912328286 123 52 32
1.5682022779628042 0.46915154661683545 -13.666805993543537 129 58 38
1.5943294895908422 0.3811063985875647 -13.619932055243165 129 58 38
1.6124988470566834 0.32107987921047076 -13.599394986835058 126 55 35
1.6222370171938483 0.29076640947709276 -13.607041021239677 125 54 34
1.597720821792243 0.381299326262595 -13.730471578510045 125 52 33
1.610037721036485 0.3419087062121422 -13.729605660691213 124 51 32
1.6168612857996552 0.321898989593401 -13.747317039013605 126 53 34
1.6398436217993133 0.24482777090871188 -13.709859788651569 126 53 34
1.6411711074922888 0.24421464704282947 -13.746218019287701 124 51 33
1.6687806889822516 0.15074684469487032 -13.692396796204184 125 52 34
1.6560802444767497 0.20381297871087956 -13.818219201351042 142 62 30
1.6709279663288514 0.15541795655438229 -13.808037238533899 154 75 35
1.6861986412763779 0.10550893931723593 -13.79620632416647 163 112 71
1.7404163342744758 -0.0699978917821733 -13.771185145263651 136 62 35
1.7689441828996952 -0.1669680944423204 -13.711622403722624 128 52 35
1.7790148950858389 -0.1985670645240667 -13.717017212325494 121 48 31
1.789289720131726 -0.23089741564139743 -13.721608803252973 116 47 31
1.7997573632292005 -0.2639198193117238 -13.725430150112768 115 48 30
1.811056521630427 -0.2999009449436931 -13.726187875840118 145 79 44
1.8269461986387867 -0.35218412521432896 -13.710354128997015 168 96 46
1.8408585962448085 -0.39746891733207157 -13.701431870360814 136 61 33
1.8497890039989504 -0.4250783017806441 -13.71034680765771 113 43 30
1.8578930018787676 -0.44975736384400555 -13.72220386071631 138 64 38
1.8732761701248082 -0.5003065257999593 -13.707551311865913 173 95 44
1.8792747355266881 -0.5175169284224426 -13.726935256109 171 97 53
1.8916753774525321 -0.5574906640227146 -13.722899308933941 163 92 65
1.903729803955724 -0.5962464971494494 -13.719998343051262 137 66 43
1.9157469393105648 -0.6348824900018641 -13.717105815573563 145 81 55
1.9262018190497603 -0.6679707484952573 -13.71985755229389 149 90 70
1.939920363607118 -0.7126884969555416 -13.710417880540671 141 76 59
1.9513674177265719 -0.7493329201961645 -13.709255344373636 142 72 51
1.9634309423197207 -0.7881854383592763 -13.705675462366496 136 57 34
1.9639618060438444 -0.785948253769921 -13.745126760614601 135 55 28
1.9801480909154234 -0.8395121728303083 -13.725938822076829 139 57 26
1.9905917948627945 -0.8726187440157762 -13.72814889227825 141 62 31
2.0023251072804378 -0.9103356984727862 -13.725390175323444 139 66 39
2.0140227148161705 -0.9479379203820386 -13.722639437076165 121 55 37
2.0278593454054326 -0.9931892505019073 -13.71162663305942 110 51 39
2.0411042013750675 -1.0363451432412667 -13.702691468510615 125 64 39
2.0540632933983725 -1.0784967548720648 -13.694683399553334 145 75 42
2.0697769778828428 -1.1305084986593554 -13.675937669524458 146 64 29
2.084154109016465 -1.1777650048244324 -13.662111041584627 155 68 34
2.089452116360918 -1.1925726388141156 -13.683173151823876 161 81 49
2.100244180337739 -1.2270321255677628 -13.682962010609462 155 82 49
2.1102307223020884 -1.2586198879507409 -13.685773840587938 139 79 44
2.1196178622633592 -1.288070863413247 -13.69083401069122 121 65 40
2.126147437391854 -1.3072960022452902 -13.707004258803996 122 67 50
2.131461885776488 -1.3221684683361525 -13.727942258777148 128 71 57
2.1371243173863683 -1.3382853519785751 -13.747535800189329 125 62 46
2.156273390121024 -1.4027494056912344 -13.71384058577581 126 55 34
2.1622493545812294 -1.4200042860138664 -13.732054410555563 131 58 35
2.1725380051093937 -1.4527300017581064 -13.733121109304076 133 60 35
2.1809715456399443 -1.4788082553457729 -13.741489949436513 134 61 36
2.187319139127807 -1.4974032194528828 -13.758156496974573 138 66 41
2.1990678153146677 -1.5353954823464866 -13.75312695997792 126 53 32
2.210994818475758 -1.574042477955535 -13.747237638234665 124 54 35
2.2240188623976147 -1.6166468096497422 -13.73676635637126 129 67 40
2.233128558557231 -1.6451955660914646 -13.741995832369437 126 64 37
2.2433469886760204 -1.6777393699405163 -13.742639361448736 120 54 27
2.2512435283515226 -1.7019395979233334 -13.752658095079369 141 76 36
2.258495899442983 -1.7238255932882192 -13.765272308019012 170 96 41
2.2659901498504262 -1.7465850773354203 -13.77686662435809 167 86 38
2.274271366996187 -1.772182376916251 -13.785184047000161 157 81 54
2.2886655448714355 -1.8198114363204265 -13.76816460501854 133 60 39
2.2930008081595497 -1.8312042684186274 -13.792664828666354 145 64 31
2.303943948968552 -1.8664194052356082 -13.789708504378842 174 104 64
2.314709052980074 -1.9010050140524646 -13.787368318338714 177 116 77
2.324817924749011 -1.9332348109483064 -13.78765455154138 148 84 54
2.33296285365659 -1.9583853421473005 -13.79609099740647 131 65 45
2.339520524954033 -1.9778089421014595 -13.811169358109208 124 61 48
2.342751417818964 -1.9852146300624698 -13.840315953403671 131 69 57
2.346637924305049 -1.9949815095098158 -13.866762332813694 146 84 73
2.3537481863195655 -2.0163974331337853 -13.879543021693316 151 89 78
2.3659276947346077 -2.0561508253940577 -13.870636764936695 152 91 78
2.3776365382116227 -2.0942178398941236 -13.863581471036337 157 95 81
2.3911302779525965 -2.1387610941041917 -13.848693807113143 168 103 86
2.3981141397510917 -2.1597517741294547 -13.861694161954434 175 108 93
2.4059147748887018 -2.183703481879493 -13.871135662384006 173 104 87
2.4166300361644177 -2.21822227184828 -13.867869874421832 171 102 83
2.4278559166982707 -2.2546051784891983 -13.862248934912758 168 95 75
2.442766387707414 -2.3043659396480347 -13.840370720762788 159 83 61
2.4519400488948717 -2.333337156448298 -13.843409048325997 154 74 51
2.4616307675001727 -2.3467993919985233 -14.018644156698588 151 72 46
2.4738519045917964 -2.3868541855588568 -14.008046330645442 143 64 38
2.4840330839882956 -2.41950442308406 -14.006428846106854 128 44 16
2.5006880795933526 -2.475731326098889 -13.975526742685929 120 36 10
2.5116685209720204 -2.5113256558622137 -13.969959577313945 108 27 5
2.5173910951316745 -2.5277800479844688 -13.988092084896962 100 22 6
2.5141018604139562 -2.5113895257312615 -14.047243448099415 95 19 6
2.528303679020944 -2.558743306122583 -14.026826458490394 90 18 4
2.527148430630841 -2.5501059076786747 -14.076510623940361 81 16 1
2.5304824331554356 -2.5578278318165815 -14.105785632281446 77 13 1
2.5391777592838265 -2.5851131799597953 -14.11042418706144 80 14 2
2.5482678983276705 -2.613848234853423 -14.113157792433046 86 15 2
2.5546892789625275 -2.632841528095227 -14.128189899499205 90 17 3
2.5612809959241014 -2.652458274866066 -14.142420229478564 92 22 6
2.5620151331358714 -2.6506563596868133 -14.18401302485151 96 28 10
2.564823672710767 -2.656426408731046 -14.216048522706913 90 28 8
2.5714966395903947 -2.6763294942795026 -14.230007265220973 68 15 3
2.570437529903041 -2.6679229771866657 -14.280453175726763 59 12 4
2.5746131487062853 -2.678668915021867 -14.306332806936265 58 13 6
2.5780378984964005 -2.6866567350290795 -14.335845521671253 57 12 6
2.5829559133800717 -2.7001104710698094 -14.358325710540905 55 11 4
2.5863550384759653 -2.7079889451582995 -14.38811515321567 53 10 3
2.5883396295744916 -2.710667710608405 -14.424786898197366 53 11 3
2.591293979013072 -2.7168929185540227 -14.456924089562603 53 11 4
2.5929077513710315 -2.7181838701823953 -14.495648049662329 54 10 4
2.5954814471754633 -2.72298690560783 -14.529867308091763 55 11 4
2.5960396536318298 -2.720368873736926 -14.574016174924399 57 10 2
2.5974443781166747 -2.7208453384862343 -14.614219313994905 60 12 4
2.5944235775597924 -2.7050226238732646 -14.67626879572692 64 15 4
2.5955385558226665 -2.7043929190586597 -14.71829399276358 64 15 4
2.5938709203613755 -2.693498400780519 -14.774220636381926 63 16 4
2.5971194185893887 -2.700690040831673 -14.806079076266393 66 19 6
2.6004011123837465 -2.7079937064627355 -14.837876345037243 70 23 11
2.6071867347947633 -2.728208732193263 -14.852312307866569 73 29 14
2.6096286269028037 -2.7323992909050423 -14.888457148896691 76 34 18
2.6128806676758205 -2.7395669725465437 -14.920669466520852 79 39 21
2.614546382611412 -2.740865943089916 -14.960976353577092 81 42 24
2.6159144162884655 -2.741048967495516 -15.002949300099846 81 44 27
2.6172355214844316 -2.741041258576253 -15.045333499982391 82 47 30
2.619076075657436 -2.742936968816137 -15.085250894006066 76 41 24
2.6226400428673355 -2.751193177127975 -15.116528502184279 74 41 24
2.626421168668851 -2.7602433132603723 -15.146792985703584 74 41 24
2.6216755886654535 -2.737706776968687 -15.220984234688139 69 37 22
2.625227279336852 -2.7458732321031674 -15.252769409033114 58 23 13
2.628547450249519 -2.7531712432704296 -15.285855606930745 50 10 10
2.6325932862867343 -2.763149412341826 -15.31528395444854 54 12 6
2.6498675725225476 -2.822203170478992 -15.275845319442801 112 65 52
2.6578406297342103 -2.8467670412283352 -15.284665141220566 164 124 102
2.6639944638831934 -2.8645797503174686 -15.302977005837528 154 111 79
2.671771699412882 -2.888423987031401 -15.31274767480266 140 84 45
2.6731210493746467 -2.888375797246593 -15.356442621187558 124 55 23
2.6793851244006093 -2.9065898706396665 -15.374256974002503 122 52 22
2.68632626427568 -2.9273230356253626 -15.388473472597683 116 44 13
2.685808541636632 -2.920286415054104 -15.442509224182249 110 37 8
2.6939213557074106 -2.94537424346273 -15.450546476979731 107 37 6
2.697513087490241 -2.9536180233544993 -15.482837936907686 106 48 23
2.6982453124946097 -2.9511881763333108 -15.530671035019925 64 18 6
2.702959363743826 -2.9635922627637914 -15.557153168587824 32 4 4
2.706353358653737 -2.971062323388301 -15.590876910191525 17 6 5
2.701997637093559 -2.949578264692909 -15.66699089684673 16 4 4
2.7352375593792697 -3.0685311228255525 -15.537722313425178 13 4 5
2.731655462713942 -3.049928397015905 -15.609695436098708 13 4 5
2.7416112524077105 -3.0819243698770293 -15.607425910780726 11 2 3
2.759241124704418 -3.14265327478709 -15.562563754721111 10 3 4
2.7720134211348677 -3.185237583356458 -15.544231495758012 24 19 22
2.7970951002797455 -3.2687462258194495 -15.50940119927758 64 63 69
2.796060295432705 -3.259624999768726 -15.567797824522629 77 77 80
2.7855579260880936 -3.2149496021965946 -15.679806711890475 36 35 39
2.7725688371737243 -3.160870754476832 -15.80654859356327 23 22 27
2.8071599387050217 -3.2476240028876244 -16.04368547299985 38 33 34
2.885654454403908 -3.443149097181948 -16.59520993313021 119 119 120
2.890218482362121 -3.454692295071137 -16.625527097020953 128 128 130
2.895983719766595 -3.470808139431944 -16.648423302512807 138 138 140
2.896373136482725 -3.4664009714140516 -16.705121550020806 146 146 148
2.898226844631609 -3.467557214833075 -16.75288102021557 154 154 156
2.92075342671727 -3.5476941516622293 -16.670063120092838 161 161 163
2.9217476402738876 -3.545567370938093 -16.72324470549689 167 167 171
2.9317622173207374 -3.5779286626829885 -16.719191659610722 173 173 178
2.9436201072521073 -3.6173635419334547 -16.70318235097849 178 179 183
2.951608586192504 -3.6419994667315994 -16.711772945203695 180 181 183
2.96548298587596 -3.6892056363586567 -16.68235208132224 184 185 187
2.9758768425834434 -3.723095952530559 -16.675100668271156 187 187 189
2.9796509553075605 -3.7315960057369963 -16.710660861190767 189 189 191
2.9846116737902033 -3.7446398701786565 -16.738621802563312 193 193 195
2.991224506728588 -3.764025243830183 -16.75585026558106 192 192 194
2.9971793618680915 -3.7808803686608554 -16.77739979022238 193 193 195
3.0097054075597347 -3.823019568536141 -16.755648479305652 194 194 196
3.027923706102192 -3.887107538422918 -16.69592046432662 195 195 197
3.0416160520944904 -3.9338146086228507 -16.665678201221514 196 197 199
3.0504644385376696 -3.955819463619254 -16.72821012362493 196 197 199
3.0530792398476563 -3.9598201211401696 -16.77179791010144 198 198 200
3.134422132930803 -4.225640541947551 -16.709097508078045 203 203 205
3.1369524196995378 -4.229288010707188 -16.753523201751843 205 205 207
1.1201392920604984 1.7175848722850526 -12.779660290186413 185 170 164
1.1301743192582827 1.6865483763023859 -12.788867443044523 162 126 115
1.1341466637866926 1.6764168121982106 -12.815025423910415 166 113 91
1.1516834663397613 1.6194948905510103 -12.803066770237823 144 81 53
1.1637605018153434 1.5813949888109295 -12.806331648205994 139 67 38
1.1782809868504414 1.534852734805404 -12.802586991376256 132 56 29
1.1842086665560272 1.5179628787970225 -12.823110385268087 128 53 34
1.1822624846126355 1.5282644137827832 -12.866079895671284 119 45 28
1.2036510420394553 1.457981854209332 -12.842523475255602 112 38 22
1.2188407774150418 1.4090907877280685 -12.836477593816312 118 42 26
1.2895545179789507 1.193314611595948 -12.931962827587903 97 39 28
1.3063713047301153 1.138703151017121 -12.920217104704523 84 29 19
1.3136472759963724 1.1171187269008156 -12.93649545259305 82 26 14
1.3155120680489403 1.1142797543817151 -12.968812207597598 87 34 22
1.3157495373955066 1.1170884786726072 -13.006060020757836 86 36 27
1.316275467194651 1.1189088749521403 -13.04256738851597 72 29 21
1.3209187733191197 1.1064652604747955 -13.066865231267915 37 11 8
1.319036054106577 1.1166571795666833 -13.110798686076949 23 6 4
1.3189200681479694 1.1207360905180588 -13.149572191603294 23 11 9
1.3190522606558286 1.123966267286752 -13.187725153438636 32 22 21
1.3220642958429165 1.1172136279066933 -13.217275116458199 19 11 10
1.324475047393995 1.11255520619443 -13.248724779809098 18 12 14
1.3271365680382554 1.1070339882188378 -13.279493050063753 22 16 19
1.329283994795178 1.1033059460322345 -13.311913062958553 13 7 12
1.3334143562313305 1.0926972655563807 -13.338337266347724 18 12 17
1.3365780711956843 1.0854527784096675 -13.367788842310603 20 14 20
1.3409374739919322 1.0740587594021376 -13.393618922767757 23 19 24
1.345350352033615 1.0624833958083721 -13.41933131515151 28 23 29
1.3489990859845693 1.0535701647208349 -13.447465122993389 27 24 29
1.3573270225670666 1.0283847311086678 -13.461077177486157 30 28 31
1.360327334752672 1.0217354350188455 -13.491317506860106 55 53 53
1.3658099715171987 1.0064531371968766 -13.513848045345888 38 35 34
1.381671412248131 0.9550383137018814 -13.503754189057064 33 27 29
1.3795521091030292 0.9662257372278766 -13.55022750369616 33 28 30
1.3885921225886362 0.9385565104801552 -13.561551227964937 27 24 25
1.3985881893178793 0.9075518684423356 -13.569796214222054 9 7 8
1.4102773432090068 0.8706402129628952 -13.57258606561826 8 4 4
1.417268142640323 0.850099492601351 -13.590292910431963 5 6 5
1.409322049798564 0.8816480278055892 -13.655874806471203 19 5 2
1.4246125274861607 0.8321696339745408 -13.64703947635158 118 69 38
1.43746311998164 0.7911883842697351 -13.645904796480126 144 70 32
1.450944272322157 0.7479948204575546 -13.64260934515802 134 59 30
1.4547211545799508 0.738667565469151 -13.670675905061039 120 47 26
1.4640414933877088 0.7099878103964175 -13.680756749371197 122 50 30
1.4669199903858043 0.703805255733922 -13.711825798454836 112 39 20
1.4825474313233133 0.6530846285025831 -13.701208709420744 119 46 27
1.4990509646486259 0.5992847870247058 -13.687532499231533 118 46 25
1.518065472467688 0.536687431048672 -13.665379508522564 122 50 28
1.539029776895163 0.4672474769665973 -13.636526735210644 126 54 32
1.5423153059375907 0.45962024205330554 -13.666027377782566 131 59 37
1.5578949768149246 0.4089825007716561 -13.65468862372212 126 54 33
1.5718364286845956 0.36406098949486054 -13.648634971708756 122 51 30
1.5888415211245994 0.30839923318020546 -13.63217195769354 125 53 34
1.5838294640402046 0.3298214909815895 -13.689452949285105 124 52 32
1.5899165187802087 0.31238687972038637 -13.709580812481835 123 51 31
1.6009358625330687 0.27767065067489227 -13.71305023293025 123 50 30
1.6100198980202722 0.24972913972688193 -13.722991620635247 127 55 34
1.6130773580101008 0.242912542624655 -13.753383110755939 126 54 34
1.6271145995971366 0.19759623565939233 -13.746387543104476 123 52 34
1.6213373373756599 0.22177688113726912 -13.80706064923198 128 54 32
1.6364910352501791 0.17253316512280925 -13.796131291959615 137 59 33
1.6481355500165171 0.13559001834019835 -13.797108188804302 155 69 30
1.663459344623742 0.08571788851889384 -13.785265376892795 160 96 53
1.6982434260944097 -0.024689857157798478 -13.787634972922195 133 69 40
1.719069675212061 -0.09396578451464155 -13.755907394881234 144 71 42
1.732882544228886 -0.1386091543081065 -13.748486430221767 130 55 34
1.7517527080827109 -0.2010569101078099 -13.723098822516189 120 49 32
1.7653524147185329 -0.24498599897083295 -13.716057181975923 116 47 32
1.776746250378622 -0.2811660164752796 -13.716676837020419 107 40 25
1.7878498536310712 -0.3163344248652651 -13.718221348713701 142 70 36
1.8046947023672137 -0.37173212714955817 -13.699191363505943 170 90 35
1.8179344312957912 -0.41445145776466763 -13.692827064694399 151 69 31
1.824290627572096 -0.43292774298288084 -13.711014785755175 125 48 30
1.8334755732757029 -0.4613750928191349 -13.719023947241375 129 51 31
1.844908121936656 -0.49775355049272285 -13.718856539445152 170 95 50
1.856144135643715 -0.533449427480436 -13.71928986219811 175 110 61
1.8674474407953738 -0.5693930081104908 -13.719371234563202 163 105 75
1.8790287253301412 -0.6063281868426209 -13.718329587241541 144 79 66
1.893184025579051 -0.6523622612354787 -13.707756941229531 132 63 48
1.9022012485368633 -0.6802672232256439 -13.715859407506063 140 71 56
1.9146414265811482 -0.7202703575252727 -13.711304601020142 133 63 45
1.9254989599107817 -0.7546938210412826 -13.712455037127306 138 64 40
1.9376056002704884 -0.7935427095184275 -13.708876293949814 146 68 42
1.9509733956453457 -0.8368639093003534 -13.700478843035008 140 58 27
1.9507826027735824 -0.8322398670570585 -13.74246291498096 137 57 27
1.9644853645692506 -0.8767621606498786 -13.732647281620881 131 57 35
1.9794349367846635 -0.9257141014034502 -13.71798200150031 120 55 39
1.9914892714715653 -0.9644342125615974 -13.714010439919152 114 56 39
2.004759257549973 -1.007472871671233 -13.70531458791207 124 64 37
2.0202998272094725 -1.0585720140167822 -13.687853948548002 143 69 37
2.035466061725702 -1.1083655322349788 -13.671595299845919 142 59 28
2.050153585223322 -1.156482191106515 -13.656948915330979 153 69 35
2.063716076016133 -1.200628239665372 -13.64640273330887 165 87 51
2.0652071454959025 -1.2019654677866791 -13.681991506931142 150 82 46
2.0761476156942567 -1.2368258463097987 -13.681332597653533 135 76 42
2.083938265646037 -1.26051498455693 -13.692722734597861 121 66 44
2.0930726577522347 -1.2889794149172076 -13.698872948158698 116 59 44
2.100415660782817 -1.3110866552237868 -13.71191549461351 124 66 50
2.1029455486438207 -1.316092286532215 -13.743696625341485 127 66 49
2.1139691371806544 -1.351282219377829 -13.742356436344993 123 53 31
2.1272609552071104 -1.3945491985925376 -13.732000105903595 133 55 29
2.136079949823099 -1.421922094094791 -13.739073979638938 135 56 29
2.142473394612523 -1.4406698212235032 -13.755663011289096 133 59 35
2.154586677578254 -1.4797782881890083 -13.749592201535135 130 59 41
2.1667955046048917 -1.5192410702613417 -13.74299437552887 115 44 29
2.1782603566997594 -1.556068152029515 -13.739212157801262 117 48 34
2.186236291493273 -1.5804757367559654 -13.74925276657091 129 66 43
2.196757765840466 -1.6139611754503846 -13.74903571650941 165 108 67
2.208046431057795 -1.6501927214037817 -13.74562090255964 161 98 50
2.2184550356375574 -1.6832974720228497 -13.74563057529845 123 52 25
2.2264882419753977 -1.7079363829585397 -13.755157326540193 125 54 28
2.2343782194771324 -1.7320684249595706 -13.765220367456262 157 78 33
2.2412934422175708 -1.7527238551314754 -13.779216148555527 168 89 39
2.2497195647972754 -1.778777961178947 -13.787013424869293 174 109 77
2.2655717866705016 -1.831373605278828 -13.764272294319088 177 112 95
2.2693635404220407 -1.840881998092085 -13.790940110307336 145 71 47
2.2815789957828314 -1.880506476975837 -13.782872711072535 152 84 50
2.290745520430391 -1.909239657997956 -13.787282303023591 155 94 61
2.301697182395755 -1.9443684651679858 -13.784190051000504 133 70 48
2.308355463614967 -1.9641401252815287 -13.798881247701429 128 65 51
2.315678518899639 -1.986293509535849 -13.81077846321642 138 80 69
2.3174750985539205 -1.9886517788084568 -13.845851649417774 148 93 80
2.3176008948290754 -1.98501084725764 -13.888084820710471 155 98 85
2.335070398934388 -2.043531270192285 -13.85718307715082 155 95 82
2.3517384380215707 -2.0992070348406413 -13.82936976310938 161 96 83
2.3559558941637566 -2.110242017818397 -13.85423374262344 167 100 86
2.370952465194416 -2.1599579023106363 -13.833146711655086 174 110 88
2.387170330682812 -2.2099840164567164 -13.849414164426342 173 104 91
2.3987884002852624 -2.2476132532381587 -13.842341633749559 171 102 84
2.4099007012344846 -2.283439286143601 -13.837302386723572 167 94 73
2.4194217488318035 -2.313557021992243 -13.83902650646678 159 81 59
2.450326858672281 -2.395775646450028 -14.0070626053249 127 47 23
2.467884654191636 -2.4549052484087097 -13.972729162936666 121 39 13
2.4817147272403526 -2.5006164734919514 -13.954719847875447 108 28 5
2.489799870470088 -2.525612268740568 -13.962243197984915 100 22 3
2.491254866263333 -2.5266716656076627 -13.999536488551922 94 20 5
2.4900807469788435 -2.5182200082960096 -14.048836730390631 92 20 5
2.4928530778001146 -2.5240095565779788 -14.080484073897074 88 17 3
2.4969918413217025 -2.534729505236802 -14.10602469770469 81 15 2
2.5026823123692665 -2.551055829465642 -14.124552610863848 80 15 2
2.5133788107525192 -2.5854939330545905 -14.120197124150408 82 16 1
2.5236167280759894 -2.618285292178876 -14.11780830347693 86 16 1
2.5289244122541352 -2.6332352337073868 -14.13799676822445 93 21 4
2.533897962801895 -2.6469722231903665 -14.159755029154656 95 26 8
2.538719736690923 -2.660155652126475 -14.182253421000683 91 29 9
2.5412728327459746 -2.665109718118858 -14.215344921402307 70 18 3
2.544098338084244 -2.6710410860752116 -14.247277657821696 53 9 1
2.543462093288032 -2.664401068865674 -14.295523669717031 54 10 4
2.548929020869729 -2.6798958270532767 -14.315311586502961 55 11 5
2.553576121744767 -2.6924110863603774 -14.338986804753988 54 11 6
2.554939493588627 -2.6929913832609254 -14.378241553588541 51 10 5
2.5609785385529036 -2.7105514893188607 -14.395461982741471 45 9 4
2.5626162040331306 -2.7121067863976007 -14.433644660972318 39 7 2
2.5658509545117845 -2.719457817070202 -14.464344015675088 35 5 2
2.569470533689268 -2.728200143078179 -14.4932948377645 33 5 2
2.570912460633682 -2.729005943581485 -14.532804062362093 34 5 1
2.5692286046286004 -2.718411545803832 -14.587554205341032 42 7 3
2.5701859150485835 -2.717416646840527 -14.629773651954185 48 9 6
2.571486223281773 -2.7176555122330335 -14.670500443448828 50 10 4
2.573092969472896 -2.7189963174412064 -14.70989701052747 50 9 4
2.5752142882781244 -2.7221998304388846 -14.746931064743162 50 9 4
2.5681264428510993 -2.6917741875380212 -14.829306307308805 50 8 2
2.570074445157209 -2.6943034500792438 -14.867625830590267 57 12 4
2.5745843734078724 -2.706178566057808 -14.893431510724003 62 14 6
2.578275593050226 -2.7150553419077434 -14.923358569829723 66 14 7
2.5794711867066282 -2.7147977819383833 -14.965792746468551 68 16 5
2.5837007617109102 -2.725622749803258 -14.993254447320862 69 18 5
2.585258171076638 -2.7266607452118707 -15.034175707381895 70 19 7
2.58705190309908 -2.7285482839733843 -15.074073871342447 69 20 7
2.5889250635398886 -2.7307116860421434 -15.113729228245386 72 24 10
2.5942861590246715 -2.7456430843658444 -15.135886919818432 72 26 10
2.6021802442317736 -2.7698584095566323 -15.145216105822787 75 32 13
2.608870051250039 -2.789661156117215 -15.160630356485534 82 41 19
2.611371970342484 -2.794095708977393 -15.197450162960449 78 44 22
2.601506208949617 -2.7531079866971444 -15.297870439855652 62 20 12
2.6101386948146077 -2.780014621385707 -15.303617549382869 79 24 15
2.624632874865949 -2.8284703952849286 -15.279000175265967 146 96 73
2.6337830165484446 -2.8573052787106246 -15.281802287153187 154 119 84
