ply
format ascii 1.0
element vertex 868
property float x
property float y
property float z
property float nx
property float ny
property float nz
property uchar diffuse_red
property uchar diffuse_green
property uchar diffuse_blue
property uchar class
property uchar detection
end_header
0.4280 2.5396 -14.3262 0.603 0.798 -0.007 107 55 43 0 0
0.4282 2.4818 -14.5969 -0.136 0.731 0.669 56 49 50 0 0
0.4459 2.4771 -14.8120 0.912 0.377 0.161 110 56 43 0 0
0.4515 2.4824 -14.8482 0.886 0.461 0.056 111 62 47 0 0
0.4558 2.4348 -15.1165 0.498 0.846 0.191 100 58 44 0 0
0.4646 2.4377 -15.1997 0.158 0.983 0.090 101 55 42 0 0
-0.9330 -0.3842 -12.6285 -0.070 0.447 0.892 114 52 39 0 0
0.2776 2.3734 -13.1142 0.791 0.481 -0.378 62 50 50 0 0
0.1756 1.9771 -13.8232 0.560 0.769 -0.308 9 3 3 0 0
0.3725 2.4456 -13.8103 0.297 0.424 0.856 121 74 41 0 0
0.3836 2.4686 -13.8255 0.297 0.424 0.856 69 21 6 0 0
0.4014 2.5009 -13.8703 0.278 0.575 0.769 84 37 20 0 0
0.4113 2.5202 -13.8893 0.430 0.658 0.618 120 75 41 0 0
0.4341 2.5336 -14.0746 0.610 0.712 0.349 74 18 6 0 0
0.4347 2.4890 -14.2851 -0.372 0.336 0.865 117 68 52 0 0
0.4440 2.4706 -14.4695 0.764 0.644 0.047 116 64 46 0 0
0.4861 2.4440 -15.0468 0.914 0.371 0.164 102 57 48 0 0
0.4847 2.4144 -15.1671 0.518 0.854 -0.053 98 58 43 0 0
0.4815 2.2610 -15.8336 -0.166 0.826 0.539 72 23 15 0 0
0.3301 2.5578 -12.5154 0.470 0.767 0.437 155 79 55 0 0
0.3376 2.5702 -12.5394 0.373 0.769 0.519 147 70 34 0 0
0.1869 1.9289 -13.8188 0.582 0.611 -0.536 22 17 17 0 0
0.3881 2.4121 -13.7921 0.355 0.478 0.803 128 68 38 0 0
0.4088 2.4535 -13.8272 0.364 0.417 0.833 65 15 4 0 0
0.4401 2.4814 -14.0361 0.365 0.754 0.547 57 10 2 0 0
0.4522 2.4958 -14.1008 0.569 0.822 -0.019 83 26 14 0 0
0.4624 2.4683 -14.3338 -0.068 0.909 0.412 117 64 49 0 0
0.4834 2.4492 -14.6442 0.332 0.788 0.518 68 47 38 0 0
0.4829 2.4228 -14.7577 0.611 0.789 0.059 121 66 52 0 0
0.4862 2.4209 -14.8019 0.568 0.820 0.065 111 60 50 0 0
0.4865 2.4094 -14.8573 0.671 0.734 0.101 116 65 49 0 0
0.5096 2.3935 -15.1751 0.519 0.854 -0.032 100 59 46 0 0
0.5010 2.3270 -15.3829 0.806 0.586 -0.078 80 52 43 0 0
0.5131 2.2593 -15.8185 -0.219 0.803 0.554 76 23 14 0 0
0.5219 2.2739 -15.8463 -0.039 0.950 0.308 109 53 35 0 0
0.0477 1.8143 -12.5183 0.292 0.432 0.853 121 46 27 0 0
0.2391 1.9722 -13.8396 0.299 0.044 0.953 8 2 2 0 0
0.4508 2.4674 -13.8772 0.483 0.538 0.691 116 70 43 0 0
0.4859 2.4825 -14.1813 0.797 0.401 0.452 110 67 52 0 0
0.5158 2.4419 -14.6787 0.159 0.132 0.978 122 68 53 0 0
0.5163 2.4054 -14.8461 0.529 0.849 0.003 118 67 52 0 0
0.5194 2.3765 -15.0065 0.547 0.810 -0.211 118 66 51 0 0
0.5368 2.3802 -15.1742 0.554 0.829 -0.075 100 57 47 0 0
0.5226 2.2677 -15.5237 0.555 0.830 -0.059 120 63 50 0 0
0.5257 2.2505 -15.6326 0.532 0.626 0.570 104 52 42 0 0
0.5428 2.2511 -15.8112 -0.110 0.773 0.625 84 32 19 0 0
0.5509 2.2635 -15.8416 0.075 0.825 0.560 114 60 40 0 0
0.5604 2.2805 -15.8664 0.084 0.870 0.485 78 44 34 0 0
0.5691 2.2950 -15.8943 0.067 0.811 0.581 54 41 39 0 0
0.0678 1.7859 -12.5320 0.010 0.561 0.828 121 46 27 0 0
0.2491 1.9201 -13.8391 0.185 0.172 0.967 9 3 3 0 0
0.5016 2.4363 -14.2167 0.475 0.321 0.819 110 66 52 0 0
0.5288 2.3975 -14.6711 0.492 0.729 0.477 87 53 42 0 0
0.5402 2.4212 -14.6864 -0.016 0.248 0.969 125 66 51 0 0
0.5164 2.3318 -14.8288 0.585 0.216 0.782 116 59 48 0 0
0.5342 2.3760 -14.8213 0.683 0.629 0.370 117 62 49 0 0
0.5379 2.3749 -14.8648 0.534 0.822 0.198 114 65 51 0 0
0.5627 2.3625 -15.1785 0.554 0.829 -0.075 99 57 46 0 0
0.5555 2.2438 -15.6238 0.775 0.397 0.492 113 60 49 0 0
0.0883 1.7585 -12.5447 0.251 0.056 0.966 121 46 27 0 0
0.3954 2.4296 -12.8203 0.564 0.729 0.388 103 29 5 0 0
0.5195 2.4091 -14.1909 0.747 0.568 0.345 109 59 41 0 0
0.5240 2.4108 -14.2296 0.565 0.459 0.685 109 65 50 0 0
0.5317 2.4230 -14.2569 0.763 0.144 0.630 106 58 45 0 0
0.5479 2.4244 -14.4188 0.539 0.842 0.020 113 56 47 0 0
0.5445 2.3487 -14.7102 0.648 0.458 0.609 97 56 45 0 0
0.5435 2.3193 -14.8272 0.553 0.345 0.758 114 59 47 0 0
0.5508 2.3294 -14.8581 0.408 0.690 0.598 118 62 47 0 0
0.5639 2.3587 -14.8675 0.534 0.822 0.198 107 59 46 0 0
0.5726 2.3602 -14.9506 0.389 0.909 0.153 119 67 52 0 0
0.5711 2.3420 -15.0140 0.381 0.924 -0.022 119 61 49 0 0
0.5894 2.3476 -15.1796 0.699 0.699 -0.153 100 57 46 0 0
0.5799 2.2330 -15.5753 0.550 0.488 0.678 104 54 48 0 0
0.2508 2.0577 -12.6172 0.229 0.635 0.738 120 42 27 0 0
0.4287 2.2093 -13.7898 0.240 0.552 0.799 34 5 2 0 0
0.4994 2.3851 -13.7637 0.552 0.364 0.751 120 71 39 0 0
0.5424 2.3855 -14.2018 0.747 0.568 0.345 108 61 45 0 0
0.5480 2.3905 -14.2368 0.694 0.404 0.596 105 63 47 0 0
0.5631 2.4263 -14.2384 0.753 0.528 0.392 101 53 39 0 0
0.5754 2.4146 -14.4145 0.174 0.980 -0.096 112 57 46 0 0
0.5964 2.3905 -14.7318 0.791 0.071 0.607 115 59 46 0 0
0.5799 2.3231 -14.8495 0.191 0.717 0.670 115 62 44 0 0
0.5906 2.3447 -14.8675 0.343 0.933 0.113 96 52 38 0 0
0.5957 2.3476 -14.9066 0.343 0.933 0.113 97 55 45 0 0
0.6022 2.3554 -14.9402 0.163 0.950 0.268 121 68 54 0 0
0.5992 2.3321 -15.0094 0.321 0.945 -0.070 119 61 50 0 0
0.6005 2.1959 -15.6021 0.603 0.597 0.529 111 59 51 0 0
0.1287 1.7011 -12.5725 0.166 0.193 0.967 122 47 28 0 0
0.4430 2.3972 -12.8263 0.461 0.653 0.601 101 30 7 0 0
0.3626 1.9892 -13.7268 0.474 0.379 0.795 8 3 2 0 0
0.4537 2.1926 -13.7929 0.179 0.568 0.804 35 6 4 0 0
0.5691 2.3738 -14.1996 0.480 0.549 0.685 112 67 52 0 0
0.5790 2.3928 -14.2195 0.383 0.384 0.840 105 62 47 0 0
0.5733 2.2950 -14.5723 0.778 0.615 -0.129 106 54 39 0 0
0.6168 2.3564 -14.7544 0.791 0.071 0.607 117 59 45 0 0
0.6386 2.2168 -15.5609 0.166 0.966 0.199 117 64 54 0 0
0.3263 2.1000 -12.5886 0.629 0.338 0.700 117 40 26 0 0
0.4088 2.2903 -12.6252 -0.399 0.565 0.722 130 47 30 0 0
0.3835 1.9591 -13.7434 0.515 0.500 0.696 7 3 2 0 0
0.4824 2.1883 -13.7834 0.500 0.187 0.846 36 7 5 0 0
0.6014 2.3669 -14.2328 0.810 0.448 0.378 105 61 50 0 0
0.6712 2.3646 -14.9408 0.755 0.626 0.194 118 61 48 0 0
0.2068 1.7378 -12.5867 0.485 0.175 0.857 121 44 26 0 0
0.3493 2.0810 -12.5941 0.526 0.505 0.685 115 38 24 0 0
0.4681 2.3750 -12.5677 0.152 0.824 0.545 146 63 34 0 0
0.4732 2.3795 -12.5994 0.593 0.615 0.520 142 57 13 0 0
0.4808 2.3921 -12.6235 0.465 0.682 0.564 131 50 5 0 0
0.4899 2.3624 -12.8346 0.573 0.492 0.656 95 30 9 0 0
0.4926 2.1368 -13.7831 0.515 0.232 0.825 34 9 5 0 0
0.5999 2.3296 -14.0569 0.601 0.035 0.798 58 9 3 0 0
0.6114 2.3139 -14.2348 0.655 0.685 0.320 110 67 57 0 0
0.6169 2.3183 -14.2705 0.588 0.701 0.403 104 60 51 0 0
0.6874 2.3296 -14.9222 0.814 0.292 0.502 122 67 49 0 0
0.6915 2.1811 -15.5694 0.266 0.944 0.196 116 63 49 0 0
0.3086 1.9073 -12.5991 0.288 0.537 0.793 127 50 32 0 0
0.5145 2.3485 -12.8354 0.545 0.701 0.460 95 33 15 0 0
0.3661 1.7457 -13.8129 -0.127 -0.501 0.856 48 43 47 0 0
0.5155 2.1134 -13.7932 0.508 0.512 0.693 33 8 7 0 0
0.5698 2.2381 -13.8214 0.499 0.652 0.571 127 81 46 0 0
0.5792 2.2557 -13.8424 0.310 0.570 0.761 77 28 9 0 0
0.6234 2.3078 -14.0656 0.652 0.430 0.625 57 8 2 0 0
0.6419 2.2870 -14.3303 0.523 0.669 0.528 115 62 47 0 0
0.6519 2.2924 -14.4061 0.143 0.942 0.303 119 64 49 0 0
0.6654 2.3234 -14.4133 -0.347 0.775 0.528 113 58 46 0 0
0.6888 2.2593 -14.9009 0.557 -0.039 0.830 71 44 39 0 0
0.6928 2.2580 -14.9448 0.593 0.499 0.632 86 49 41 0 0
0.7081 2.2952 -14.9454 0.792 0.539 0.286 121 67 50 0 0
0.7182 2.1638 -15.5729 0.317 0.945 0.084 111 60 48 0 0
0.7162 2.1260 -15.7059 0.552 0.829 -0.088 86 45 40 0 0
-0.6051 -0.4122 -12.6798 0.865 -0.004 0.502 114 50 40 0 0
0.4534 2.1920 -12.5727 0.109 0.024 0.994 110 37 23 0 0
0.6331 2.2943 -13.9062 0.278 0.382 0.882 120 77 41 0 0
0.6661 2.2663 -14.3378 -0.003 0.874 0.486 119 64 48 0 0
0.6806 2.2866 -14.3974 0.113 0.956 0.272 121 63 50 0 0
0.6826 2.2791 -14.4466 -0.102 0.515 0.851 113 58 46 0 0
0.7283 2.1209 -15.5179 0.698 0.707 -0.112 117 60 48 0 0
0.7404 2.1471 -15.5316 0.646 0.742 0.178 119 63 51 0 0
0.7415 2.1033 -15.7158 0.670 0.743 -0.004 84 42 35 0 0
0.3668 1.9065 -12.5750 -0.147 0.631 0.762 120 43 25 0 0
0.5769 2.1173 -13.7611 0.288 0.305 0.908 35 8 7 0 0
0.6733 2.2592 -14.1284 0.412 0.909 0.071 85 27 15 0 0
0.6781 2.2611 -14.1665 0.498 0.852 0.162 106 52 36 0 0
0.6818 2.2594 -14.2087 0.451 0.810 0.376 112 66 54 0 0
0.6888 2.2688 -14.2390 0.428 0.813 0.394 105 62 51 0 0
0.7103 2.2698 -14.4418 0.220 0.362 0.906 110 56 46 0 0
0.7307 2.3241 -14.4235 0.679 0.723 0.131 104 56 43 0 0
0.7602 2.1217 -15.5004 0.742 0.648 0.170 116 63 50 0 0
0.7645 2.0889 -15.6713 0.564 0.805 -0.186 92 52 39 0 0
0.1339 1.2640 -12.5657 0.341 0.380 0.860 124 48 32 0 0
0.6645 2.2269 -13.8694 -0.171 0.706 0.687 75 25 10 0 0
0.6735 2.2431 -13.8919 -0.049 0.837 0.544 124 77 54 0 0
0.7025 2.2560 -14.1172 0.546 0.837 -0.029 91 32 20 0 0
0.7039 2.2463 -14.1678 0.498 0.852 0.162 106 55 40 0 0
0.7077 2.2449 -14.2096 0.412 0.870 0.271 112 67 56 0 0
0.7118 2.2442 -14.2508 0.504 0.860 0.077 105 60 48 0 0
0.7364 2.2549 -14.4430 0.273 0.364 0.890 105 54 41 0 0
0.7370 2.2424 -14.4977 0.194 0.980 0.040 104 56 42 0 0
0.7755 2.0814 -15.4865 0.842 0.527 -0.115 116 61 45 0 0
0.7930 2.0608 -15.7318 0.609 0.793 -0.031 81 37 26 0 0
0.2159 1.3813 -12.5941 0.029 0.907 0.419 120 44 28 0 0
0.2259 1.4011 -12.6127 0.043 0.706 0.707 120 45 27 0 0
0.7464 2.2883 -14.1083 0.737 0.666 -0.110 110 62 46 0 0
0.7317 2.2237 -14.2176 0.543 0.767 0.343 109 64 54 0 0
0.7631 2.2424 -14.4416 0.568 0.286 0.772 104 55 43 0 0
0.7660 2.2372 -14.4883 0.210 0.930 0.301 105 57 43 0 0
0.7677 2.2278 -14.5398 -0.553 0.820 0.146 107 57 44 0 0
0.7964 2.0435 -15.5137 0.821 0.560 -0.113 117 62 45 0 0
0.8088 2.0706 -15.5265 0.732 0.674 0.102 118 63 48 0 0
-0.6570 -0.8857 -12.7457 0.322 0.943 -0.083 124 93 87 0 0
-0.6202 -0.8091 -12.7979 0.392 -0.083 0.916 111 54 42 0 0
0.1901 1.2528 -12.5511 0.225 0.634 0.740 123 47 31 0 0
0.1948 1.2554 -12.5851 0.398 0.631 0.665 123 47 31 0 0
0.5406 1.7775 -13.8293 -0.035 -0.192 0.981 6 2 2 0 0
0.6748 2.1164 -13.7984 0.261 0.594 0.761 105 49 14 0 0
0.7629 2.2570 -14.0872 0.873 0.440 0.210 102 46 33 0 0
0.7689 2.2627 -14.1211 0.854 0.518 -0.043 107 62 47 0 0
0.7940 2.2287 -14.4826 0.168 0.827 0.536 104 57 43 0 0
0.7737 2.0648 -14.9129 -0.464 -0.136 0.876 116 57 45 0 0
0.7995 2.1231 -14.9327 0.755 0.228 0.615 88 56 45 0 0
0.8290 2.0471 -15.4932 0.753 0.631 0.189 119 63 47 0 0
-0.6275 -0.8954 -12.7414 0.322 0.943 -0.083 152 129 123 0 0
0.3891 1.6499 -12.6169 -0.174 0.489 0.855 126 49 31 0 0
0.4950 1.9203 -12.5849 -0.047 0.673 0.738 120 43 25 0 0
0.5037 1.9361 -12.6063 0.274 0.811 0.517 116 40 24 0 0
0.5763 2.1109 -12.6231 0.835 0.204 0.510 118 39 17 0 0
0.7010 2.1039 -13.7973 0.225 0.624 0.748 115 59 21 0 0
0.7110 2.1233 -13.8165 0.225 0.624 0.748 120 71 34 0 0
0.7196 2.1383 -13.8403 0.193 0.520 0.832 68 18 5 0 0
0.7387 2.1742 -13.8818 0.420 0.569 0.707 103 56 33 0 0
0.8349 2.1387 -14.8997 0.217 0.965 0.145 86 56 46 0 0
0.8339 2.1188 -14.9643 0.623 0.306 0.720 59 51 50 0 0
0.8479 2.0191 -15.4650 0.529 0.849 -0.012 115 61 44 0 0
0.8601 2.0455 -15.4786 0.225 0.552 0.803 120 65 48 0 0
-0.4437 -0.5214 -12.7325 -0.041 0.203 0.978 122 63 52 0 0
0.5310 1.9304 -12.5992 -0.094 0.894 0.438 114 38 22 0 0
0.5447 1.9627 -12.6052 -0.064 0.774 0.630 113 37 21 0 0
0.5781 2.0342 -12.6467 0.475 0.164 0.864 115 40 22 0 0
0.5937 2.0730 -12.6464 0.498 0.624 0.602 116 34 13 0 0
0.6646 2.2032 -12.8133 0.676 0.660 0.328 99 22 2 0 0
0.7278 2.0932 -13.7942 0.041 0.564 0.825 124 72 33 0 0
0.7347 2.1019 -13.8245 -0.014 0.531 0.848 107 59 27 0 0
0.7459 2.1257 -13.8392 -0.014 0.531 0.848 59 9 2 0 0
0.8379 2.1852 -14.4588 0.415 0.799 0.434 104 57 44 0 0
0.8291 2.0580 -14.8471 0.193 0.970 -0.144 119 61 47 0 0
0.8753 2.0042 -15.4657 0.544 0.838 0.044 116 61 44 0 0
0.8914 2.0449 -15.4630 0.088 0.490 0.867 119 65 49 0 0
0.9201 1.9899 -15.9269 0.744 0.365 0.559 47 36 38 0 0
-0.6918 -1.2782 -12.9398 -0.664 0.155 0.731 212 212 216 0 0
-0.5739 -0.9450 -12.7937 0.241 0.950 0.198 140 118 114 0 0
-0.5643 -0.9277 -12.8177 0.452 0.617 0.644 106 66 60 0 0
-0.3538 -0.3763 -12.7156 0.278 -0.241 0.930 116 51 41 0 0
0.5481 1.9041 -12.5752 0.355 0.861 0.365 120 45 26 0 0
0.5548 1.9133 -12.6027 0.317 0.877 0.361 113 37 21 0 0
0.5685 1.9321 -12.6575 0.056 0.201 0.978 110 37 20 0 0
0.6968 2.2285 -12.7398 0.542 0.671 0.507 98 23 4 0 0
0.7152 1.9914 -13.7670 0.510 0.294 0.808 41 9 5 0 0
0.7585 2.0810 -13.8320 0.166 0.488 0.857 96 49 23 0 0
0.7679 2.0985 -13.8532 0.088 0.516 0.852 57 7 1 0 0
0.7804 2.1268 -13.8633 0.129 0.701 0.702 79 30 12 0 0
0.8564 2.1596 -14.4306 0.457 0.516 0.725 106 57 46 0 0
0.8681 2.1689 -14.5025 0.659 0.707 0.255 102 56 42 0 0
0.8559 2.0433 -14.8478 0.815 0.563 0.136 119 61 47 0 0
0.8954 1.9629 -15.4966 0.824 0.514 0.238 118 63 45 0 0
0.9178 2.0267 -15.4675 0.329 0.404 0.853 119 64 48 0 0
0.9447 1.9627 -15.9418 0.744 0.365 0.559 45 38 38 0 0
-0.5894 -1.0848 -12.8531 -0.083 0.167 0.983 207 207 208 0 0
0.4137 1.4928 -12.5776 -0.058 0.491 0.869 120 44 29 0 0
0.7057 2.1887 -12.6926 0.341 0.700 0.627 74 19 5 0 0
0.7208 2.2124 -12.7426 0.494 0.757 0.427 108 30 6 0 0
0.7165 2.1561 -12.9067 0.669 0.736 -0.104 88 53 44 0 0
0.8895 2.1532 -14.4635 0.750 0.502 0.431 104 57 45 0 0
0.9118 1.9435 -15.4149 0.552 0.802 -0.227 122 63 46 0 0
0.9172 1.9452 -15.4567 0.621 0.784 0.003 117 61 45 0 0
0.9196 1.9362 -15.5108 0.771 0.550 0.320 119 65 46 0 0
0.9311 1.9602 -15.5272 0.694 0.709 0.124 117 61 45 0 0
0.9658 1.9229 -15.9716 0.831 0.506 0.231 41 37 37 0 0
-0.6098 -1.2413 -12.9250 -0.168 -0.217 0.962 213 213 215 0 0
-0.5437 -1.0569 -12.8571 0.261 -0.100 0.960 205 205 206 0 0
-0.4069 -0.6988 -12.8004 0.567 0.225 0.792 112 55 44 0 0
0.4397 1.4816 -12.5755 -0.157 0.689 0.707 120 44 28 0 0
0.5552 1.7604 -12.6109 0.087 0.468 0.880 120 45 26 0 0
0.6759 2.0452 -12.6713 -0.266 0.651 0.711 143 57 26 0 0
0.7030 2.1098 -12.6826 0.121 0.230 0.966 143 61 16 0 0
0.7442 2.1945 -12.7471 0.562 0.764 0.317 108 30 5 0 0
0.7086 2.0006 -13.1188 0.727 0.518 -0.451 60 50 51 0 0
0.6945 1.9374 -13.2179 0.988 0.145 0.056 57 51 51 0 0
0.6109 1.5730 -13.7678 -0.132 -0.377 0.917 48 48 49 0 0
0.7829 2.0192 -13.7108 0.445 0.758 0.476 46 9 8 0 0
0.8355 2.1110 -13.8514 0.094 0.621 0.778 89 39 21 0 0
0.9104 2.1360 -14.4262 0.760 0.322 0.565 105 56 44 0 0
0.9130 2.1284 -14.4753 0.750 0.502 0.431 104 56 45 0 0
0.9403 1.9145 -15.4752 0.658 0.752 -0.038 117 62 46 0 0
0.9539 1.9280 -15.5477 0.365 0.344 0.865 112 58 42 0 0
0.9525 1.8672 -15.7502 0.813 0.582 0.027 88 51 38 0 0
0.2742 0.9800 -12.6088 0.692 0.272 0.669 122 50 32 0 0
0.2844 1.0002 -12.6275 0.692 0.272 0.669 122 50 33 0 0
0.3112 1.0759 -12.5976 0.702 0.407 0.584 120 47 30 0 0
0.4681 1.4784 -12.5661 -0.157 0.689 0.707 121 44 28 0 0
0.7392 2.1498 -12.5962 0.642 0.409 0.649 149 67 30 0 0
0.7500 2.1586 -12.6600 0.618 0.507 0.600 118 52 17 0 0
0.8223 2.0220 -13.7721 0.452 0.772 0.447 122 66 33 0 0
0.8726 2.1211 -13.8662 0.077 0.915 0.397 123 75 36 0 0
0.8875 2.0936 -14.0931 0.553 0.501 0.665 82 23 11 0 0
0.9326 2.1066 -14.4430 0.604 0.744 0.286 104 56 44 0 0
0.9393 2.1139 -14.4761 0.604 0.744 0.286 103 55 43 0 0
0.9409 1.9278 -15.1411 0.275 0.942 0.195 65 51 51 0 0
0.9736 1.8275 -15.7793 0.864 0.490 0.114 87 50 37 0 0
1.0167 1.8740 -15.9949 0.784 0.596 0.173 38 37 38 0 0
-0.3539 -0.7362 -12.8060 0.524 -0.299 0.797 108 62 55 0 0
0.3042 0.9659 -12.6453 -0.058 0.491 0.869 123 51 33 0 0
0.3365 1.0605 -12.5989 0.276 0.682 0.678 121 48 31 0 0
0.3534 1.1035 -12.5975 -0.488 0.483 0.727 123 47 31 0 0
0.5006 1.4891 -12.5444 -0.140 0.782 0.607 121 44 28 0 0
0.5098 1.5063 -12.5649 0.240 0.809 0.537 121 44 28 0 0
0.8265 1.9626 -13.7406 0.338 0.020 0.941 59 10 6 0 0
0.8401 1.9953 -13.7464 0.357 -0.107 0.928 85 24 4 0 0
0.8436 1.9918 -13.7890 0.477 0.351 0.806 129 78 39 0 0
0.9564 2.1004 -14.3941 -0.038 0.807 0.590 103 53 40 0 0
0.9515 2.0651 -14.4728 0.751 0.515 0.414 103 54 40 0 0
0.9645 2.0954 -14.4812 0.604 0.744 0.286 104 55 42 0 0
0.9390 1.8964 -14.9475 0.410 0.905 0.113 111 59 48 0 0
0.9743 1.9363 -15.1159 0.443 0.893 0.081 65 51 49 0 0
0.9963 1.7735 -15.8695 0.684 0.661 0.309 78 28 12 0 0
1.0037 1.7822 -15.9045 0.684 0.661 0.309 98 53 35 0 0
1.0204 1.8061 -15.9668 0.650 0.632 0.422 49 40 37 0 0
1.0346 1.8401 -15.9723 0.368 0.547 0.752 39 38 38 0 0
-0.3425 -0.8186 -12.8969 0.307 -0.252 0.918 111 64 59 0 0
0.3487 1.0152 -12.5902 0.349 0.404 0.846 120 48 30 0 0
0.5229 1.4511 -12.6023 0.723 0.340 0.601 120 43 27 0 0
0.5468 1.5043 -12.6268 0.304 0.273 0.913 121 44 26 0 0
0.7569 1.8623 -13.2138 0.765 0.495 -0.412 54 46 47 0 0
0.9280 2.0570 -14.0231 0.352 0.830 0.434 60 11 1 0 0
0.9350 2.0654 -14.0541 0.340 0.850 0.403 69 13 2 0 0
0.9749 2.0399 -14.4850 0.713 0.442 0.544 105 54 40 0 0
1.0078 1.9082 -15.2171 0.677 0.608 0.414 68 48 44 0 0
1.0200 1.9167 -15.2939 0.700 0.654 -0.287 123 61 47 0 0
1.0173 1.7910 -15.6990 0.941 0.325 0.099 100 54 41 0 0
1.0606 1.8174 -15.9818 0.139 0.518 0.844 40 39 38 0 0
0.3376 0.9047 -12.6015 0.026 0.273 0.962 119 46 31 0 0
0.3511 0.9360 -12.6107 0.026 0.273 0.962 120 47 31 0 0
0.3641 0.9659 -12.6210 -0.244 0.471 0.848 120 47 30 0 0
0.5735 1.4953 -12.6226 0.235 0.147 0.961 120 44 28 0 0
0.7036 1.4714 -13.8130 -0.048 -0.248 0.967 37 35 36 0 0
0.7229 1.5241 -13.8001 0.181 -0.113 0.977 14 6 5 0 0
0.8924 1.9528 -13.8009 -0.130 0.686 0.716 127 79 35 0 0
0.9089 1.9796 -13.8519 0.339 0.567 0.751 64 11 5 0 0
0.9958 2.0050 -14.5076 0.833 0.303 0.464 104 54 41 0 0
1.0331 1.8861 -15.2260 0.677 0.608 0.414 68 47 41 0 0
1.0392 1.7534 -15.7255 0.901 0.428 0.069 98 54 42 0 0
1.0757 1.7727 -15.9718 0.733 0.650 0.200 44 40 38 0 0
1.0635 1.6220 -16.3762 0.466 0.701 0.540 36 36 34 0 0
-0.2786 -0.8358 -12.9239 0.329 -0.260 0.908 124 99 97 0 0
-0.2574 -0.7801 -12.9173 0.319 -0.283 0.905 110 73 70 0 0
-0.2330 -0.7133 -12.9015 0.378 -0.319 0.869 109 64 57 0 0
0.3800 0.9179 -12.6507 -0.063 0.930 0.362 120 47 30 0 0
0.5154 1.2663 -12.6346 0.063 0.118 0.991 121 44 28 0 0
0.7812 1.9561 -12.5844 0.572 0.203 0.795 112 38 19 0 0
0.8792 1.8635 -13.7213 0.237 0.970 0.055 40 5 2 0 0
0.8757 1.8340 -13.7901 -0.024 0.002 1.000 53 7 1 0 0
1.0444 1.8299 -15.2297 0.443 0.471 0.763 66 49 44 0 0
1.0748 1.8484 -15.4254 0.268 0.765 0.585 112 60 45 0 0
1.0745 1.8273 -15.4928 0.107 0.994 -0.014 118 62 47 0 0
1.1027 1.7742 -15.9082 0.502 0.149 0.852 61 48 42 0 0
-0.2147 -0.7598 -12.9266 0.378 -0.319 0.869 114 88 85 0 0
-0.1913 -0.6963 -12.9134 0.378 -0.319 0.869 106 69 66 0 0
0.1360 0.2167 -12.6509 -0.106 0.050 0.993 115 51 39 0 0
0.6492 1.5257 -12.6429 0.127 0.133 0.983 121 45 26 0 0
0.8030 1.9320 -12.5945 0.298 0.376 0.877 112 37 17 0 0
0.8143 1.9569 -12.6073 0.612 0.495 0.617 122 38 16 0 0
0.8230 1.9726 -12.6286 0.612 0.495 0.617 138 50 21 0 0
0.9023 1.8391 -13.7321 0.229 0.884 0.408 45 7 5 0 0
0.9138 1.8643 -13.7456 -0.049 0.769 0.637 63 8 2 0 0
0.9250 1.8885 -13.7603 0.763 0.512 0.394 90 24 5 0 0
1.0290 2.0289 -14.1690 0.949 0.158 0.273 112 72 58 0 0
1.0835 1.9576 -14.8606 0.341 0.349 0.873 102 55 41 0 0
1.0990 1.8210 -15.4401 0.387 0.824 0.415 111 60 46 0 0
1.1123 1.6871 -15.9920 0.772 0.372 0.516 52 42 38 0 0
-0.1479 -0.6733 -12.9205 0.395 -0.353 0.848 110 80 77 0 0
0.6426 1.4457 -12.5944 0.071 0.551 0.832 121 45 29 0 0
0.6535 1.4688 -12.6097 0.123 0.584 0.803 119 43 27 0 0
0.8136 1.8677 -12.6419 0.334 0.905 0.262 111 37 16 0 0
0.9403 1.8525 -13.7437 0.733 0.618 0.285 68 11 2 0 0
0.9565 1.8777 -13.7963 -0.033 0.103 0.994 125 75 38 0 0
1.0549 2.0139 -14.1703 0.822 0.514 0.246 111 73 58 0 0
1.1104 1.9433 -14.8610 0.189 0.206 0.960 104 58 44 0 0
1.1214 1.8066 -15.3967 0.447 0.858 0.254 111 59 46 0 0
1.1338 1.8344 -15.4089 0.048 0.717 0.696 110 60 46 0 0
1.1424 1.8477 -15.4375 -0.059 0.995 -0.079 115 62 48 0 0
1.1449 1.8371 -15.4930 0.385 0.920 -0.074 114 56 45 0 0
1.1110 1.6622 -15.7797 0.376 0.921 0.105 91 51 39 0 0
1.1205 1.6573 -15.8746 0.373 0.699 0.610 80 28 13 0 0
1.1293 1.6709 -15.9038 0.451 0.746 0.490 102 52 32 0 0
1.1382 1.6847 -15.9329 0.451 0.746 0.490 81 50 40 0 0
1.1326 1.6410 -16.0283 0.828 0.304 0.471 49 39 39 0 0
1.1556 1.6891 -16.0632 0.795 -0.023 0.606 39 38 37 0 0
-0.1119 -0.6752 -12.9474 0.529 -0.449 0.720 133 113 108 0 0
-0.0567 -0.5178 -12.8955 0.388 -0.354 0.851 112 71 64 0 0
-0.0337 -0.4544 -12.8817 0.351 -0.369 0.860 114 63 56 0 0
0.3052 0.4981 -12.6102 0.466 0.222 0.856 118 51 34 0 0
0.5219 1.0396 -12.6532 0.438 0.490 0.753 120 47 30 0 0
0.8223 1.5149 -13.5991 0.727 0.542 -0.423 49 49 51 0 0
0.9112 1.7040 -13.7229 0.666 0.369 0.648 35 11 9 0 0
0.9208 1.7219 -13.7440 0.693 0.568 0.444 31 6 2 0 0
0.9337 1.7525 -13.7524 0.307 0.564 0.767 35 4 0 0 0
0.9471 1.7846 -13.7592 0.153 0.327 0.933 49 9 4 0 0
0.9648 1.8331 -13.7494 0.624 0.741 0.249 77 17 5 0 0
1.0521 1.9633 -14.0491 0.568 0.762 0.311 70 14 4 0 0
1.0577 1.9663 -14.0858 0.718 0.636 0.282 102 46 32 0 0
1.0641 1.9721 -14.1197 0.514 0.765 0.387 109 62 49 0 0
1.0713 1.9811 -14.1502 0.455 0.848 0.270 108 65 52 0 0
1.0623 1.9099 -14.3053 0.818 0.569 0.084 103 59 42 0 0
1.1284 1.8941 -14.8993 0.190 0.852 0.488 106 59 46 0 0
1.1320 1.7667 -15.3386 0.880 0.420 0.222 116 62 47 0 0
1.1391 1.6479 -15.7795 0.372 0.911 0.178 90 50 40 0 0
1.1457 1.6525 -15.8188 0.376 0.921 0.105 75 32 22 0 0
1.1661 1.6688 -15.9344 0.451 0.746 0.490 69 42 36 0 0
1.1717 1.6693 -15.9788 0.283 0.940 0.193 49 38 39 0 0
1.2047 1.4610 -16.9195 0.355 0.935 0.019 113 114 116 0 0
-0.0397 -0.5685 -12.9244 0.388 -0.354 0.851 129 105 102 0 0
-0.0165 -0.5046 -12.9102 0.351 -0.369 0.860 111 75 72 0 0
0.0119 -0.4223 -12.8808 0.465 -0.399 0.790 110 64 60 0 0
0.0374 -0.3499 -12.8592 0.465 -0.399 0.790 111 59 52 0 0
0.2534 0.2426 -12.7398 0.133 0.964 0.230 118 51 35 0 0
0.2614 0.2547 -12.7664 0.449 0.484 0.751 118 51 35 0 0
0.2761 0.2903 -12.7734 0.551 0.621 0.557 117 50 34 0 0
0.2847 0.3047 -12.7980 0.551 0.621 0.557 117 50 33 0 0
0.4151 0.6991 -12.6092 -0.404 0.838 0.367 120 48 33 0 0
0.5367 1.0027 -12.6371 0.369 0.528 0.765 121 48 31 0 0
0.5463 1.0209 -12.6575 0.176 0.558 0.811 120 47 30 0 0
0.6290 1.2364 -12.6486 0.367 0.475 0.800 120 45 29 0 0
0.6393 1.2571 -12.6664 0.247 0.607 0.755 120 44 28 0 0
0.6753 1.3540 -12.6523 0.198 0.600 0.775 125 49 33 0 0
0.7801 1.6189 -12.6658 0.357 0.239 0.903 113 42 24 0 0
0.7919 1.6456 -12.6775 0.357 0.239 0.903 111 40 22 0 0
0.9569 1.7278 -13.7634 0.331 0.746 0.578 40 7 1 0 0
0.9836 1.7920 -13.7770 0.423 0.579 0.698 83 19 6 0 0
1.0643 1.9147 -14.0455 0.612 0.618 0.493 62 9 3 0 0
1.0826 1.9288 -14.1504 0.812 0.361 0.459 109 61 46 0 0
1.0916 1.8878 -14.3545 0.733 0.663 0.152 124 62 45 0 0
1.1467 1.8663 -14.8724 0.098 0.588 0.803 111 64 50 0 0
1.1317 1.7669 -15.0654 0.688 0.195 0.699 112 60 49 0 0
1.1537 1.7292 -15.3645 0.834 0.489 0.255 110 59 44 0 0
1.1784 1.6343 -15.8675 0.298 0.857 0.420 95 44 25 0 0
1.1862 1.6436 -15.9016 0.179 0.948 0.264 99 53 36 0 0
1.1948 1.6560 -15.9323 0.165 0.873 0.459 61 39 34 0 0
1.1970 1.3415 -16.9490 0.527 0.785 -0.326 91 92 92 0 0
1.2172 1.4006 -16.9260 0.301 0.946 0.123 103 107 108 0 0
0.0250 -0.4868 -12.9210 0.465 -0.399 0.790 121 96 94 0 0
0.2995 0.2648 -12.7827 0.447 0.575 0.685 116 49 33 0 0
0.5728 1.0097 -12.6551 -0.110 0.549 0.829 120 47 30 0 0
0.5896 1.0537 -12.6528 -0.144 0.209 0.967 120 47 30 0 0
0.6215 1.1519 -12.6027 -0.228 0.499 0.836 121 48 31 0 0
0.6551 1.2245 -12.6469 0.187 0.476 0.859 118 45 28 0 0
0.7014 1.3427 -12.6502 0.193 0.633 0.750 120 44 28 0 0
0.8039 1.6005 -12.6703 0.073 0.374 0.925 112 41 23 0 0
0.9302 1.9148 -12.7052 0.289 0.509 0.811 129 61 23 0 0
0.9476 1.9128 -12.8527 0.002 0.989 0.151 103 37 10 0 0
0.8342 1.2998 -13.8594 -0.259 0.775 0.577 17 15 17 0 0
0.9989 1.7557 -13.7606 0.412 0.490 0.768 59 10 3 0 0
1.0091 1.7761 -13.7791 0.412 0.490 0.768 85 24 3 0 0
1.0805 1.8814 -14.0260 0.677 0.556 0.482 59 10 3 0 0
1.1614 1.7828 -14.9902 0.537 0.840 0.079 107 60 48 0 0
1.1666 1.7825 -15.0328 0.699 0.434 0.569 112 61 51 0 0
1.1708 1.6944 -15.3439 -0.267 0.121 0.956 114 66 48 0 0
1.1866 1.7360 -15.3409 -0.109 0.342 0.933 105 58 44 0 0
1.2264 1.3264 -16.9489 0.409 0.868 0.280 96 95 96 0 0
0.9240 1.6662 -13.1853 0.640 0.573 -0.512 61 46 47 0 0
1.0332 1.7547 -13.7868 0.125 0.608 0.784 97 35 12 0 0
1.2142 1.7215 -15.3411 -0.384 0.282 0.879 102 54 44 0 0
0.1465 -0.3311 -12.8821 0.534 -0.438 0.723 155 135 134 0 0
0.8440 1.5518 -12.6539 0.052 0.316 0.947 116 44 27 0 0
1.0610 1.7473 -13.7804 0.274 0.402 0.874 107 47 19 0 0
1.2086 1.7251 -15.0221 -0.240 0.125 0.963 112 61 49 0 0
1.2064 1.6731 -15.1639 0.505 0.861 -0.055 115 67 51 0 0
1.2092 1.6627 -15.2180 0.424 0.894 -0.142 78 53 44 0 0
1.2175 1.6527 -15.3151 0.380 0.924 -0.035 110 64 50 0 0
1.2290 1.6552 -15.3988 0.176 0.752 0.635 100 52 42 0 0
1.2657 1.7380 -15.4366 -0.338 0.937 0.087 97 55 39 0 0
0.1816 -0.3347 -12.9102 0.534 -0.438 0.723 189 181 182 0 0
0.9907 1.8379 -12.7036 0.097 0.490 0.866 129 42 6 0 0
0.8938 1.2741 -13.6484 0.949 0.305 0.084 47 47 50 0 0
1.0363 1.5939 -13.8026 0.595 0.559 0.578 38 6 3 0 0
1.1448 1.8808 -13.7880 0.245 0.573 0.782 101 55 30 0 0
1.1566 1.8886 -13.8582 0.536 0.823 0.186 90 31 11 0 0
1.1580 1.8153 -14.0911 0.436 0.369 0.821 79 21 7 0 0
1.2341 1.6598 -15.1628 0.355 0.915 -0.192 114 65 50 0 0
1.2364 1.6470 -15.2196 0.355 0.915 -0.192 80 51 42 0 0
1.2403 1.6411 -15.2690 0.351 0.931 -0.098 83 54 47 0 0
1.2442 1.6344 -15.3194 0.255 0.962 -0.099 115 64 52 0 0
1.2565 1.6401 -15.3996 0.375 0.223 0.900 99 52 42 0 0
1.3888 1.4684 -16.9630 0.028 0.883 0.468 137 137 140 0 0
0.6551 0.8774 -12.7220 0.578 0.215 0.787 116 43 25 0 0
0.9116 1.2272 -13.6799 0.949 0.305 0.084 44 42 45 0 0
1.0934 1.6810 -13.7413 0.279 0.456 0.845 55 9 3 0 0
1.2611 1.7104 -14.9650 0.522 0.818 0.240 116 66 51 0 0
1.2761 1.7495 -14.9647 -0.745 0.485 0.458 113 62 50 0 0
1.2666 1.6437 -15.2075 0.369 0.920 -0.131 82 50 41 0 0
1.2699 1.6349 -15.2601 0.369 0.920 -0.131 96 60 51 0 0
1.2736 1.6271 -15.3116 0.317 0.939 -0.132 115 61 50 0 0
1.3129 1.4612 -16.1167 0.661 0.480 0.577 44 33 33 0 0
1.0048 1.3748 -13.7180 0.285 0.604 0.745 7 1 1 0 0
1.1777 1.7978 -13.8052 0.164 0.605 0.779 86 34 21 0 0
1.1884 1.8203 -13.8215 0.584 0.226 0.780 123 76 45 0 0
1.2285 1.8181 -14.1393 -0.302 0.731 0.611 106 53 34 0 0
1.2450 1.7799 -14.3800 0.291 0.813 0.504 71 41 35 0 0
1.2863 1.6874 -14.9745 0.692 0.181 0.699 117 65 51 0 0
1.2787 1.6339 -15.0748 0.091 0.854 0.513 114 62 50 0 0
1.2773 1.6055 -15.1482 0.014 0.965 0.260 111 59 48 0 0
1.2903 1.6363 -15.1573 0.214 0.976 -0.044 111 64 50 0 0
1.3048 1.4869 -15.7130 0.899 0.427 0.096 110 57 42 0 0
1.3392 1.4369 -16.1276 0.681 0.487 0.547 42 33 31 0 0
0.9489 1.1769 -13.6238 0.975 0.216 -0.049 39 36 39 0 0
0.9534 1.1747 -13.6645 0.918 0.377 0.123 26 23 26 0 0
1.1813 1.7348 -13.7768 0.305 0.370 0.878 85 28 9 0 0
1.2020 1.7771 -13.8122 0.612 0.555 0.564 90 39 22 0 0
1.2567 1.7267 -14.3806 0.560 0.277 0.781 60 41 35 0 0
1.2663 1.7444 -14.4027 0.669 0.343 0.659 63 41 38 0 0
1.3064 1.6205 -15.0738 -0.119 0.916 0.383 111 62 49 0 0
1.3081 1.6047 -15.1334 0.041 0.994 0.105 109 59 48 0 0
1.3152 1.6113 -15.1689 0.135 0.971 0.198 110 64 49 0 0
1.3685 1.4759 -15.9761 0.736 0.673 0.069 47 33 31 0 0
1.3766 1.4601 -16.0842 0.510 0.356 0.783 40 33 30 0 0
0.8591 1.1685 -12.7200 0.495 0.179 0.850 115 42 25 0 0
0.8790 1.2261 -12.7050 -0.176 0.391 0.903 116 44 26 0 0
0.9501 1.4065 -12.7242 -0.001 0.513 0.859 109 39 22 0 0
1.2157 1.7337 -13.8030 0.476 0.561 0.677 73 13 6 0 0
1.2480 1.7186 -14.0938 0.720 0.576 0.386 85 30 14 0 0
1.2970 1.8120 -14.1969 0.340 0.890 0.305 66 42 38 0 0
1.2896 1.7164 -14.4173 0.735 0.338 0.588 62 41 38 0 0
1.3282 1.5830 -15.0990 0.578 0.799 -0.166 110 60 48 0 0
1.3318 1.5747 -15.1506 0.637 0.746 -0.197 107 57 46 0 0
1.3608 1.4314 -15.7867 0.271 0.511 0.816 99 44 37 0 0
1.3975 1.4382 -16.0473 0.837 0.351 0.420 41 32 28 0 0
0.9039 1.2095 -12.7075 0.353 0.474 0.807 115 44 26 0 0
1.2696 1.6849 -14.1140 0.669 0.459 0.585 94 40 24 0 0
1.3550 1.5658 -15.1022 0.528 0.805 -0.269 106 57 48 0 0
1.3614 1.5448 -15.2101 0.773 0.633 -0.033 105 61 46 0 0
1.3659 1.5401 -15.2580 0.811 0.583 0.049 98 51 39 0 0
1.3729 1.4970 -15.4346 0.414 0.145 0.899 98 49 40 0 0
1.3746 1.4797 -15.4971 0.131 0.984 0.124 96 49 40 0 0
1.3878 1.4869 -15.5764 0.541 0.824 -0.168 81 44 32 0 0
1.3947 1.4415 -15.7590 0.376 0.671 0.639 95 44 34 0 0
1.4352 1.1677 -16.8506 0.180 0.959 -0.220 78 75 76 0 0
0.9937 1.3513 -12.7495 -0.439 0.333 0.835 110 37 22 0 0
1.1154 1.3388 -13.6987 -0.371 0.761 0.532 6 0 0 0 0
1.1317 1.3836 -13.6940 0.233 0.530 0.815 9 2 3 0 0
1.2638 1.6891 -13.8202 0.296 0.737 0.607 107 57 37 0 0
1.3240 1.6089 -14.5003 -0.306 0.187 0.933 63 42 36 0 0
1.3871 1.5470 -15.1495 0.765 0.605 0.221 104 57 45 0 0
1.4605 1.1335 -16.8728 -0.006 0.955 -0.295 81 78 80 0 0
1.1170 1.3292 -13.5022 -0.769 0.580 0.269 10 4 4 0 0
1.2327 1.5687 -13.6930 0.224 0.796 0.562 67 23 7 0 0
1.0502 1.3458 -12.7298 -0.317 0.006 0.948 112 38 24 0 0
1.1619 1.4119 -13.3723 -0.048 0.994 -0.101 13 6 4 0 0
1.1599 1.3828 -13.4379 -0.230 0.970 -0.074 12 4 4 0 0
1.2521 1.5482 -13.6610 0.138 0.851 0.507 59 18 3 0 0
1.3365 1.6360 -14.0421 0.496 0.849 0.184 67 11 5 0 0
1.4356 1.4893 -15.1809 0.287 0.867 0.407 108 62 46 0 0
1.5379 1.1582 -16.8556 -0.194 0.177 0.965 96 96 100 0 0
1.6016 1.3648 -16.7537 -0.562 0.647 0.516 121 121 124 0 0
0.9150 0.8535 -12.8645 0.220 -0.078 0.972 116 43 28 0 0
1.1099 1.4094 -12.7688 0.302 0.227 0.926 110 44 29 0 0
1.1727 1.6214 -12.6480 0.337 0.904 0.262 136 59 41 0 0
1.2124 1.4560 -13.3929 -0.360 0.931 -0.061 34 16 14 0 0
1.2248 1.4857 -13.4023 -0.226 0.932 0.283 23 7 5 0 0
1.2278 1.4771 -13.4485 -0.238 0.874 0.424 20 8 6 0 0
1.4081 1.6760 -14.2258 0.230 0.367 0.902 112 60 43 0 0
1.4690 1.5008 -15.1530 0.251 0.905 0.343 110 61 44 0 0
1.5890 1.2144 -16.8191 -0.122 0.388 0.913 107 109 113 0 0
1.6279 1.3363 -16.7696 -0.188 0.762 0.620 121 120 125 0 0
1.2415 1.6029 -12.9798 0.676 0.737 0.005 80 36 22 0 0
1.2458 1.5998 -13.0196 0.685 0.708 -0.169 54 18 8 0 0
1.2544 1.4658 -13.4461 -0.425 0.790 0.443 26 7 2 0 0
1.2643 1.4851 -13.4656 -0.187 0.931 0.312 26 6 3 0 0
1.2791 1.5250 -13.4653 0.105 0.987 0.118 25 5 2 0 0
1.3326 1.5725 -13.7258 0.241 0.710 0.662 60 11 2 0 0
1.3766 1.5998 -13.9717 0.259 0.836 0.483 54 10 3 0 0
1.4363 1.5971 -14.4135 0.782 -0.003 0.624 62 40 36 0 0
1.5977 1.1321 -16.8506 0.511 0.848 -0.138 102 101 106 0 0
1.6186 1.2001 -16.8180 0.213 0.465 0.860 108 109 113 0 0
1.6235 1.1929 -16.8738 0.401 -0.048 0.915 113 115 119 0 0
0.9960 0.9004 -12.8718 -0.343 0.204 0.917 113 46 30 0 0
1.2744 1.5779 -13.0643 0.800 0.601 -0.007 70 28 14 0 0
1.3002 1.5128 -13.4258 0.147 0.936 0.319 65 29 15 0 0
1.3056 1.5133 -13.4632 0.246 0.953 0.176 69 34 21 0 0
1.3125 1.5203 -13.4945 0.336 0.932 0.132 79 41 25 0 0
1.3867 1.6089 -13.7924 0.085 0.837 0.540 103 50 18 0 0
1.4984 1.4877 -14.9253 0.761 0.633 0.142 101 37 15 0 0
1.5003 1.4441 -15.0560 0.344 0.841 0.418 101 36 17 0 0
1.6097 1.0651 -16.8639 -0.216 0.683 0.697 89 89 94 0 0
1.6229 1.0969 -16.8740 -0.212 0.517 0.829 102 102 107 0 0
1.1046 1.1387 -12.7938 -0.335 0.939 0.083 114 45 29 0 0
1.1012 1.1043 -12.8612 0.138 -0.165 0.977 114 44 30 0 0
1.1156 1.1423 -12.8636 0.287 -0.050 0.957 112 43 29 0 0
1.1300 1.1804 -12.8660 0.287 -0.050 0.957 113 46 31 0 0
1.3064 1.5913 -13.0390 0.881 0.262 0.394 68 24 5 0 0
1.3280 1.5068 -13.4184 0.202 0.947 0.249 72 27 13 0 0
1.3334 1.5073 -13.4558 0.336 0.932 0.132 74 31 16 0 0
1.3394 1.5101 -13.4911 0.336 0.932 0.132 73 30 13 0 0
1.4573 1.5735 -14.1680 0.742 0.346 0.574 78 32 17 0 0
1.6428 1.0354 -16.9281 -0.628 0.111 0.770 102 102 106 0 0
1.2261 1.3725 -12.8256 0.645 -0.164 0.746 115 45 31 0 0
1.3084 1.5443 -12.9599 0.705 0.667 0.241 93 42 29 0 0
1.3191 1.5456 -13.0322 0.700 0.562 0.440 96 57 46 0 0
1.3308 1.5515 -13.1007 0.682 0.653 0.329 85 38 21 0 0
1.3379 1.5592 -13.1305 0.682 0.653 0.329 79 34 15 0 0
1.5464 1.3748 -15.0994 0.641 0.654 0.402 84 26 17 0 0
1.6156 1.3011 -15.7849 0.465 0.413 0.783 109 39 28 0 0
1.6271 1.2079 -16.1122 0.474 0.854 -0.216 30 30 28 0 0
0.5971 -0.7534 -13.6947 0.479 -0.217 0.850 113 53 36 0 0
1.2356 1.2922 -12.8862 0.227 -0.322 0.919 112 42 31 0 0
1.2573 1.3610 -12.8601 0.595 -0.084 0.799 117 48 36 0 0
1.2719 1.4006 -12.8604 0.591 -0.053 0.805 95 34 20 0 0
1.2836 1.4279 -12.8719 0.634 0.049 0.772 103 39 18 0 0
1.3817 1.4873 -13.4108 0.347 0.910 0.228 101 55 34 0 0
1.3885 1.4936 -13.4426 0.351 0.887 0.299 107 60 37 0 0
1.4017 1.5038 -13.5087 0.415 0.893 0.175 105 57 36 0 0
1.5726 1.3537 -15.1066 0.641 0.654 0.402 97 41 30 0 0
1.5803 1.3615 -15.1406 0.490 0.436 0.755 106 42 24 0 0
1.6188 1.3719 -15.3858 0.877 0.472 0.086 50 32 28 0 0
1.6592 1.3295 -15.7813 -0.018 0.382 0.924 93 40 32 0 0
1.6623 1.2845 -15.9201 0.128 0.003 0.992 38 29 29 0 0
1.6638 1.2615 -15.9906 0.803 0.186 0.567 33 29 28 0 0
1.7039 1.0470 -16.8319 -0.293 0.340 0.894 94 93 98 0 0
1.7225 1.1057 -16.8107 -0.168 0.946 0.278 103 103 106 0 0
0.6250 -0.7704 -13.6961 0.439 -0.076 0.895 115 54 36 0 0
0.6523 -0.6820 -13.6605 -0.173 0.119 0.978 128 63 32 0 0
1.3088 1.4131 -12.8730 0.668 0.260 0.697 105 40 22 0 0
1.4151 1.4826 -13.4400 0.194 0.924 0.329 91 46 33 0 0
1.4175 1.4695 -13.4905 0.591 0.771 0.239 93 48 36 0 0
1.5984 1.3309 -15.1155 0.457 0.805 0.379 113 46 33 0 0
1.6779 1.2385 -15.9105 0.698 0.679 0.228 42 27 25 0 0
1.7088 1.2959 -15.9801 0.600 0.713 0.362 27 28 26 0 0
1.7402 1.0655 -16.7928 -0.070 0.800 0.596 95 94 99 0 0
1.7627 1.1441 -16.7483 -0.286 0.927 0.243 103 103 106 0 0
0.6481 -0.8067 -13.7139 0.352 -0.107 0.930 115 53 33 0 0
1.6171 1.3029 -15.0876 0.577 0.773 0.265 117 43 32 0 0
1.6505 1.2872 -15.3602 0.899 0.430 -0.087 15 11 10 0 0
1.7049 1.2170 -15.9180 0.639 0.683 0.355 38 27 26 0 0
1.7742 1.0732 -16.7663 0.128 0.896 0.426 96 95 100 0 0
1.7898 1.1176 -16.7616 -0.003 0.739 0.674 103 103 105 0 0
1.8006 1.1384 -16.7843 -0.003 0.739 0.674 108 108 109 0 0
1.8169 1.1868 -16.7746 0.267 0.382 0.885 111 111 115 0 0
0.4138 -1.6387 -13.9562 0.531 -0.245 0.811 209 209 211 0 0
0.6957 -0.7427 -13.6470 0.406 0.710 0.575 114 52 34 0 0
1.4035 1.3436 -13.2820 0.805 0.566 0.178 81 25 13 0 0
1.4304 1.3660 -13.4115 0.279 0.916 0.288 82 27 15 0 0
1.4385 1.3777 -13.4381 0.263 0.893 0.365 81 28 14 0 0
1.6532 1.2999 -15.1179 0.496 0.739 0.455 100 35 14 0 0
1.6633 1.3189 -15.1400 0.129 0.647 0.751 67 25 14 0 0
1.6727 1.2456 -15.3893 0.866 0.482 -0.131 11 9 10 0 0
1.7963 1.0554 -16.7226 0.002 0.354 0.935 88 87 88 0 0
1.8086 1.0833 -16.7370 0.176 0.884 0.432 96 95 100 0 0
1.8227 1.1209 -16.7402 0.225 0.338 0.914 103 102 104 0 0
1.8389 1.1687 -16.7313 0.210 0.252 0.945 107 107 107 0 0
1.8449 1.1648 -16.7827 0.481 0.448 0.754 109 109 111 0 0
2.1514 1.9149 -17.0113 -0.077 0.964 -0.253 190 190 192 0 0
0.4288 -1.6653 -13.8850 0.318 0.791 0.522 212 213 215 0 0
0.4536 -1.6356 -13.9806 0.244 0.176 0.953 204 201 199 0 0
0.7199 -0.7744 -13.6609 -0.485 0.511 0.710 111 51 34 0 0
1.6309 1.3365 -14.6479 0.548 0.825 0.137 42 38 38 0 0
1.6348 1.3265 -14.6993 0.706 0.700 0.106 45 39 37 0 0
1.6640 1.2637 -15.0565 0.530 0.787 0.315 100 36 12 0 0
1.6815 1.2882 -15.1149 0.380 0.637 0.671 75 32 18 0 0
1.6938 1.1980 -15.4249 0.866 0.482 -0.131 8 7 9 0 0
1.8296 1.0607 -16.6990 -0.227 0.910 0.346 88 87 88 0 0
1.8377 1.0669 -16.7385 -0.126 0.985 0.120 95 94 99 0 0
1.8515 1.1032 -16.7432 -0.150 0.819 0.554 101 101 101 0 0
0.4898 -1.6228 -13.9572 0.449 0.568 0.690 207 204 204 0 0
1.6602 1.3035 -14.7083 0.653 0.754 0.080 42 38 39 0 0
1.6941 1.2609 -15.0442 0.654 0.720 0.230 94 43 22 0 0
1.7076 1.2664 -15.1228 0.496 0.739 0.455 27 10 6 0 0
1.6940 1.0155 -15.6493 0.311 0.011 0.950 6 6 7 0 0
1.8210 1.2612 -15.9085 0.009 0.840 0.543 25 25 28 0 0
1.8623 1.0271 -16.7670 -0.295 0.925 0.241 93 93 96 0 0
1.8745 1.0552 -16.7813 0.079 0.810 0.582 99 99 99 0 0
1.8916 1.1083 -16.7665 0.215 0.479 0.851 104 104 103 0 0
0.5191 -1.6389 -13.9573 -0.073 0.782 0.618 205 201 201 0 0
1.7203 1.2395 -15.0516 0.654 0.720 0.230 37 16 10 0 0
1.7266 1.2399 -15.0933 0.703 0.633 0.323 27 12 10 0 0
1.7153 0.9657 -15.6871 0.299 -0.173 0.938 3 3 3 0 0
1.7927 1.1247 -15.8218 0.435 0.688 0.580 16 7 8 0 0
1.8483 1.2409 -15.9147 0.678 0.596 0.430 25 25 27 0 0
1.8538 0.8495 -16.9074 -0.276 0.315 0.908 87 86 89 0 0
1.8761 0.9302 -16.8614 0.149 0.983 0.104 92 93 92 0 0
0.8752 -0.6180 -13.6458 0.409 0.336 0.848 130 76 58 0 0
1.6220 1.3178 -13.9821 0.699 0.626 0.346 90 29 9 0 0
1.6293 1.3247 -14.0146 0.750 0.545 0.376 91 35 16 0 0
1.6336 1.3170 -14.0616 0.762 0.628 0.159 100 52 31 0 0
1.6398 1.3188 -14.0992 0.762 0.628 0.159 108 65 44 0 0
1.6826 1.3530 -14.3038 0.506 0.813 0.289 116 60 45 0 0
1.7539 1.2549 -15.0202 0.131 0.908 0.398 11 9 11 0 0
1.7616 1.2619 -15.0549 0.274 0.934 0.230 13 10 11 0 0
1.7393 0.9609 -15.6326 -0.605 0.181 0.776 3 3 5 0 0
1.7427 0.9452 -15.6933 0.239 -0.095 0.966 3 3 5 0 0
1.7510 0.9541 -15.7275 0.743 -0.053 0.667 4 3 5 0 0
1.9081 0.9277 -16.8467 0.127 0.984 0.128 91 92 90 0 0
1.9204 0.9559 -16.8612 0.066 0.740 0.669 95 96 94 0 0
0.9170 -0.5987 -13.6555 0.266 -0.028 0.964 137 81 57 0 0
1.6632 1.2891 -14.1149 0.758 0.649 0.061 103 60 46 0 0
1.7826 1.2460 -15.0145 0.362 0.916 0.174 11 6 5 0 0
1.7834 0.9592 -15.7060 0.615 0.399 0.680 2 3 4 0 0
1.7943 0.9812 -15.7260 0.696 0.451 0.559 2 2 2 0 0
1.8509 1.1023 -15.8141 0.154 0.693 0.704 21 21 24 0 0
1.8986 1.2119 -15.8699 0.098 0.515 0.852 24 23 28 0 0
1.9480 0.9683 -16.7824 -0.358 0.922 0.146 89 90 90 0 0
1.0741 -0.2533 -13.6560 -0.047 0.135 0.990 108 45 29 0 0
1.9686 0.9429 -16.7474 -0.557 0.713 0.427 83 81 81 0 0
0.9517 -0.6970 -13.6743 0.461 0.088 0.883 131 76 51 0 0
1.1714 -0.0887 -13.6929 0.377 0.516 0.769 138 75 47 0 0
1.1820 -0.0674 -13.7129 0.466 0.397 0.791 165 113 90 0 0
1.1921 -0.0484 -13.7350 0.519 0.518 0.680 128 75 55 0 0
1.2043 -0.0203 -13.7489 0.554 0.365 0.748 134 74 47 0 0
1.5833 1.0765 -13.6701 0.577 0.300 0.760 117 48 30 0 0
1.8347 1.0028 -15.4969 -0.128 0.198 0.972 2 2 4 0 0
2.1156 1.2658 -16.7285 -0.346 -0.525 0.777 107 106 104 0 0
1.1955 -0.1194 -13.7069 0.315 0.763 0.565 128 59 34 0 0
1.2065 -0.0962 -13.7253 0.457 0.525 0.718 155 104 80 0 0
1.2166 -0.0776 -13.7477 0.393 0.691 0.606 127 77 59 0 0
1.2302 -0.0426 -13.7556 0.019 0.585 0.810 124 65 39 0 0
1.7954 1.2318 -14.4902 0.496 0.866 -0.061 101 53 41 0 0
1.8333 0.9372 -15.4218 0.421 0.013 0.907 12 8 9 0 0
1.8452 0.9643 -15.4360 0.515 0.040 0.856 10 8 9 0 0
1.8697 1.0235 -15.4592 0.277 0.201 0.940 2 2 4 0 0
2.0297 0.9249 -16.7333 0.256 0.631 0.732 79 77 77 0 0
1.2330 -0.1162 -13.7298 0.104 0.610 0.785 140 90 64 0 0
1.5308 0.7711 -13.6229 0.627 -0.225 0.746 109 42 25 0 0
1.8165 1.1870 -14.5212 0.712 0.702 -0.010 98 50 39 0 0
1.8356 0.8563 -15.4056 0.725 0.431 0.537 7 4 4 0 0
1.8592 0.9103 -15.4346 0.528 0.285 0.800 12 7 10 0 0
1.9399 1.0187 -15.7091 -0.322 0.760 0.565 4 4 6 0 0
2.1494 1.5328 -15.8868 -0.513 0.825 -0.236 56 54 53 0 0
2.3150 1.6407 -16.7140 0.786 -0.237 0.571 156 156 156 0 0
1.3708 0.1856 -13.7198 0.368 0.489 0.791 121 40 19 0 0
1.4727 0.4959 -13.6707 0.195 -0.234 0.953 119 42 22 0 0
1.5328 0.6675 -13.6671 0.618 -0.104 0.779 114 42 21 0 0
1.6221 0.9530 -13.5935 -0.521 0.314 0.794 115 48 31 0 0
1.7620 1.1060 -14.1470 0.741 0.430 0.516 97 57 47 0 0
1.8267 1.1506 -14.4627 0.672 0.740 -0.030 105 50 42 0 0
1.8326 1.1486 -14.5052 0.698 0.711 0.087 99 50 41 0 0
1.8385 1.1467 -14.5477 0.605 0.795 -0.032 97 49 38 0 0
1.8647 0.8459 -15.4011 0.523 0.420 0.742 5 4 2 0 0
1.8875 0.8957 -15.4346 0.404 0.475 0.782 10 6 10 0 0
1.8963 0.9071 -15.4656 0.321 0.384 0.866 7 5 8 0 0
1.9079 0.9330 -15.4812 0.040 0.309 0.950 3 2 4 0 0
1.9197 0.9601 -15.4955 0.257 0.374 0.891 2 2 4 0 0
1.9651 0.9869 -15.7276 -0.266 0.135 0.954 5 5 7 0 0
1.9796 1.0283 -15.7265 0.360 0.451 0.817 6 6 8 0 0
2.0043 1.0889 -15.7482 0.314 0.572 0.757 6 6 8 0 0
2.0151 1.1102 -15.7687 0.237 0.524 0.818 6 6 8 0 0
2.3231 1.5457 -16.7637 0.941 0.147 0.305 153 153 153 0 0
1.3248 -0.0602 -13.7708 -0.440 0.777 0.451 147 78 45 0 0
1.4181 0.2079 -13.7641 0.151 0.405 0.902 124 44 21 0 0
1.5273 0.5556 -13.6799 0.707 -0.170 0.686 120 43 20 0 0
1.5384 0.5803 -13.6957 0.728 -0.203 0.655 124 44 22 0 0
1.6908 1.0860 -13.5319 -0.678 0.732 -0.067 115 49 33 0 0
1.7210 1.1464 -13.5891 -0.728 0.351 0.589 94 45 32 0 0
1.8521 1.0951 -14.5448 0.810 0.586 0.019 99 51 41 0 0
2.0014 1.0146 -15.6817 -0.014 -0.148 0.989 6 6 8 0 0
2.0080 1.0137 -15.7264 0.236 0.396 0.888 6 6 8 0 0
1.3682 -0.0293 -13.7692 -0.317 0.624 0.714 126 48 26 0 0
1.3858 0.0253 -13.7594 -0.146 0.468 0.872 117 40 23 0 0
1.7200 1.1157 -13.4530 -0.687 0.721 -0.091 127 60 40 0 0
1.8500 1.0601 -14.4039 0.633 0.750 0.194 110 59 40 0 0
1.8726 0.9446 -14.8057 0.264 0.817 -0.513 62 44 38 0 0
1.8651 0.8708 -14.9223 0.349 0.782 -0.517 46 38 35 0 0
1.9547 0.8876 -15.4550 0.696 0.521 0.493 1 2 4 0 0
1.9636 0.8991 -15.4859 0.740 0.390 0.547 1 2 4 0 0
0.8064 -1.8253 -13.9793 0.726 0.551 -0.412 186 181 181 0 0
1.3903 -0.0405 -13.7272 0.291 0.644 0.708 132 59 30 0 0
1.4026 -0.0114 -13.7402 -0.037 0.555 0.831 120 43 23 0 0
1.4165 0.0257 -13.7460 0.051 0.379 0.924 118 41 22 0 0
1.5173 0.3640 -13.6357 0.514 0.290 0.807 124 43 21 0 0
1.7512 1.1559 -13.3648 -0.707 0.702 -0.084 132 64 46 0 0
1.7576 1.1581 -13.4003 -0.687 0.721 -0.091 132 71 52 0 0
1.7739 1.1501 -13.5213 -0.798 0.602 -0.031 143 85 71 0 0
1.7769 1.1352 -13.5734 -0.718 0.695 -0.040 130 80 69 0 0
1.9082 1.0067 -14.6868 0.747 0.652 -0.131 98 60 42 0 0
1.9040 0.9502 -14.7852 0.416 0.847 -0.332 64 42 36 0 0
1.8748 0.5812 -15.4158 -0.459 0.771 -0.441 13 9 8 0 0
1.9037 0.6265 -15.4980 -0.276 -0.020 0.961 7 5 6 0 0
2.0634 0.9760 -15.7353 0.220 -0.297 0.929 7 7 8 0 0
1.8067 1.1692 -13.4902 -0.547 0.819 0.172 146 89 73 0 0
1.8384 1.2380 -13.5387 -0.062 0.217 0.974 120 67 54 0 0
1.8797 1.0364 -14.2392 0.647 0.717 0.259 92 51 38 0 0
1.9358 0.9930 -14.6862 0.734 0.679 -0.012 90 55 39 0 0
1.9085 0.5943 -15.3869 -0.331 0.795 -0.508 12 8 7 0 0
1.9213 0.5896 -15.4778 0.930 -0.097 0.354 11 8 7 0 0
1.9326 0.6139 -15.4956 0.915 -0.121 0.385 8 6 7 0 0
1.9456 0.6475 -15.5037 0.923 0.057 0.382 6 5 5 0 0
2.0506 0.9240 -15.5577 0.319 0.254 0.913 8 6 9 0 0
2.2716 1.5580 -15.5588 0.500 0.741 0.448 52 52 54 0 0
2.2425 0.8724 -16.8759 -0.592 0.434 0.679 84 81 79 0 0
1.0355 -1.2175 -13.6556 -0.012 0.093 0.996 116 56 41 0 0
1.0510 -1.1747 -13.6594 -0.012 0.093 0.996 116 54 40 0 0
1.0665 -1.1315 -13.6627 -0.018 0.009 1.000 114 53 40 0 0
1.4486 -0.0546 -13.7136 -0.159 0.162 0.974 118 43 25 0 0
1.4969 0.0903 -13.7010 -0.144 0.268 0.953 120 41 21 0 0
1.5265 0.1751 -13.7025 0.214 0.531 0.820 119 37 15 0 0
1.5402 0.2117 -13.7083 0.437 0.577 0.690 120 38 16 0 0
1.5903 0.3676 -13.6833 0.215 0.378 0.900 122 40 18 0 0
1.6025 0.3976 -13.6946 0.019 0.389 0.921 124 42 20 0 0
1.6267 0.4562 -13.7183 0.507 0.745 0.434 124 42 20 0 0
1.8629 1.2155 -13.5470 0.409 0.306 0.860 124 71 59 0 0
1.8435 0.9565 -13.9874 0.529 0.799 0.286 99 36 6 0 0
1.8753 0.9573 -14.1836 -0.271 0.760 0.590 92 50 42 0 0
1.8868 0.9844 -14.1968 -0.285 0.538 0.793 80 33 20 0 0
1.9657 0.6239 -15.4697 -0.490 -0.240 0.838 9 7 8 0 0
2.0181 0.8003 -15.4145 0.415 0.610 0.675 3 3 4 0 0
2.0281 0.8181 -15.4387 0.640 0.653 0.405 2 2 4 0 0
1.0904 -1.1681 -13.6802 -0.040 0.111 0.993 115 54 40 0 0
1.1877 -0.8872 -13.6803 -0.091 0.063 0.994 123 52 33 0 0
1.2035 -0.8420 -13.6813 -0.069 0.196 0.978 138 60 34 0 0
1.4503 -0.1344 -13.6936 0.090 0.061 0.994 123 50 32 0 0
1.6528 0.4369 -13.7228 0.556 0.661 0.504 123 42 20 0 0
1.8778 1.2067 -13.4664 -0.183 0.865 0.467 131 75 59 0 0
1.8835 1.2044 -13.5065 -0.125 -0.240 0.963 131 77 63 0 0
1.8854 0.9550 -14.0536 0.769 0.503 0.394 105 28 5 0 0
1.8906 0.9485 -14.0993 0.560 0.816 0.144 91 24 10 0 0
1.9125 0.9635 -14.2033 0.454 0.824 0.339 73 26 13 0 0
1.9286 0.9806 -14.2661 0.757 0.617 0.214 94 52 39 0 0
1.9778 0.9660 -14.6027 0.744 0.545 0.387 102 52 40 0 0
2.1181 0.9171 -15.5769 0.708 0.251 0.661 10 8 11 0 0
2.2005 1.1519 -15.5840 0.147 -0.074 0.986 14 12 13 0 0
2.2144 1.1927 -15.5830 0.147 -0.074 0.986 14 12 14 0 0
2.2741 1.3799 -15.5512 -0.016 0.068 0.998 18 17 19 0 0
2.4539 1.4240 -16.5711 0.393 0.917 0.062 126 125 127 0 0
2.4614 1.4240 -16.6172 0.393 0.917 0.062 132 132 133 0 0
1.1561 -1.0676 -13.6623 -0.129 0.220 0.967 108 49 35 0 0
1.2645 -0.7603 -13.6773 -0.016 0.226 0.974 143 67 33 0 0
1.9104 0.9304 -14.0636 0.759 0.552 0.346 105 27 5 0 0
1.9461 0.9497 -14.2426 0.670 0.629 0.396 85 44 32 0 0
1.9539 0.9572 -14.2750 0.705 0.684 0.189 102 58 41 0 0
2.2090 1.0628 -15.6213 -0.104 0.053 0.993 15 13 14 0 0
2.3844 1.5236 -15.7229 0.816 0.482 0.321 59 57 55 0 0
2.5047 1.5035 -16.5063 0.389 0.609 0.691 132 132 134 0 0
2.5184 1.5442 -16.5042 0.625 0.769 -0.135 140 140 141 0 0
1.1494 -1.1898 -13.6726 -0.106 0.081 0.991 120 57 43 0 0
1.1859 -1.0758 -13.6564 -0.129 0.220 0.967 107 53 39 0 0
1.2003 -1.0371 -13.6632 -0.195 0.149 0.969 107 52 34 0 0
1.2880 -0.7980 -13.6963 0.205 0.118 0.972 136 61 33 0 0
1.3279 -0.6656 -13.6619 0.285 0.245 0.927 127 70 48 0 0
1.3394 -0.6401 -13.6790 0.381 0.394 0.836 132 78 52 0 0
1.6966 0.3873 -13.7032 0.011 0.520 0.854 123 41 19 0 0
1.9386 0.9232 -14.0569 0.623 0.693 0.363 104 28 3 0 0
1.9722 0.9300 -14.2479 0.740 0.462 0.488 91 49 35 0 0
1.9800 0.9371 -14.2808 0.729 0.654 0.205 105 63 46 0 0
2.3207 0.6533 -16.9630 -0.336 0.371 0.866 76 70 70 0 0
1.1789 -1.2003 -13.6686 -0.106 0.081 0.991 120 58 44 0 0
1.3538 -0.6907 -13.6705 0.490 0.129 0.862 129 67 38 0 0
1.7623 0.4749 -13.7258 0.462 -0.066 0.884 136 61 37 0 0
1.9258 0.9363 -13.7586 0.838 -0.225 0.496 111 39 17 0 0
2.0588 0.9162 -14.6095 0.565 0.797 0.214 81 50 41 0 0
2.4299 1.4754 -15.7010 0.583 0.776 0.240 52 50 51 0 0
2.5761 1.4678 -16.6056 0.665 0.723 -0.189 147 146 146 0 0
1.2074 -1.2162 -13.6690 0.096 -0.017 0.995 121 59 45 0 0
1.3200 -0.9168 -13.7317 0.502 0.223 0.836 117 48 31 0 0
1.3617 -0.7740 -13.6894 0.489 -0.063 0.870 117 55 33 0 0
1.3794 -0.7182 -13.6809 0.490 0.129 0.862 132 64 36 0 0
1.7472 0.3397 -13.7202 -0.215 0.091 0.972 120 42 18 0 0
1.7786 0.4042 -13.7772 0.211 -0.210 0.955 131 57 32 0 0
1.9467 0.8565 -13.8594 0.639 0.534 0.554 118 36 7 0 0
2.4619 1.4409 -15.7672 0.518 0.753 0.406 67 63 64 0 0
2.6760 1.5207 -16.8967 -0.352 -0.365 0.862 181 181 182 0 0
1.3262 -0.9777 -13.6922 0.182 0.277 0.943 161 100 60 0 0
1.9603 0.8055 -13.8556 0.717 -0.008 0.697 111 34 7 0 0
2.0875 0.8535 -14.5217 0.626 0.743 0.235 107 56 41 0 0
2.2286 0.7411 -15.5989 -0.353 0.164 0.921 7 5 6 0 0
2.4053 1.2558 -15.6081 0.119 0.627 0.770 33 32 34 0 0
2.4716 1.4025 -15.7066 0.353 0.485 0.800 36 34 38 0 0
2.4919 1.4398 -15.7523 0.567 0.567 0.598 58 54 55 0 0
2.6438 1.4025 -16.7404 0.829 0.469 0.305 154 154 154 0 0
2.6411 1.3297 -16.8734 0.779 0.624 -0.068 159 158 159 0 0
2.6835 1.4083 -16.9671 -0.158 -0.459 0.874 177 177 177 0 0
2.7405 1.6488 -16.8177 -0.199 -0.454 0.868 189 189 191 0 0
1.3544 -0.9936 -13.6927 0.062 0.352 0.934 167 108 63 0 0
1.3644 -0.9760 -13.7169 0.282 0.655 0.701 138 73 45 0 0
1.3771 -0.9449 -13.7298 0.330 0.511 0.794 118 44 26 0 0
1.9725 0.7469 -13.8586 0.621 0.452 0.641 106 27 7 0 0
1.9830 0.7687 -13.8769 0.686 -0.004 0.728 109 29 5 0 0
2.0080 0.7626 -14.0387 0.778 0.478 0.408 130 53 17 0 0
2.0261 0.7901 -14.0909 0.754 0.489 0.440 108 33 3 0 0
2.4447 1.2679 -15.6223 0.313 0.581 0.751 31 30 35 0 0
2.4983 1.3799 -15.7157 0.560 0.357 0.747 41 38 40 0 0
2.6959 1.3301 -16.9959 -0.225 -0.491 0.842 174 174 174 0 0
2.7385 1.5243 -16.8567 -0.237 -0.504 0.831 183 183 185 0 0
1.3697 -1.0412 -13.6808 0.229 0.381 0.896 136 74 38 0 0
1.3820 -1.0124 -13.6956 0.219 0.459 0.861 148 88 50 0 0
1.3930 -0.9897 -13.7156 0.291 0.535 0.793 122 56 29 0 0
1.4159 -0.9402 -13.7519 0.016 0.351 0.936 121 54 32 0 0
1.4325 -0.8888 -13.7477 0.389 -0.023 0.921 121 60 41 0 0
1.4691 -0.7689 -13.7243 0.077 0.874 0.480 133 58 29 0 0
2.4237 1.1252 -15.5890 -0.321 0.398 0.860 10 8 12 0 0
2.4625 1.2344 -15.5997 0.168 0.744 0.647 15 14 18 0 0
2.4734 1.2581 -15.6170 0.196 0.691 0.696 20 19 24 0 0
2.4838 1.2785 -15.6381 0.225 0.632 0.742 17 16 21 0 0
2.4943 1.2990 -15.6588 0.225 0.632 0.742 38 36 38 0 0
2.5417 1.3702 -15.7977 0.886 0.134 0.445 55 51 50 0 0
1.3853 -1.0882 -13.6682 0.138 0.428 0.893 124 60 30 0 0
1.3976 -1.0591 -13.6829 0.126 0.501 0.856 122 58 25 0 0
1.4094 -1.0327 -13.6998 0.192 0.664 0.722 127 63 33 0 0
1.4213 -1.0052 -13.7157 0.120 0.653 0.747 117 49 28 0 0
1.4474 -0.9392 -13.7383 -0.291 0.297 0.910 121 53 32 0 0
2.3152 0.7504 -15.4993 0.617 0.368 0.696 7 5 8 0 0
2.4896 1.2144 -15.6058 0.215 0.866 0.452 29 27 30 0 0
2.5003 1.2363 -15.6251 0.198 0.700 0.686 27 25 28 0 0
2.5103 1.2541 -15.6489 0.308 0.705 0.639 25 23 26 0 0
2.5201 1.2704 -15.6743 0.387 0.523 0.760 55 52 54 0 0
