ply
format ascii 1.0
element vertex 848
property float x
property float y
property float z
property float nx
property float ny
property float nz
property uchar diffuse_red
property uchar diffuse_green
property uchar diffuse_blue
property uchar class
property uchar detection
end_header
1.8658 -0.4668 -13.7531 0.776 0.158 0.611 174 104 68 0 0
1.8967 -0.4626 -13.7598 0.672 0.090 0.735 201 152 132 0 0
2.2596 -0.4027 -13.7635 0.330 -0.066 0.942 152 68 43 0 0
2.3326 -0.3904 -13.7625 0.433 -0.331 0.838 161 81 57 0 0
2.3621 -0.3865 -13.7695 0.286 -0.278 0.917 163 86 62 0 0
3.3145 -0.5081 -15.7001 0.506 -0.759 0.409 60 17 9 0 0
3.3311 -0.5088 -15.7243 0.266 -0.699 0.664 106 40 19 0 0
4.8894 -0.1366 -14.9487 0.405 -0.694 0.596 109 59 48 0 0
4.9293 -0.1344 -14.9792 0.506 0.279 0.816 106 46 30 0 0
4.9553 -0.1309 -14.9851 0.673 0.434 0.599 103 39 23 0 0
5.0158 -0.1341 -15.0761 0.798 0.406 0.445 103 62 54 0 0
5.0559 -0.1453 -15.1997 0.793 0.175 0.583 57 33 33 0 0
5.0619 -0.1498 -15.2372 0.898 0.272 0.346 53 28 31 0 0
5.0718 -0.1527 -15.2688 0.918 0.353 0.183 51 26 29 0 0
5.4382 -0.3016 -16.7149 -0.034 0.661 0.750 191 190 190 0 0
5.6157 -0.2719 -16.7142 0.979 -0.078 0.186 202 202 202 0 0
-0.9558 -0.8161 -12.7191 -0.211 -0.507 0.836 112 67 60 0 0
-0.5944 -0.7606 -12.7542 0.695 -0.349 0.628 111 36 20 0 0
-0.4397 -0.7427 -12.8088 0.849 -0.314 0.425 123 56 40 0 0
-0.2083 -0.7346 -13.0186 0.543 -0.548 0.637 83 31 17 0 0
-0.0422 -0.7571 -13.3626 0.928 -0.263 0.264 48 47 45 0 0
0.0678 -0.7691 -13.5708 0.820 -0.267 0.506 54 45 42 0 0
0.7130 -0.6746 -13.6643 0.664 0.115 0.738 167 109 80 0 0
1.1695 -0.6011 -13.6849 0.207 -0.186 0.961 127 51 26 0 0
1.4735 -0.5568 -13.7300 0.437 0.196 0.878 131 62 40 0 0
1.5081 -0.5515 -13.7337 0.228 0.195 0.954 132 58 34 0 0
1.9054 -0.4875 -13.7514 0.774 0.084 0.628 205 161 146 0 0
3.0946 -0.4122 -14.5994 0.856 0.473 0.206 56 16 7 0 0
3.1038 -0.4153 -14.6308 0.856 0.473 0.206 80 38 29 0 0
3.1130 -0.4183 -14.6622 0.856 0.473 0.206 76 36 28 0 0
3.3354 -0.5358 -15.7200 -0.037 -0.471 0.881 100 37 21 0 0
4.2275 -0.2509 -14.7949 -0.012 0.523 0.852 110 53 35 0 0
5.0446 -0.1556 -15.0794 0.452 0.365 0.814 106 65 57 0 0
5.0571 -0.1575 -15.1064 0.666 0.485 0.567 94 58 50 0 0
5.1306 -0.3826 -16.7301 0.416 -0.191 0.889 127 118 115 0 0
5.3904 -0.3342 -16.6964 0.340 0.159 0.927 185 183 183 0 0
5.4248 -0.3272 -16.6881 0.064 0.152 0.986 188 186 187 0 0
5.4451 -0.3263 -16.7051 0.248 0.278 0.928 190 188 189 0 0
-0.0442 -0.7869 -13.3649 0.978 -0.087 0.190 84 82 78 0 0
1.4725 -0.5852 -13.7319 0.640 0.503 0.581 147 95 79 0 0
1.4899 -0.5854 -13.7534 0.569 0.409 0.714 139 80 63 0 0
1.7557 -0.5289 -13.6739 0.120 0.096 0.988 110 50 26 0 0
1.8756 -0.5133 -13.7050 0.556 0.426 0.713 165 86 33 0 0
1.9074 -0.5146 -13.7502 0.774 0.084 0.628 186 131 113 0 0
2.4443 -0.4313 -13.7995 0.565 0.444 0.695 162 85 63 0 0
2.4802 -0.4252 -13.7993 0.713 0.505 0.487 173 100 82 0 0
3.2297 -0.4686 -14.9509 0.795 0.394 0.461 62 18 4 0 0
3.3236 -0.5688 -15.7382 -0.037 -0.471 0.881 77 26 12 0 0
4.9358 -0.1841 -14.9731 0.272 0.568 0.777 106 52 38 0 0
4.9754 -0.1752 -14.9580 0.459 0.812 0.360 102 43 28 0 0
5.0341 -0.1791 -15.0515 0.643 0.559 0.523 99 44 28 0 0
5.0511 -0.1791 -15.0712 0.591 0.443 0.674 104 51 39 0 0
5.0686 -0.1790 -15.0903 0.634 0.493 0.596 104 60 49 0 0
5.1631 -0.2105 -15.4121 0.791 0.108 0.603 38 21 21 0 0
5.1805 -0.2105 -15.4318 0.648 0.258 0.717 41 26 26 0 0
5.1958 -0.2113 -15.4549 0.791 0.108 0.603 49 36 35 0 0
5.2122 -0.2117 -15.4764 0.791 0.108 0.603 59 46 46 0 0
5.2300 -0.2115 -15.4956 0.957 0.113 0.267 65 54 53 0 0
5.2376 -0.2156 -15.5316 0.979 0.160 0.127 66 59 57 0 0
5.2411 -0.2213 -15.5745 0.931 0.363 0.037 67 63 61 0 0
5.1239 -0.4135 -16.7445 0.453 0.032 0.891 125 116 114 0 0
5.5990 -0.3424 -16.8053 0.865 -0.165 0.473 203 203 204 0 0
1.5031 -0.6093 -13.7407 0.569 0.636 0.521 142 96 85 0 0
1.8005 -0.5480 -13.6672 0.228 0.227 0.947 104 40 24 0 0
2.4748 -0.4542 -13.8064 0.419 0.110 0.902 175 100 77 0 0
3.2257 -0.4847 -14.8694 0.840 0.491 0.229 50 13 7 0 0
3.2293 -0.4899 -14.9087 0.850 0.397 0.347 45 9 4 0 0
3.2373 -0.4936 -14.9425 0.795 0.394 0.461 49 11 5 0 0
3.2899 -0.6030 -15.7392 0.220 -0.123 0.968 52 28 20 0 0
4.6161 -0.2548 -14.9097 0.402 0.913 -0.065 110 62 49 0 0
4.7460 -0.2513 -15.0346 0.249 -0.525 0.814 110 61 49 0 0
4.9669 -0.2047 -14.9731 0.447 0.711 0.542 98 40 24 0 0
4.9922 -0.2015 -14.9800 0.853 0.407 0.328 98 38 22 0 0
5.0404 -0.2027 -15.0436 0.901 0.161 0.403 99 39 21 0 0
5.0523 -0.2048 -15.0714 0.745 -0.029 0.667 101 41 24 0 0
5.0691 -0.2050 -15.0915 0.715 -0.158 0.681 100 44 30 0 0
5.1658 -0.2358 -15.4098 0.646 -0.176 0.743 68 40 41 0 0
5.2245 -0.2403 -15.5068 0.952 -0.225 0.209 53 27 28 0 0
5.2316 -0.2445 -15.5436 0.952 -0.225 0.209 56 34 33 0 0
5.2448 -0.2463 -15.5705 0.996 -0.022 0.083 54 36 35 0 0
5.2473 -0.2525 -15.6153 0.999 0.026 0.045 55 39 38 0 0
5.1253 -0.4409 -16.7447 -0.027 -0.296 0.955 124 116 113 0 0
-0.0535 -0.8539 -13.4127 0.831 -0.278 0.482 107 103 94 0 0
-0.0345 -0.8538 -13.4339 0.757 -0.347 0.553 102 98 89 0 0
-0.0161 -0.8540 -13.4558 0.884 -0.289 0.366 102 97 89 0 0
0.0015 -0.8775 -13.6334 0.524 -0.034 0.851 81 77 72 0 0
1.2089 -0.6795 -13.6870 0.174 -0.362 0.916 116 77 70 0 0
1.2422 -0.6746 -13.6927 0.129 -0.415 0.900 103 57 42 0 0
1.4618 -0.6332 -13.6659 0.588 0.193 0.785 173 111 82 0 0
1.4681 -0.6370 -13.6987 0.904 0.147 0.401 127 64 39 0 0
1.7633 -0.5820 -13.6678 0.089 -0.061 0.994 114 42 22 0 0
1.8060 -0.5739 -13.6623 0.228 0.227 0.947 103 39 24 0 0
1.8290 -0.5722 -13.6774 0.323 0.161 0.933 138 68 32 0 0
2.3588 -0.4908 -13.7375 0.681 -0.209 0.702 153 71 47 0 0
2.4996 -0.4730 -13.7795 0.663 -0.310 0.681 166 90 65 0 0
2.5148 -0.4739 -13.8024 0.706 -0.297 0.643 170 98 77 0 0
2.5370 -0.4723 -13.8173 0.498 -0.039 0.866 174 108 91 0 0
3.0848 -0.4476 -14.2769 0.984 0.034 0.174 101 47 29 0 0
3.0796 -0.4557 -14.3251 0.880 0.046 0.474 107 52 32 0 0
3.2026 -0.4625 -14.5107 0.857 0.450 0.253 103 53 29 0 0
3.2238 -0.4676 -14.5694 0.970 0.221 0.105 69 23 16 0 0
3.2289 -0.4722 -14.6060 0.970 0.221 0.105 67 19 9 0 0
3.2334 -0.4771 -14.6434 0.941 0.314 0.122 70 26 8 0 0
3.2491 -0.5105 -14.8845 0.773 0.578 0.263 46 12 7 0 0
4.3174 -0.3298 -14.8955 -0.053 0.743 0.668 113 59 46 0 0
5.0712 -0.2234 -15.0439 0.796 0.229 0.560 99 37 20 0 0
5.0847 -0.2248 -15.0692 0.844 0.300 0.445 101 37 20 0 0
5.1962 -0.2641 -15.4587 0.933 0.117 0.342 64 34 32 0 0
5.2062 -0.2671 -15.4906 0.950 0.029 0.312 64 35 34 0 0
5.2166 -0.2701 -15.5220 0.943 0.070 0.325 59 31 31 0 0
5.2271 -0.2730 -15.5534 0.946 0.079 0.314 56 28 27 0 0
5.2375 -0.2759 -15.5849 0.970 0.054 0.239 56 29 28 0 0
5.2487 -0.2785 -15.6153 0.955 0.167 0.245 57 32 31 0 0
5.2579 -0.2820 -15.6489 0.955 0.167 0.245 57 32 30 0 0
5.2569 -0.2898 -15.6998 0.968 0.245 0.056 56 33 32 0 0
5.2680 -0.2999 -15.7802 0.922 0.375 0.096 69 48 46 0 0
5.5791 -0.3984 -16.7933 0.956 -0.171 0.239 201 201 201 0 0
5.7111 -0.3635 -16.7110 -0.502 -0.164 0.849 206 206 208 0 0
-0.2360 -0.8702 -13.1191 0.765 -0.485 0.423 90 82 75 0 0
0.2188 -0.8865 -13.7457 -0.046 0.101 0.994 106 38 21 0 0
0.5658 -0.8129 -13.6522 0.439 0.212 0.873 118 45 26 0 0
1.0952 -0.7268 -13.6838 0.268 -0.327 0.906 139 74 45 0 0
1.1647 -0.7162 -13.6929 0.246 -0.410 0.878 111 77 66 0 0
1.1951 -0.7123 -13.7016 0.191 -0.400 0.896 104 63 54 0 0
1.4697 -0.6587 -13.6587 0.538 0.048 0.841 169 102 77 0 0
1.4862 -0.6592 -13.6810 0.692 -0.085 0.717 155 94 65 0 0
1.7312 -0.6144 -13.6630 0.498 0.139 0.856 138 62 32 0 0
1.7949 -0.6053 -13.6748 0.367 0.043 0.929 113 45 28 0 0
1.9307 -0.5840 -13.6887 0.461 -0.064 0.885 121 41 23 0 0
1.9580 -0.5809 -13.6991 0.601 0.075 0.796 138 55 25 0 0
2.3244 -0.5237 -13.7369 0.447 0.519 0.729 153 74 50 0 0
3.2227 -0.4954 -14.5722 0.806 0.556 0.201 51 12 5 0 0
3.2257 -0.5008 -14.6115 0.910 0.352 0.221 60 15 8 0 0
3.2339 -0.5043 -14.6440 0.929 0.291 0.228 63 16 5 0 0
4.7520 -0.3018 -15.0295 0.693 0.001 0.721 110 64 51 0 0
5.0265 -0.2537 -15.0231 0.979 0.005 0.204 96 34 19 0 0
5.0365 -0.2566 -15.0537 0.792 0.097 0.603 96 34 19 0 0
5.0527 -0.2570 -15.0749 0.792 0.097 0.603 97 35 17 0 0
5.2358 -0.2958 -15.5412 0.828 0.513 0.225 71 41 39 0 0
5.3061 -0.3255 -15.8179 0.729 0.638 0.248 72 47 44 0 0
5.3655 -0.3609 -16.1207 0.390 -0.088 0.916 107 82 78 0 0
-0.2252 -0.9017 -13.1477 0.807 -0.288 0.515 110 109 103 0 0
-0.1426 -0.9167 -13.3403 0.897 -0.072 0.435 101 97 88 0 0
-0.1288 -0.9182 -13.3662 0.853 -0.178 0.490 111 107 98 0 0
-0.1164 -0.9203 -13.3935 0.908 -0.105 0.406 109 104 97 0 0
-0.0966 -0.9200 -13.4141 0.611 -0.395 0.686 109 104 97 0 0
0.2288 -0.9128 -13.7370 0.104 0.258 0.961 107 37 21 0 0
0.4866 -0.8551 -13.6502 0.639 0.012 0.769 116 43 24 0 0
0.4952 -0.8583 -13.6812 -0.019 0.328 0.944 117 44 25 0 0
1.1894 -0.7425 -13.7082 0.174 -0.362 0.916 118 72 49 0 0
1.2206 -0.7383 -13.7161 0.140 -0.363 0.921 151 91 56 0 0
1.7366 -0.6405 -13.6582 0.764 0.262 0.590 135 60 38 0 0
1.7964 -0.6325 -13.6741 0.367 0.043 0.929 125 49 25 0 0
1.9306 -0.6117 -13.6897 0.588 0.041 0.808 126 54 27 0 0
2.0429 -0.6041 -13.7672 0.242 0.124 0.962 159 82 64 0 0
2.3366 -0.5529 -13.7641 0.429 -0.139 0.893 151 74 51 0 0
5.0143 -0.2848 -15.0440 0.917 0.296 0.266 93 34 18 0 0
5.0419 -0.2806 -15.0473 0.901 -0.183 0.393 94 32 17 0 0
5.0540 -0.2827 -15.0749 0.832 -0.024 0.554 94 33 15 0 0
5.3215 -0.3532 -15.8441 0.916 0.382 0.121 97 67 60 0 0
-0.3423 -0.9381 -13.0619 0.533 -0.195 0.823 88 58 55 0 0
-0.2995 -0.9364 -13.0999 0.535 -0.384 0.752 60 35 30 0 0
-0.2751 -0.9347 -13.1164 0.535 -0.384 0.752 75 57 53 0 0
-0.2083 -0.9489 -13.2847 0.852 -0.296 0.431 122 118 107 0 0
-0.1851 -0.9533 -13.3403 0.870 -0.301 0.391 102 98 87 0 0
0.0354 -0.9613 -13.6431 0.658 -0.371 0.655 87 56 34 0 0
0.2032 -0.9383 -13.6831 0.580 0.383 0.719 107 41 23 0 0
0.4915 -0.8826 -13.6463 0.746 0.127 0.654 117 44 25 0 0
0.5536 -0.8687 -13.6262 0.221 -0.438 0.872 117 44 25 0 0
0.5788 -0.8667 -13.6412 0.441 -0.446 0.779 116 43 24 0 0
1.9319 -0.6389 -13.6892 0.653 -0.016 0.757 140 78 45 0 0
2.0125 -0.6299 -13.7216 0.425 0.273 0.863 139 65 34 0 0
2.0230 -0.6324 -13.7499 0.386 -0.057 0.921 142 65 39 0 0
3.3660 -0.5838 -14.9574 0.716 0.605 0.349 43 8 2 0 0
3.3545 -0.6785 -15.5637 0.531 0.739 0.415 34 6 3 0 0
4.7446 -0.3506 -14.9985 0.466 -0.281 0.839 111 65 52 0 0
4.9299 -0.3034 -14.9002 0.698 -0.282 0.658 98 44 30 0 0
4.9975 -0.3179 -15.0721 0.895 -0.445 0.004 90 33 16 0 0
5.0884 -0.3088 -15.1159 0.592 0.417 0.689 91 32 14 0 0
5.1071 -0.3082 -15.1332 0.711 0.442 0.547 93 32 14 0 0
5.1218 -0.3093 -15.1568 0.867 0.254 0.428 95 33 14 0 0
5.1314 -0.3125 -15.1884 0.848 0.181 0.497 96 34 15 0 0
5.2693 -0.3347 -15.4904 0.903 0.339 0.265 99 63 53 0 0
5.2755 -0.3395 -15.5288 0.923 0.357 0.140 96 62 52 0 0
5.4433 -0.4933 -16.7248 0.530 0.832 0.164 184 184 184 0 0
-0.2396 -0.9704 -13.1989 0.870 -0.356 0.341 94 86 77 0 0
-0.2045 -0.9829 -13.3199 0.870 -0.301 0.391 113 108 97 0 0
-0.1928 -0.9851 -13.3477 0.870 -0.301 0.391 114 108 98 0 0
-0.1801 -0.9871 -13.3746 0.867 -0.460 0.190 109 103 94 0 0
0.2117 -0.9650 -13.6758 0.580 0.383 0.719 104 38 22 0 0
0.4971 -0.9099 -13.6416 0.780 -0.062 0.623 119 46 27 0 0
0.5245 -0.9071 -13.6547 0.568 -0.413 0.712 117 44 25 0 0
0.5669 -0.8994 -13.6533 0.441 -0.446 0.779 115 43 23 0 0
1.6913 -0.6992 -13.6288 0.679 0.515 0.523 132 73 53 0 0
1.7837 -0.6863 -13.6500 0.683 -0.050 0.729 121 55 39 0 0
1.8079 -0.6842 -13.6638 0.627 -0.196 0.754 135 61 35 0 0
1.8254 -0.6844 -13.6848 0.093 -0.005 0.996 133 54 25 0 0
2.3272 -0.6047 -13.7367 0.508 0.206 0.836 152 83 67 0 0
2.5092 -0.5785 -13.7730 0.498 0.007 0.867 155 72 49 0 0
2.5325 -0.5765 -13.7867 0.433 0.131 0.892 159 75 55 0 0
4.9778 -0.3452 -15.0584 0.882 0.083 0.464 91 33 16 0 0
5.0068 -0.3404 -15.0597 0.845 -0.401 0.354 89 33 15 0 0
5.1072 -0.3272 -15.0884 0.938 -0.057 0.343 89 31 15 0 0
5.1400 -0.3351 -15.1769 0.837 0.427 0.342 91 31 13 0 0
5.1531 -0.3588 -15.3453 0.589 -0.382 0.712 95 34 18 0 0
5.1695 -0.3592 -15.3666 0.692 -0.405 0.598 95 37 20 0 0
5.1859 -0.3596 -15.3880 0.722 -0.418 0.552 98 41 26 0 0
5.2992 -0.3784 -15.6383 0.963 0.253 0.099 102 66 58 0 0
5.3047 -0.3836 -15.6784 0.963 0.253 0.099 102 66 57 0 0
5.3102 -0.3888 -15.7186 0.963 0.253 0.099 103 65 57 0 0
0.2160 -0.9930 -13.6725 0.506 0.505 0.700 103 37 21 0 0
0.2430 -0.9904 -13.6864 0.577 0.417 0.702 112 45 28 0 0
0.2631 -0.9900 -13.7068 0.484 0.564 0.669 109 42 24 0 0
0.4977 -0.9387 -13.6418 0.806 0.056 0.589 118 47 27 0 0
0.5174 -0.9384 -13.6621 0.575 -0.340 0.744 117 44 25 0 0
1.8006 -0.7145 -13.6724 0.684 0.356 0.637 131 64 46 0 0
2.3625 -0.6322 -13.7783 0.127 -0.332 0.935 156 82 64 0 0
3.3267 -0.5930 -14.6176 0.822 0.514 0.246 59 12 5 0 0
3.3782 -0.6763 -15.2133 0.951 0.146 -0.273 42 10 6 0 0
3.3492 -0.6945 -15.2977 0.733 0.638 -0.236 44 11 8 0 0
4.9263 -0.3571 -14.9096 0.809 -0.207 0.551 94 40 27 0 0
5.3005 -0.4352 -15.8367 0.863 -0.221 0.454 100 66 57 0 0
5.3248 -0.4323 -15.8456 0.708 0.198 0.678 100 65 57 0 0
5.4065 -0.4197 -15.8567 0.784 0.340 0.520 102 72 63 0 0
-0.3101 -1.0274 -13.1105 0.638 -0.670 0.380 92 68 63 0 0
-0.1468 -1.0715 -13.5773 0.447 -0.139 0.884 102 88 81 0 0
-0.1189 -1.0687 -13.5910 0.447 -0.139 0.884 126 106 98 0 0
0.1725 -1.0303 -13.6746 0.085 -0.174 0.981 106 40 24 0 0
0.4925 -0.9695 -13.6474 0.826 0.418 0.377 117 47 29 0 0
0.5051 -0.9715 -13.6745 0.706 0.600 0.376 115 44 27 0 0
0.5354 -0.9677 -13.6848 0.509 -0.153 0.847 116 43 26 0 0
0.5930 -0.9550 -13.6688 0.230 0.195 0.953 115 42 24 0 0
2.1352 -0.6952 -13.7504 0.425 -0.001 0.905 153 84 67 0 0
2.6340 -0.6138 -13.7939 0.502 -0.259 0.825 166 92 66 0 0
3.4231 -0.6521 -14.9311 0.826 0.507 0.245 95 55 25 0 0
3.4379 -0.6603 -15.0003 0.865 0.465 0.187 63 16 3 0 0
5.0895 -0.3871 -15.1204 0.608 -0.339 0.718 86 29 14 0 0
5.3971 -0.4428 -15.8250 0.935 -0.075 0.346 101 75 68 0 0
5.4084 -0.4457 -15.8559 0.935 -0.075 0.346 110 90 83 0 0
5.4731 -0.5883 -16.8417 0.634 0.773 -0.025 193 193 195 0 0
-0.2817 -1.0775 -13.2751 0.775 -0.579 0.254 105 96 89 0 0
-0.2741 -1.0811 -13.3065 0.775 -0.579 0.254 98 88 79 0 0
-0.2665 -1.0847 -13.3379 0.775 -0.579 0.254 87 74 67 0 0
0.1544 -1.0656 -13.6920 -0.000 -0.297 0.955 108 42 26 0 0
1.7581 -0.7661 -13.6009 0.492 0.272 0.827 165 110 79 0 0
2.1343 -0.7231 -13.7524 0.591 0.003 0.807 121 42 22 0 0
2.5346 -0.6574 -13.7874 0.260 -0.154 0.953 153 74 52 0 0
3.3693 -0.6451 -14.6522 0.681 0.605 0.411 118 67 39 0 0
3.4198 -0.6671 -14.8485 0.846 0.468 0.256 42 7 4 0 0
3.4200 -0.6740 -14.8924 0.895 0.404 0.189 48 10 3 0 0
3.9951 -0.6107 -15.1403 -0.638 -0.189 0.746 93 39 25 0 0
5.4020 -0.4674 -15.8191 0.916 -0.255 0.310 112 92 88 0 0
-0.3354 -1.1059 -13.2086 0.647 -0.670 0.364 92 76 73 0 0
-0.3463 -1.1154 -13.2560 0.750 -0.640 0.168 98 87 84 0 0
-0.3101 -1.1099 -13.2624 0.775 -0.579 0.254 104 96 92 0 0
-0.2888 -1.1152 -13.3198 0.733 -0.664 0.150 97 88 84 0 0
-0.2759 -1.1662 -13.6560 0.226 -0.712 0.665 129 118 113 0 0
-0.2353 -1.1593 -13.6585 0.143 -0.552 0.821 132 118 114 0 0
-0.0993 -1.1402 -13.6914 0.698 -0.508 0.505 110 61 51 0 0
0.8715 -0.9765 -13.7534 0.129 -0.376 0.918 154 89 47 0 0
1.7864 -0.7904 -13.6115 0.359 0.302 0.883 151 97 72 0 0
2.6365 -0.6672 -13.7931 0.516 0.417 0.748 163 85 59 0 0
3.3812 -0.6680 -14.6383 0.681 0.605 0.411 84 35 14 0 0
3.3972 -0.6687 -14.6610 0.710 0.616 0.341 111 65 33 0 0
3.9795 -0.6443 -15.1640 -0.630 -0.211 0.747 77 36 28 0 0
4.9825 -0.4557 -15.1055 0.887 0.044 0.460 84 32 15 0 0
5.3816 -0.5034 -15.8563 0.760 -0.608 0.230 108 93 88 0 0
-0.6607 -1.1661 -13.0352 0.269 -0.708 0.653 206 206 208 0 0
-0.3606 -1.2172 -13.6936 0.293 -0.817 0.497 117 109 105 0 0
-0.1491 -1.1862 -13.7377 0.923 -0.040 0.383 107 67 60 0 0
-0.0350 -1.1741 -13.7904 0.453 0.088 0.887 100 37 23 0 0
1.2536 -0.9261 -13.6884 0.246 0.269 0.931 103 43 26 0 0
2.1151 -0.7724 -13.6960 0.373 0.273 0.887 116 43 22 0 0
2.6126 -0.7030 -13.8214 0.290 -0.305 0.907 161 86 62 0 0
3.4011 -0.8086 -15.3714 0.304 0.385 0.872 56 15 7 0 0
5.0297 -0.5528 -15.6036 0.008 -0.668 0.744 85 35 20 0 0
-0.1889 -1.2165 -13.6959 0.231 -0.594 0.771 124 112 108 0 0
-0.1293 -1.2159 -13.7595 0.799 0.130 0.588 95 47 35 0 0
-0.1119 -1.2165 -13.7830 0.799 0.130 0.588 96 43 30 0 0
-0.0567 -1.2047 -13.7715 0.263 -0.173 0.949 98 41 29 0 0
0.0302 -1.1951 -13.8096 -0.066 -0.180 0.982 111 46 29 0 0
2.0417 -0.8132 -13.6969 0.488 -0.373 0.789 121 41 22 0 0
2.5117 -0.7410 -13.7764 0.321 0.046 0.946 147 77 63 0 0
2.6367 -0.7214 -13.7952 0.077 -0.048 0.996 159 84 64 0 0
2.6449 -0.7249 -13.8259 0.249 0.026 0.968 168 93 72 0 0
3.4080 -0.7263 -14.6933 0.685 0.558 0.469 69 27 12 0 0
3.4213 -0.7281 -14.7197 0.758 0.544 0.359 78 35 15 0 0
3.5161 -0.7547 -14.9916 0.829 -0.028 0.559 45 8 1 0 0
4.0697 -0.6697 -15.0854 -0.376 -0.695 0.613 22 2 1 0 0
4.7326 -0.5261 -14.9384 0.284 0.082 0.955 109 63 48 0 0
5.0241 -0.5055 -15.1379 0.517 -0.124 0.847 84 29 12 0 0
5.3090 -0.5340 -15.6358 0.267 -0.469 0.842 97 69 63 0 0
5.5931 -0.6691 -16.7956 -0.025 0.115 0.993 201 201 201 0 0
5.6834 -0.6345 -16.6821 0.343 -0.106 0.933 205 205 206 0 0
-0.1066 -1.2383 -13.7392 0.444 -0.480 0.757 93 45 35 0 0
-0.0803 -1.2360 -13.7545 0.539 -0.445 0.715 93 46 33 0 0
-0.0549 -1.2339 -13.7706 0.412 -0.401 0.818 94 44 30 0 0
-0.0355 -1.2339 -13.7921 0.605 -0.401 0.687 100 41 29 0 0
0.5676 -1.1279 -13.8150 0.709 -0.347 0.615 113 42 25 0 0
0.8167 -1.0499 -13.6129 0.353 -0.471 0.809 115 43 22 0 0
1.1166 -1.0110 -13.7096 -0.031 0.083 0.996 119 46 25 0 0
1.1161 -1.0175 -13.7495 -0.010 0.156 0.988 108 44 27 0 0
1.3480 -0.9694 -13.7126 0.607 0.199 0.769 169 113 85 0 0
1.3705 -0.9680 -13.7290 0.636 0.273 0.722 161 99 81 0 0
1.4120 -0.9600 -13.7261 0.614 0.030 0.788 129 56 38 0 0
2.1622 -0.8235 -13.7260 0.501 0.236 0.832 168 100 50 0 0
2.1851 -0.8217 -13.7407 0.385 0.122 0.915 135 54 18 0 0
2.2060 -0.8207 -13.7577 0.684 0.279 0.674 129 49 22 0 0
3.1878 -0.6747 -13.9591 0.822 0.560 -0.105 143 79 33 0 0
3.4217 -0.7484 -14.6770 0.569 0.653 0.499 103 57 28 0 0
3.4320 -0.7514 -14.7072 0.758 0.544 0.359 127 80 40 0 0
3.4922 -0.7992 -15.0701 0.518 -0.733 0.441 44 8 1 0 0
3.4451 -0.8400 -15.2694 0.917 0.375 0.134 51 11 4 0 0
3.5089 -0.8440 -15.3657 0.618 0.433 0.656 59 16 10 0 0
3.5285 -0.8435 -15.3849 0.587 0.438 0.681 97 41 22 0 0
3.9863 -0.7312 -15.2055 -0.422 -0.653 0.629 14 2 2 0 0
4.4739 -0.6101 -15.0050 -0.242 -0.219 0.945 108 61 46 0 0
4.5384 -0.5978 -15.0013 -0.212 0.162 0.964 110 64 49 0 0
5.2817 -0.5730 -15.6836 0.420 -0.670 0.612 99 74 69 0 0
5.2909 -0.6092 -15.9175 0.537 -0.761 0.364 107 94 92 0 0
5.2771 -0.7420 -16.7223 -0.515 0.470 0.717 166 165 163 0 0
5.3152 -0.7328 -16.7079 -0.174 0.488 0.855 171 169 168 0 0
5.5972 -0.6949 -16.7907 -0.154 0.474 0.867 202 202 202 0 0
0.0330 -1.2473 -13.7688 0.310 -0.682 0.662 101 43 29 0 0
0.5540 -1.1618 -13.8290 0.486 -0.360 0.796 111 39 23 0 0
1.3271 -0.9986 -13.6952 0.250 0.037 0.968 183 118 70 0 0
1.3534 -0.9959 -13.7079 0.680 0.221 0.699 179 124 93 0 0
1.3927 -0.9886 -13.7072 0.249 0.299 0.921 154 92 67 0 0
2.1689 -0.8486 -13.7197 0.296 0.428 0.854 134 65 29 0 0
2.2151 -0.8385 -13.7090 0.511 0.174 0.842 124 45 17 0 0
2.2441 -0.8345 -13.7170 0.675 0.285 0.681 122 42 17 0 0
3.1984 -0.6975 -13.9476 0.650 0.760 0.004 143 66 25 0 0
3.2157 -0.6976 -13.9675 0.695 0.706 0.134 143 80 37 0 0
3.4184 -0.7420 -14.4673 0.674 0.666 0.321 78 37 24 0 0
3.4337 -0.7430 -14.4905 0.629 0.712 0.313 84 43 27 0 0
3.4612 -0.7391 -14.4980 0.654 0.709 0.264 98 54 37 0 0
3.4326 -0.7715 -14.6643 0.710 0.653 0.262 80 33 10 0 0
3.4449 -0.7737 -14.6919 0.710 0.653 0.262 117 71 34 0 0
3.4648 -0.8380 -15.1085 0.702 -0.618 0.353 45 8 0 0 0
3.6427 -0.8552 -15.4135 0.509 0.012 0.861 110 34 12 0 0
3.6806 -0.8472 -15.4070 0.558 -0.080 0.826 114 40 12 0 0
3.9581 -0.7704 -15.2472 -0.301 -0.683 0.666 27 5 5 0 0
4.0276 -0.7491 -15.1945 -0.411 -0.631 0.658 16 3 3 0 0
4.2729 -0.6767 -15.0259 -0.056 -0.511 0.858 112 57 41 0 0
4.3583 -0.6632 -15.0389 0.993 0.054 0.109 109 61 47 0 0
4.3738 -0.6642 -15.0620 0.452 -0.204 0.868 109 61 47 0 0
4.8807 -0.5677 -15.0390 0.416 0.021 0.909 98 49 35 0 0
4.9032 -0.5655 -15.0507 0.236 0.210 0.949 85 30 16 0 0
4.9342 -0.5671 -15.0955 0.776 -0.023 0.631 82 30 13 0 0
5.0549 -0.5600 -15.1872 0.692 -0.276 0.667 84 30 16 0 0
5.1779 -0.6148 -15.6614 0.751 -0.650 0.117 92 60 53 0 0
5.5171 -0.7436 -16.8323 0.573 0.619 0.537 198 198 198 0 0
5.5519 -0.7357 -16.8227 0.915 0.193 0.355 200 200 200 0 0
0.0273 -1.2854 -13.8143 0.308 -0.646 0.699 107 44 31 0 0
0.2600 -1.2458 -13.8335 0.054 -0.401 0.915 111 44 27 0 0
1.3286 -1.0265 -13.6945 0.250 0.037 0.968 177 102 53 0 0
1.3561 -1.0233 -13.7059 0.422 -0.001 0.907 169 102 69 0 0
1.4141 -1.0158 -13.7256 0.614 0.030 0.788 146 72 45 0 0
2.2188 -0.8646 -13.7059 0.511 0.174 0.842 117 40 20 0 0
2.2478 -0.8606 -13.7139 0.611 0.457 0.646 137 59 26 0 0
2.7630 -0.7757 -13.7742 0.172 0.545 0.820 165 90 68 0 0
3.4295 -0.7648 -14.4545 0.742 0.571 0.352 119 68 38 0 0
3.4420 -0.7669 -14.4812 0.753 0.556 0.352 110 55 25 0 0
3.7349 -0.8680 -15.4254 -0.097 -0.406 0.909 190 141 118 0 0
4.2201 -0.7185 -15.0581 -0.352 -0.663 0.660 58 19 11 0 0
4.2704 -0.7048 -15.0313 -0.315 -0.656 0.685 96 41 28 0 0
4.2959 -0.7015 -15.0400 0.020 -0.526 0.850 111 56 41 0 0
4.3577 -0.6830 -14.9961 0.805 -0.084 0.588 111 64 49 0 0
4.7390 -0.5953 -14.8890 0.754 0.363 0.548 96 44 30 0 0
4.7839 -0.6059 -15.0042 0.516 -0.042 0.855 103 57 42 0 0
4.8850 -0.5923 -15.0344 0.253 0.220 0.942 98 48 34 0 0
4.9346 -0.5934 -15.0969 0.776 -0.023 0.631 83 29 13 0 0
5.5691 -0.7462 -16.7391 0.570 0.558 0.603 198 198 198 0 0
5.5840 -0.7479 -16.7662 0.827 0.098 0.554 200 200 200 0 0
0.0055 -1.3226 -13.8352 0.246 -0.651 0.718 106 46 36 0 0
2.2579 -0.8844 -13.7038 0.603 0.312 0.734 151 81 45 0 0
2.2985 -0.8826 -13.7387 0.334 0.112 0.936 146 66 26 0 0
2.3524 -0.8760 -13.7587 0.334 0.112 0.936 130 54 31 0 0
2.4257 -0.8687 -13.7970 0.596 0.039 0.802 192 133 111 0 0
3.2364 -0.7433 -13.9450 0.373 0.784 0.495 147 67 25 0 0
3.3530 -0.7732 -14.2565 0.782 0.562 0.270 77 18 8 0 0
3.4278 -0.7856 -14.4155 0.710 0.519 0.476 126 78 41 0 0
3.4421 -0.7870 -14.4399 0.784 0.509 0.356 113 57 22 0 0
3.4554 -0.7888 -14.4655 0.815 0.475 0.332 102 41 12 0 0
3.4670 -0.7912 -14.4934 0.859 0.447 0.249 96 38 15 0 0
4.2407 -0.7444 -15.0758 -0.317 -0.668 0.673 58 19 12 0 0
4.3465 -0.7146 -15.0141 0.227 -0.127 0.966 108 56 42 0 0
4.4512 -0.6926 -14.9981 0.220 -0.162 0.962 112 64 50 0 0
4.8874 -0.6176 -15.0325 0.154 0.101 0.983 85 32 17 0 0
5.1823 -0.6993 -15.8569 0.813 -0.562 -0.154 104 90 85 0 0
5.5807 -0.7773 -16.7751 0.963 0.145 0.225 202 202 202 0 0
-0.0219 -1.3618 -13.8614 0.246 -0.651 0.718 106 57 49 0 0
1.7759 -0.9953 -13.6679 0.094 -0.017 0.995 111 42 21 0 0
2.2211 -0.9188 -13.7054 0.306 -0.167 0.937 113 40 22 0 0
2.2606 -0.9108 -13.7019 0.444 0.361 0.820 130 62 33 0 0
3.3424 -0.8044 -14.2711 0.149 0.453 0.879 73 14 5 0 0
3.3667 -0.8018 -14.2827 0.814 -0.178 0.552 82 21 8 0 0
3.4375 -0.8089 -14.4045 0.710 0.519 0.476 104 56 26 0 0
3.4518 -0.8103 -14.4289 0.801 0.479 0.359 105 56 25 0 0
3.4648 -0.8122 -14.4549 0.815 0.475 0.332 80 31 9 0 0
3.4762 -0.8147 -14.4830 0.859 0.447 0.249 59 14 3 0 0
3.5663 -0.8506 -14.7996 0.580 0.711 0.397 85 37 19 0 0
4.1250 -0.8131 -15.1983 -0.308 -0.708 0.636 16 5 5 0 0
4.2125 -0.7835 -15.1183 -0.284 -0.721 0.632 28 7 5 0 0
4.3727 -0.7379 -15.0234 0.350 0.217 0.911 110 56 42 0 0
4.6244 -0.6827 -14.9726 0.803 -0.033 0.595 99 46 32 0 0
4.6459 -0.6809 -14.9862 0.788 -0.173 0.592 98 44 31 0 0
4.6620 -0.6815 -15.0079 0.788 -0.173 0.592 96 43 29 0 0
4.7765 -0.6621 -15.0193 0.438 -0.174 0.882 97 41 27 0 0
4.8277 -0.6550 -15.0335 0.329 -0.311 0.892 91 36 20 0 0
5.1270 -0.7025 -15.6538 0.789 -0.561 0.251 90 63 56 0 0
5.1682 -0.6917 -15.6351 0.744 -0.601 0.294 91 68 60 0 0
5.5617 -0.8054 -16.7584 0.929 0.150 0.338 200 200 200 0 0
1.4205 -1.0919 -13.6821 0.357 0.268 0.895 163 93 48 0 0
1.4786 -1.0843 -13.7014 0.446 0.144 0.883 165 108 78 0 0
1.7747 -1.0237 -13.6701 0.008 -0.058 0.998 125 49 21 0 0
2.0609 -0.9788 -13.7215 0.702 0.504 0.502 149 100 90 0 0
2.0840 -0.9769 -13.7362 0.422 0.605 0.675 126 63 47 0 0
2.4387 -0.9187 -13.7845 0.330 -0.263 0.907 163 98 74 0 0
2.6736 -0.8773 -13.7996 0.591 0.044 0.806 154 86 71 0 0
2.7889 -0.8605 -13.8280 0.403 0.149 0.903 159 87 71 0 0
3.4703 -0.8371 -14.4492 0.809 0.526 0.262 53 12 2 0 0
3.4813 -0.8398 -14.4778 0.809 0.526 0.262 43 4 1 0 0
3.5807 -0.8722 -14.7820 0.580 0.711 0.397 82 30 12 0 0
4.4019 -0.7599 -15.0283 0.418 0.448 0.790 107 52 40 0 0
4.4254 -0.7574 -15.0396 0.409 0.408 0.816 115 66 51 0 0
4.6463 -0.7074 -14.9874 0.545 -0.204 0.813 98 45 29 0 0
4.6636 -0.7075 -15.0074 0.599 0.276 0.752 97 44 29 0 0
4.9299 -0.6671 -15.0636 0.688 0.263 0.676 85 29 14 0 0
5.1410 -0.7230 -15.6331 0.798 -0.514 0.315 91 66 60 0 0
5.6527 -0.8063 -16.7016 0.379 0.853 0.359 204 204 204 0 0
5.6719 -0.8058 -16.7206 0.397 0.806 0.440 206 206 206 0 0
-0.4099 -1.5282 -14.0616 -0.011 -0.773 0.634 204 205 209 0 0
1.4849 -1.1103 -13.6958 0.422 0.391 0.818 148 81 52 0 0
1.6139 -1.0902 -13.7205 0.247 0.010 0.969 138 58 39 0 0
3.4229 -0.8405 -14.2567 0.754 0.138 0.643 78 18 8 0 0
4.4257 -0.7842 -15.0409 0.300 0.504 0.810 98 46 37 0 0
4.4553 -0.7790 -15.0433 0.305 0.103 0.947 111 63 49 0 0
4.6895 -0.7304 -15.0164 0.542 -0.084 0.836 99 46 31 0 0
4.7109 -0.7287 -15.0301 0.542 -0.084 0.836 95 42 28 0 0
4.7450 -0.7292 -15.0709 0.612 -0.123 0.781 95 37 25 0 0
4.8285 -0.7233 -15.1289 0.616 -0.063 0.785 87 31 16 0 0
5.1208 -0.7593 -15.6685 0.869 -0.382 0.316 93 70 65 0 0
0.6330 -1.3165 -13.7964 0.033 -0.310 0.950 152 93 48 0 0
1.0809 -1.2174 -13.7114 -0.129 0.113 0.985 113 41 26 0 0
1.1268 -1.2076 -13.7049 -0.041 -0.173 0.984 116 43 26 0 0
1.3296 -1.1614 -13.6583 0.281 0.466 0.839 95 40 28 0 0
1.3872 -1.1539 -13.6784 0.292 0.317 0.902 172 104 51 0 0
1.4664 -1.1386 -13.6763 0.322 0.415 0.851 129 51 20 0 0
1.4938 -1.1353 -13.6876 0.375 0.360 0.854 123 48 32 0 0
1.8027 -1.0760 -13.6819 -0.055 -0.110 0.992 133 49 21 0 0
2.8087 -0.9071 -13.8074 0.350 0.069 0.934 162 92 77 0 0
4.3776 -0.8244 -15.0674 -0.264 -0.694 0.670 25 6 3 0 0
4.4331 -0.8079 -15.0319 -0.037 -0.381 0.924 46 16 10 0 0
4.4579 -0.8048 -15.0414 0.305 0.103 0.947 83 42 30 0 0
4.7397 -0.7503 -15.0346 0.617 -0.120 0.778 96 40 25 0 0
4.7361 -0.7598 -15.0863 0.776 0.219 0.592 93 36 23 0 0
4.7544 -0.7595 -15.1047 0.714 0.214 0.667 90 32 20 0 0
5.1122 -0.7903 -15.6849 0.870 -0.443 0.215 95 74 69 0 0
1.3412 -1.1856 -13.6473 0.303 0.542 0.784 102 47 28 0 0
1.4716 -1.1650 -13.6718 0.317 0.155 0.936 116 43 25 0 0
1.5016 -1.1607 -13.6804 0.375 0.360 0.854 116 42 21 0 0
1.5495 -1.1567 -13.7100 0.361 0.137 0.922 198 145 100 0 0
2.0265 -1.0545 -13.6426 0.226 0.292 0.929 137 57 33 0 0
2.4068 -0.9927 -13.7037 0.312 0.044 0.949 149 77 38 0 0
2.8107 -0.9334 -13.8062 0.350 0.069 0.934 155 89 72 0 0
4.4156 -0.8425 -15.0595 -0.194 -0.704 0.683 18 2 1 0 0
4.4514 -0.8345 -15.0527 0.009 -0.535 0.845 29 6 3 0 0
4.5786 -0.8096 -15.0481 0.295 -0.755 0.586 107 57 39 0 0
4.7566 -0.7852 -15.1033 0.636 0.045 0.770 91 33 19 0 0
4.7724 -0.7860 -15.1257 0.545 0.080 0.835 89 33 18 0 0
4.8321 -0.8232 -15.4098 0.749 -0.660 0.054 82 30 16 0 0
0.9982 -1.2912 -13.7163 0.242 -0.104 0.965 109 38 23 0 0
1.5906 -1.1765 -13.7078 0.496 0.364 0.788 152 88 52 0 0
3.5914 -0.9700 -14.7301 0.805 0.471 0.360 45 7 0 0 0
4.3577 -0.8951 -15.1460 -0.165 -0.751 0.640 16 4 5 0 0
4.5260 -0.8520 -15.0822 0.123 -0.735 0.666 81 38 29 0 0
4.5553 -0.8468 -15.0847 0.277 -0.693 0.666 103 52 38 0 0
5.0418 -0.8777 -15.8049 0.869 -0.478 -0.126 100 83 76 0 0
5.5215 -0.9557 -16.7919 0.568 0.508 0.648 202 202 203 0 0
-0.2084 -1.6285 -14.1605 -0.166 -0.679 0.715 204 204 206 0 0
0.9442 -1.3328 -13.7311 -0.150 0.067 0.986 110 40 25 0 0
1.4524 -1.2286 -13.6932 0.340 0.010 0.940 113 53 31 0 0
2.8441 -0.9815 -13.8100 0.658 0.386 0.647 154 91 76 0 0
3.5322 -0.9401 -14.3345 0.907 0.281 0.313 72 14 3 0 0
3.5730 -0.9675 -14.5383 0.840 0.536 0.080 48 10 2 0 0
3.6145 -0.9877 -14.7011 0.814 0.401 0.420 55 10 4 0 0
4.0468 -1.0282 -15.4148 0.853 0.425 0.303 69 25 7 0 0
4.1855 -0.9828 -15.3067 -0.252 -0.683 0.686 24 4 2 0 0
4.3677 -0.9258 -15.1793 -0.030 -0.792 0.609 16 3 1 0 0
4.3911 -0.9233 -15.1911 -0.017 -0.842 0.540 17 3 3 0 0
4.5455 -0.8781 -15.1012 0.190 -0.742 0.643 60 24 18 0 0
4.5783 -0.8713 -15.0984 0.485 -0.600 0.636 91 47 36 0 0
5.0085 -0.8614 -15.5185 0.846 -0.183 0.500 90 57 52 0 0
5.3883 -0.9949 -16.7114 0.341 0.368 0.865 192 190 191 0 0
5.4628 -0.9759 -16.6847 0.740 0.076 0.669 196 196 196 0 0
-0.0949 -1.6327 -14.1356 -0.149 -0.689 0.710 204 203 205 0 0
0.9925 -1.3509 -13.7236 -0.013 -0.022 1.000 107 35 20 0 0
1.0205 -1.3475 -13.7352 0.043 -0.292 0.955 113 41 25 0 0
1.5771 -1.2311 -13.6840 0.406 0.377 0.833 123 50 27 0 0
1.6521 -1.2237 -13.7247 0.616 0.214 0.758 177 128 95 0 0
1.6668 -1.2251 -13.7489 0.804 0.166 0.571 186 130 110 0 0
1.7187 -1.2194 -13.7738 0.384 0.199 0.901 143 65 42 0 0
1.7605 -1.2106 -13.7696 0.288 -0.340 0.895 130 52 25 0 0
2.8579 -0.9961 -13.7550 0.551 0.424 0.719 163 105 93 0 0
3.5992 -1.0914 -15.1237 0.939 -0.323 0.114 51 8 1 0 0
4.0895 -1.0451 -15.4015 0.770 0.032 0.637 62 17 5 0 0
4.5979 -0.9054 -15.1635 0.226 -0.836 0.500 97 50 39 0 0
4.9504 -0.9073 -15.5653 0.801 0.220 0.557 90 57 51 0 0
5.0065 -0.8893 -15.5239 0.876 -0.076 0.475 91 60 55 0 0
5.3420 -1.0370 -16.7436 0.363 0.089 0.928 189 188 189 0 0
0.0005 -1.6429 -14.1270 -0.128 -0.698 0.705 203 203 204 0 0
0.9349 -1.3940 -13.7418 -0.135 0.330 0.934 107 38 22 0 0
0.9894 -1.3809 -13.7274 0.336 0.319 0.886 110 38 23 0 0
1.0285 -1.3734 -13.7281 -0.022 -0.117 0.993 112 40 25 0 0
1.5836 -1.2569 -13.6782 0.456 0.267 0.849 108 38 26 0 0
1.6283 -1.2539 -13.7107 0.393 0.276 0.877 173 104 59 0 0
1.6566 -1.2502 -13.7209 0.616 0.214 0.758 189 136 95 0 0
1.6777 -1.2491 -13.7384 0.616 0.214 0.758 156 100 77 0 0
1.7091 -1.2512 -13.7849 0.628 0.462 0.626 143 69 44 0 0
1.7426 -1.2455 -13.7894 0.597 0.249 0.762 134 56 29 0 0
1.7774 -1.2393 -13.7924 0.384 0.181 0.905 131 51 21 0 0
2.2710 -1.1200 -13.6588 0.625 -0.060 0.779 134 81 65 0 0
2.3081 -1.1196 -13.6974 0.836 0.064 0.545 116 59 47 0 0
2.3317 -1.1174 -13.7112 0.670 0.314 0.673 118 47 30 0 0
2.3652 -1.1114 -13.7140 0.171 0.097 0.981 131 52 31 0 0
2.5637 -1.0830 -13.7716 0.470 0.169 0.866 139 58 24 0 0
2.8931 -1.0303 -13.8359 0.639 0.095 0.763 163 97 85 0 0
2.9131 -1.0294 -13.8529 0.621 0.267 0.737 171 105 93 0 0
3.6613 -1.0924 -15.0409 0.279 0.736 0.617 50 7 1 0 0
4.0731 -1.0719 -15.3804 0.770 0.032 0.637 131 87 56 0 0
4.0907 -1.0723 -15.4016 0.770 0.032 0.637 95 52 25 0 0
4.1150 -1.0695 -15.4131 0.486 -0.488 0.726 51 10 3 0 0
4.1518 -1.0612 -15.4063 0.558 -0.655 0.510 42 9 6 0 0
4.9468 -0.9361 -15.5732 0.781 0.389 0.489 91 61 53 0 0
5.3364 -1.0679 -16.7562 0.074 0.335 0.939 190 189 190 0 0
-0.1380 -1.7163 -14.2185 -0.110 -0.700 0.706 204 204 207 0 0
0.0919 -1.6543 -14.1217 -0.128 -0.698 0.705 203 201 204 0 0
1.4642 -1.3022 -13.6442 0.534 0.210 0.819 112 43 25 0 0
1.5893 -1.2829 -13.6731 0.456 0.267 0.849 109 41 27 0 0
1.6281 -1.2822 -13.7119 0.288 0.154 0.945 173 95 43 0 0
1.6550 -1.2789 -13.7234 0.422 0.113 0.900 175 108 68 0 0
1.7564 -1.2754 -13.8156 0.853 0.160 0.497 138 56 31 0 0
2.0145 -1.1976 -13.6601 0.111 0.526 0.843 133 51 26 0 0
2.3680 -1.1378 -13.7119 0.171 0.097 0.981 127 53 33 0 0
2.3966 -1.1336 -13.7201 -0.004 -0.151 0.989 127 47 26 0 0
2.5233 -1.1121 -13.7382 0.462 0.452 0.763 114 39 23 0 0
2.9110 -1.0645 -13.8971 0.491 0.667 0.560 162 98 88 0 0
2.9438 -1.0584 -13.8990 0.620 -0.310 0.721 167 103 90 0 0
3.5483 -1.0144 -14.3182 0.716 0.607 0.344 83 23 7 0 0
4.1491 -1.0984 -15.4592 0.571 -0.733 0.370 49 16 9 0 0
4.7098 -0.9487 -15.2310 0.040 -0.896 0.443 103 57 44 0 0
4.8020 -0.9306 -15.2303 0.831 0.557 0.001 86 36 23 0 0
4.7915 -0.9438 -15.2934 0.715 0.681 0.159 86 34 21 0 0
4.8231 -0.9373 -15.2917 0.349 -0.170 0.921 86 34 22 0 0
4.7847 -0.9891 -15.5425 0.797 0.586 0.145 87 49 40 0 0
4.8741 -0.9980 -15.6918 0.695 0.246 0.676 91 64 55 0 0
4.9491 -1.0406 -16.0165 0.962 -0.265 -0.060 115 110 108 0 0
5.2191 -1.1083 -16.6988 -0.287 0.477 0.831 182 181 179 0 0
5.2510 -1.1016 -16.6960 -0.125 0.272 0.954 185 184 181 0 0
5.2712 -1.1008 -16.7137 0.555 0.459 0.693 186 185 185 0 0
0.0213 -1.7104 -14.1900 -0.128 -0.698 0.705 204 202 207 0 0
0.9642 -1.4550 -13.7935 0.867 0.394 0.306 113 40 25 0 0
1.6861 -1.3023 -13.7314 0.399 0.123 0.909 131 56 38 0 0
1.7103 -1.3001 -13.7457 0.640 0.340 0.689 132 63 37 0 0
1.7921 -1.2970 -13.8185 0.536 0.348 0.769 136 58 35 0 0
1.8173 -1.2944 -13.8317 0.393 -0.178 0.902 138 56 30 0 0
2.5237 -1.1393 -13.7387 0.402 0.175 0.899 112 40 19 0 0
2.5522 -1.1351 -13.7467 0.554 0.401 0.730 155 85 41 0 0
3.6774 -1.1408 -15.0223 0.352 0.747 0.563 50 8 1 0 0
3.7113 -1.1420 -15.0663 0.545 0.171 0.820 49 6 0 0 0
4.0539 -1.1361 -15.4118 0.414 -0.066 0.908 124 55 30 0 0
4.0966 -1.1334 -15.4437 0.486 -0.488 0.726 106 58 30 0 0
4.6975 -0.9981 -15.3460 0.145 -0.914 0.380 89 57 50 0 0
5.3417 -1.1214 -16.7522 0.176 0.254 0.951 194 194 194 0 0
5.4106 -1.1051 -16.7362 0.084 -0.156 0.984 198 198 200 0 0
1.4907 -1.3487 -13.6188 0.807 0.255 0.532 120 46 25 0 0
2.3613 -1.1953 -13.7213 0.298 -0.138 0.945 150 90 72 0 0
2.5683 -1.1560 -13.7297 0.439 0.265 0.859 133 66 33 0 0
2.5922 -1.1536 -13.7427 0.439 0.265 0.859 167 98 52 0 0
3.5098 -1.0696 -14.2854 0.217 0.657 0.722 60 8 2 0 0
3.5519 -1.0593 -14.2740 0.395 0.616 0.682 66 12 5 0 0
3.6045 -1.0596 -14.3336 0.695 0.003 0.719 73 16 8 0 0
3.6358 -1.0537 -14.3357 0.879 0.166 0.446 62 11 3 0 0
3.6491 -1.0557 -14.3611 0.879 0.166 0.446 59 12 2 0 0
3.6908 -1.0993 -14.6514 0.808 0.557 0.192 48 9 1 0 0
4.1760 -1.1669 -15.5652 0.696 0.276 0.663 8 1 1 0 0
4.6232 -1.0518 -15.4146 0.159 -0.890 0.428 38 20 21 0 0
4.6458 -1.0667 -15.5229 0.363 -0.907 0.215 76 54 50 0 0
5.3008 -1.1323 -16.6128 0.791 0.545 0.279 186 186 186 0 0
5.3139 -1.1351 -16.6429 0.789 0.526 0.318 189 189 189 0 0
1.4657 -1.3865 -13.6452 0.656 -0.079 0.750 118 44 26 0 0
1.6213 -1.3552 -13.6426 0.457 0.466 0.758 111 55 33 0 0
1.7267 -1.3501 -13.7303 0.535 0.481 0.695 177 107 56 0 0
2.1058 -1.2665 -13.6836 0.157 -0.253 0.955 120 46 21 0 0
2.6065 -1.1752 -13.7276 0.413 0.132 0.901 126 55 32 0 0
2.7764 -1.1499 -13.7742 0.423 0.007 0.906 182 122 113 0 0
3.4590 -1.0360 -13.8936 0.708 0.246 0.662 114 34 12 0 0
3.5190 -1.0776 -14.1911 0.848 -0.249 0.469 104 33 8 0 0
3.5473 -1.0882 -14.2813 0.352 0.654 0.670 63 9 4 0 0
3.6260 -1.0773 -14.3074 0.879 0.166 0.446 75 19 7 0 0
3.7003 -1.1225 -14.6403 0.816 0.563 0.129 46 9 3 0 0
3.7501 -1.1164 -14.6613 0.822 -0.418 0.386 49 9 1 0 0
3.8043 -1.2299 -15.3525 0.558 0.200 0.805 133 78 59 0 0
3.8286 -1.2273 -15.3647 0.509 0.037 0.860 146 87 56 0 0
3.8517 -1.2252 -15.3785 0.509 0.037 0.860 171 111 75 0 0
3.8642 -1.2279 -15.4073 0.687 0.201 0.699 161 99 69 0 0
4.9671 -1.0611 -15.6957 0.950 -0.131 0.285 94 81 79 0 0
5.0496 -1.2415 -16.7899 -0.382 -0.381 0.842 179 179 179 0 0
1.0081 -1.5396 -13.8317 -0.215 0.697 0.684 114 42 27 0 0
1.5615 -1.3993 -13.6658 0.408 0.002 0.913 117 43 29 0 0
1.7398 -1.3732 -13.7174 0.519 0.492 0.699 160 80 29 0 0
3.5787 -1.0714 -14.0753 0.426 0.500 0.754 109 33 2 0 0
3.5820 -1.1080 -14.2806 0.534 0.564 0.630 61 11 2 0 0
3.6293 -1.1028 -14.3045 0.879 0.166 0.446 76 17 6 0 0
3.6467 -1.1030 -14.3244 0.791 0.520 0.323 70 14 4 0 0
3.7128 -1.1442 -14.6251 0.816 0.563 0.129 45 6 1 0 0
3.7407 -1.1478 -14.6754 0.915 -0.278 0.294 48 8 1 0 0
3.7403 -1.1638 -14.7639 0.937 0.320 0.137 48 7 0 0 0
3.7569 -1.1805 -14.8744 0.959 0.273 0.073 52 7 1 0 0
3.8156 -1.2528 -15.3384 0.780 0.317 0.540 112 59 47 0 0
3.8328 -1.2534 -15.3605 0.748 0.275 0.604 146 96 75 0 0
3.8544 -1.2519 -15.3763 0.563 0.145 0.813 159 103 71 0 0
3.8758 -1.2506 -15.3925 0.761 0.104 0.640 152 92 63 0 0
4.9444 -1.0818 -15.6366 0.798 -0.303 0.520 76 64 62 0 0
4.9597 -1.0831 -15.6608 0.798 -0.303 0.520 82 73 70 0 0
5.3628 -1.1851 -16.6684 0.536 0.687 0.491 196 196 197 0 0
5.6543 -1.1189 -16.6236 -0.155 0.909 0.386 207 207 207 0 0
1.4802 -1.4448 -13.6714 0.577 0.034 0.816 118 45 28 0 0
1.5578 -1.4291 -13.6705 0.325 0.230 0.917 118 45 27 0 0
1.7861 -1.3904 -13.7093 0.343 0.343 0.874 113 40 23 0 0
1.8191 -1.3919 -13.7538 0.472 0.095 0.877 153 90 57 0 0
2.7143 -1.2077 -13.7273 0.516 0.015 0.857 170 97 36 0 0
2.8114 -1.1972 -13.7763 0.458 0.160 0.875 163 85 51 0 0
3.5057 -1.0769 -13.8794 0.453 0.232 0.861 128 49 24 0 0
3.5880 -1.1323 -14.2743 0.789 -0.085 0.609 58 9 0 0 0
3.6082 -1.1312 -14.2907 0.662 -0.278 0.696 64 12 3 0 0
3.6330 -1.1282 -14.3011 0.827 0.339 0.448 75 16 7 0 0
3.6738 -1.1259 -14.3334 0.746 0.625 0.231 72 14 5 0 0
3.7267 -1.1892 -14.7395 0.909 0.336 0.245 49 7 1 0 0
3.7368 -1.1928 -14.7701 0.903 0.360 0.236 50 7 1 0 0
3.7469 -1.1963 -14.8008 0.909 0.392 0.141 53 8 0 0 0
3.8816 -1.2674 -15.3396 0.530 0.013 0.848 155 109 84 0 0
3.9006 -1.2672 -15.3591 0.694 0.110 0.711 167 114 82 0 0
3.9200 -1.2667 -15.3780 0.694 0.110 0.711 142 80 45 0 0
3.9355 -1.2681 -15.4025 0.516 -0.286 0.807 118 48 13 0 0
4.3899 -1.2016 -15.5373 0.832 -0.105 0.544 45 44 47 0 0
4.4055 -1.2029 -15.5615 0.832 -0.105 0.544 51 51 53 0 0
1.1410 -1.5757 -13.8591 0.419 0.908 -0.019 112 39 23 0 0
1.7136 -1.4253 -13.6676 0.412 0.250 0.876 143 83 51 0 0
1.7391 -1.4225 -13.6804 0.412 0.250 0.876 165 96 52 0 0
1.7936 -1.4155 -13.7023 0.343 0.343 0.874 115 42 26 0 0
1.8214 -1.4118 -13.7126 0.418 0.379 0.826 131 56 24 0 0
2.7412 -1.2312 -13.7377 0.497 0.141 0.856 129 54 20 0 0
2.7642 -1.2291 -13.7515 0.497 0.141 0.856 124 45 18 0 0
3.5225 -1.1038 -13.9008 0.607 0.117 0.786 119 37 12 0 0
3.7497 -1.2144 -14.7544 0.900 0.345 0.268 62 12 2 0 0
3.7555 -1.2199 -14.7907 0.909 0.392 0.141 67 15 3 0 0
3.8845 -1.2940 -15.3372 0.538 0.072 0.840 147 99 69 0 0
3.8888 -1.3006 -15.3776 0.563 0.355 0.746 140 95 53 0 0
3.9225 -1.2935 -15.3763 0.694 0.110 0.711 129 70 25 0 0
3.9660 -1.3076 -15.5012 0.712 0.229 0.664 91 44 31 0 0
3.9793 -1.3101 -15.5292 0.699 0.178 0.692 79 41 31 0 0
4.0030 -1.3164 -15.5894 0.675 -0.381 0.632 26 5 5 0 0
4.3633 -1.2332 -15.5316 0.710 -0.332 0.621 41 40 43 0 0
4.3837 -1.2322 -15.5486 0.909 -0.282 0.306 54 54 56 0 0
4.3935 -1.2363 -15.5815 0.888 -0.242 0.391 38 38 40 0 0
1.5428 -1.4915 -13.6877 -0.110 0.125 0.986 121 44 26 0 0
2.6194 -1.2791 -13.7173 0.159 -0.112 0.981 127 45 24 0 0
3.7566 -1.2387 -14.7466 0.900 0.345 0.268 77 23 8 0 0
3.7677 -1.2418 -14.7759 0.941 0.282 0.184 78 32 14 0 0
3.9672 -1.3352 -15.5014 0.770 -0.015 0.637 94 50 39 0 0
3.9833 -1.3363 -15.5252 0.754 -0.066 0.653 61 23 15 0 0
4.3580 -1.2635 -15.5416 0.710 -0.332 0.621 46 45 50 0 0
4.3700 -1.2665 -15.5712 0.851 -0.387 0.354 42 42 44 0 0
4.3669 -1.2769 -15.6239 0.890 -0.450 0.077 22 22 24 0 0
4.3794 -1.2886 -15.7013 0.967 -0.245 -0.065 16 16 18 0 0
4.8589 -1.3956 -16.8084 0.050 0.290 0.956 181 181 181 0 0
5.1386 -1.3088 -16.6448 -0.313 0.383 0.869 187 187 187 0 0
1.4872 -1.5344 -13.7063 0.850 -0.125 0.512 115 42 25 0 0
1.4818 -1.5439 -13.7515 0.825 -0.361 0.434 118 43 27 0 0
2.5328 -1.3273 -13.7359 0.124 -0.054 0.991 140 81 63 0 0
2.6093 -1.3105 -13.7297 -0.020 0.244 0.970 130 52 26 0 0
3.7141 -1.2047 -14.3705 0.762 0.412 0.500 61 12 4 0 0
3.7511 -1.2604 -14.7116 0.851 0.427 0.306 78 28 13 0 0
3.8372 -1.3038 -15.0404 0.954 0.299 -0.021 72 31 14 0 0
3.8760 -1.3539 -15.3529 0.751 0.176 0.637 70 16 4 0 0
4.3553 -1.3014 -15.5954 0.757 -0.571 0.318 23 23 25 0 0
4.3752 -1.3185 -15.7097 0.934 -0.354 0.045 15 15 17 0 0
4.3672 -1.3404 -15.8190 0.983 -0.169 -0.071 11 11 13 0 0
4.6548 -1.4608 -16.7836 0.698 0.631 0.338 156 154 157 0 0
4.8287 -1.4104 -16.7025 0.497 0.839 0.220 176 176 178 0 0
4.8611 -1.4133 -16.7538 0.782 0.599 0.175 179 179 179 0 0
4.8648 -1.4213 -16.8009 0.050 0.290 0.956 183 183 183 0 0
4.8941 -1.4159 -16.8040 0.050 0.290 0.956 183 183 183 0 0
1.4019 -1.5818 -13.7155 -0.217 -0.431 0.876 114 41 25 0 0
1.4738 -1.5608 -13.6814 0.117 0.350 0.929 116 41 24 0 0
1.4911 -1.5613 -13.7031 0.810 0.053 0.584 116 41 22 0 0
1.5767 -1.5347 -13.6545 0.824 0.039 0.565 118 42 24 0 0
1.6808 -1.5154 -13.6650 0.403 -0.168 0.900 119 44 25 0 0
3.7433 -1.2587 -14.5489 0.952 0.233 0.199 75 18 7 0 0
3.7478 -1.2647 -14.5863 0.930 0.327 0.164 80 21 5 0 0
3.7571 -1.2687 -14.6176 0.925 0.308 0.221 85 30 10 0 0
3.8490 -1.3430 -15.1166 0.946 0.318 0.062 96 43 15 0 0
3.8519 -1.3501 -15.1582 0.935 0.354 0.022 90 35 9 0 0
3.8616 -1.3627 -15.2362 0.945 0.292 0.144 83 25 5 0 0
3.8688 -1.3680 -15.2723 0.866 0.391 0.311 82 27 6 0 0
3.8980 -1.3802 -15.3700 0.643 0.269 0.717 62 19 11 0 0
4.0137 -1.3957 -15.5795 0.754 -0.072 0.653 16 4 5 0 0
4.3377 -1.3377 -15.6240 0.750 -0.602 0.274 19 19 21 0 0
4.3574 -1.3371 -15.6422 0.745 -0.593 0.305 15 15 17 0 0
4.3566 -1.3465 -15.6917 0.829 -0.525 0.192 15 15 17 0 0
4.3628 -1.3525 -15.7306 0.954 -0.296 0.045 14 14 16 0 0
4.3592 -1.3633 -15.7847 0.917 -0.399 0.022 12 12 14 0 0
4.6377 -1.4887 -16.7616 0.627 0.578 0.522 150 148 150 0 0
4.8737 -1.4354 -16.7347 0.782 0.599 0.175 182 182 182 0 0
4.9020 -1.4405 -16.7930 0.099 0.133 0.986 185 185 185 0 0
1.6514 -1.5480 -13.6569 0.505 -0.229 0.832 120 45 26 0 0
1.6777 -1.5448 -13.6691 0.403 -0.168 0.900 121 46 25 0 0
1.8882 -1.5046 -13.6852 0.307 0.118 0.944 113 46 23 0 0
3.7403 -1.2791 -14.5110 0.952 0.233 0.199 81 25 8 0 0
3.7551 -1.2886 -14.5782 0.931 0.288 0.223 93 51 29 0 0
3.7581 -1.2954 -14.6177 0.842 0.493 0.218 98 60 40 0 0
3.7966 -1.3108 -14.7416 0.895 0.403 0.189 64 34 26 0 0
3.8453 -1.3554 -15.0325 0.996 0.086 -0.035 93 33 5 0 0
3.9622 -1.4129 -15.4670 0.833 0.384 0.397 57 24 16 0 0
3.9930 -1.4248 -15.5640 0.914 0.097 0.394 15 4 6 0 0
4.3299 -1.3694 -15.6378 0.745 -0.593 0.305 15 14 16 0 0
4.3219 -1.3915 -15.7464 0.660 -0.677 0.328 13 12 15 0 0
4.3283 -1.3974 -15.7852 0.843 -0.512 0.167 12 12 14 0 0
4.6214 -1.5161 -16.7383 0.900 -0.157 0.407 145 143 144 0 0
4.6454 -1.5135 -16.7511 0.529 -0.174 0.831 153 151 153 0 0
4.9091 -1.4655 -16.7835 -0.007 0.134 0.991 185 185 185 0 0
1.6704 -1.5685 -13.6381 0.506 0.493 0.708 119 44 25 0 0
1.9558 -1.5201 -13.6935 0.307 0.250 0.918 159 81 31 0 0
2.1577 -1.4898 -13.7543 0.341 -0.125 0.932 143 79 59 0 0
2.3193 -1.4457 -13.6971 0.131 0.071 0.989 122 49 29 0 0
2.4206 -1.4337 -13.7444 0.037 -0.178 0.983 145 61 35 0 0
3.7538 -1.3083 -14.5380 0.874 0.439 0.207 96 69 50 0 0
3.8036 -1.3349 -14.7338 0.813 0.536 0.227 57 21 10 0 0
3.8142 -1.3384 -14.7636 0.883 0.411 0.226 73 35 19 0 0
3.9673 -1.4743 -15.6509 0.964 0.147 0.222 10 4 4 0 0
4.2865 -1.3915 -15.5613 0.380 -0.390 0.839 35 33 34 0 0
4.2624 -1.4214 -15.6934 0.878 -0.479 0.005 17 15 18 0 0
4.7358 -1.5152 -16.7081 0.648 0.484 0.587 164 164 166 0 0
4.7586 -1.5133 -16.7226 0.378 0.460 0.803 169 169 171 0 0
4.7866 -1.5086 -16.7284 0.647 0.222 0.730 174 174 176 0 0
2.0744 -1.5294 -13.7261 0.383 -0.017 0.924 142 74 44 0 0
2.0884 -1.5312 -13.7508 0.574 -0.029 0.818 167 107 78 0 0
2.1107 -1.5296 -13.7664 0.574 -0.029 0.818 156 90 70 0 0
2.8016 -1.3765 -13.7152 0.238 -0.042 0.970 120 40 20 0 0
3.8040 -1.3538 -14.6908 0.813 0.536 0.227 89 46 26 0 0
3.8146 -1.3572 -14.7206 0.813 0.536 0.227 101 57 29 0 0
4.2350 -1.4538 -15.6883 0.753 -0.651 0.095 17 15 18 0 0
4.3056 -1.4742 -15.8728 0.860 -0.504 -0.077 7 7 9 0 0
4.8224 -1.5284 -16.7232 0.255 0.339 0.906 176 176 177 0 0
1.2932 -1.7247 -13.7504 -0.236 -0.597 0.767 108 44 29 0 0
2.0731 -1.5578 -13.7284 0.459 -0.035 0.888 178 113 64 0 0
2.0945 -1.5566 -13.7452 0.511 -0.147 0.847 179 124 86 0 0
2.1121 -1.5569 -13.7659 0.792 -0.053 0.608 148 78 56 0 0
2.1432 -1.5516 -13.7721 0.695 -0.131 0.707 162 90 75 0 0
2.4983 -1.4637 -13.6999 0.138 0.005 0.990 139 53 26 0 0
2.9032 -1.3830 -13.7194 0.568 0.381 0.729 135 64 28 0 0
3.6891 -1.2628 -13.9481 0.259 0.048 0.965 119 39 2 0 0
3.7954 -1.3683 -14.6163 0.917 0.375 0.132 96 48 21 0 0
3.8024 -1.3734 -14.6506 0.917 0.375 0.132 102 51 20 0 0
3.8068 -1.3797 -14.6885 0.961 0.258 0.101 102 48 17 0 0
3.8231 -1.3890 -14.7548 0.955 0.209 0.210 89 32 11 0 0
3.8677 -1.4021 -14.8719 0.939 0.330 0.095 52 11 2 0 0
3.8254 -1.4828 -15.2480 0.841 -0.326 0.432 49 8 1 0 0
4.1079 -1.5170 -15.7355 0.104 -0.832 0.546 14 11 12 0 0
4.2165 -1.4910 -15.7180 0.589 -0.735 0.336 15 13 16 0 0
4.2513 -1.5015 -15.8109 0.474 -0.731 0.491 10 8 9 0 0
4.6406 -1.5928 -16.7136 0.656 0.666 0.356 147 145 146 0 0
4.7110 -1.5860 -16.7547 0.896 0.226 0.382 167 167 169 0 0
4.8791 -1.5473 -16.7357 -0.422 0.385 0.821 183 183 183 0 0
2.0731 -1.5858 -13.7294 0.459 -0.035 0.888 176 105 47 0 0
2.5756 -1.4814 -13.7341 0.059 0.163 0.985 187 126 96 0 0
2.6020 -1.4778 -13.7443 0.355 0.180 0.917 148 87 66 0 0
2.6279 -1.4744 -13.7550 0.355 0.180 0.917 153 98 82 0 0
2.6572 -1.4696 -13.7619 0.430 0.247 0.868 163 110 96 0 0
2.6812 -1.4670 -13.7747 0.352 0.153 0.924 143 84 68 0 0
2.8777 -1.4211 -13.7500 0.550 0.104 0.829 115 44 21 0 0
2.9069 -1.4162 -13.7563 0.448 0.302 0.842 132 63 29 0 0
2.9553 -1.4030 -13.7403 0.455 0.254 0.853 120 49 22 0 0
2.9739 -1.4026 -13.7588 0.492 0.243 0.836 121 45 23 0 0
2.9964 -1.4006 -13.7727 0.492 0.243 0.836 130 50 22 0 0
3.6193 -1.2972 -13.9137 0.502 0.135 0.854 114 34 8 0 0
3.6414 -1.2951 -13.9271 0.502 0.135 0.854 103 38 16 0 0
3.7230 -1.2979 -14.0307 0.874 -0.271 0.403 98 40 8 0 0
3.7893 -1.3817 -14.5388 0.831 0.517 0.207 102 52 23 0 0
3.7991 -1.3855 -14.5693 0.832 0.535 0.146 104 49 19 0 0
3.8017 -1.3926 -14.6094 0.930 0.337 0.147 98 42 13 0 0
3.8039 -1.4000 -14.6501 0.971 0.177 0.162 90 34 8 0 0
3.8128 -1.4043 -14.6821 0.961 0.258 0.101 82 26 4 0 0
3.8182 -1.4102 -14.7188 0.961 0.258 0.101 75 20 4 0 0
3.8271 -1.4145 -14.7509 0.933 0.217 0.289 68 15 2 0 0
3.8265 -1.4404 -14.8851 0.987 -0.132 0.097 59 16 8 0 0
3.7978 -1.5240 -15.2885 0.895 0.009 0.446 56 19 11 0 0
3.9625 -1.4892 -15.2872 0.953 0.148 0.264 52 15 7 0 0
4.1984 -1.5562 -15.8932 0.182 -0.417 0.891 10 8 9 0 0
4.2279 -1.5508 -15.8973 0.188 -0.388 0.902 10 8 9 0 0
4.4284 -1.5253 -15.9831 -0.385 -0.236 0.892 58 58 58 0 0
4.4740 -1.5116 -15.9614 -0.250 0.057 0.967 14 13 13 0 0
4.6293 -1.6175 -16.6820 0.718 0.576 0.391 138 138 137 0 0
5.0362 -1.5117 -16.5748 -0.409 0.369 0.835 189 189 191 0 0
2.4202 -1.5365 -13.7092 0.051 0.231 0.972 126 51 29 0 0
2.6105 -1.5016 -13.7358 0.274 0.003 0.962 178 118 95 0 0
2.6361 -1.4983 -13.7468 0.520 0.109 0.847 145 81 61 0 0
2.6589 -1.4962 -13.7610 0.625 -0.004 0.780 174 118 101 0 0
2.6798 -1.4950 -13.7774 0.582 0.071 0.810 172 120 105 0 0
2.7078 -1.4907 -13.7857 0.370 -0.002 0.929 139 79 62 0 0
2.9117 -1.4413 -13.7519 0.323 0.268 0.907 113 41 21 0 0
2.9610 -1.4275 -13.7348 0.427 0.251 0.868 112 39 23 0 0
3.0513 -1.4192 -13.7900 0.826 0.463 0.322 186 110 77 0 0
3.7732 -1.3913 -14.4319 0.855 0.499 0.141 103 55 26 0 0
3.7813 -1.3959 -14.4644 0.830 0.539 0.145 111 59 21 0 0
3.7937 -1.3984 -14.4912 0.832 0.535 0.146 108 51 16 0 0
3.7992 -1.4042 -14.5272 0.872 0.459 0.170 98 37 10 0 0
3.7989 -1.4127 -14.5710 0.926 0.357 0.126 89 27 7 0 0
3.8000 -1.4206 -14.6131 0.971 0.200 0.133 80 22 6 0 0
3.8079 -1.4254 -14.6463 0.971 0.177 0.162 71 18 5 0 0
3.8147 -1.4307 -14.6811 0.971 0.177 0.162 62 14 3 0 0
3.8316 -1.4398 -14.7464 0.933 0.217 0.289 55 10 4 0 0
3.7467 -1.5587 -15.2693 0.138 -0.710 0.690 58 22 15 0 0
4.1994 -1.5936 -15.9427 0.107 -0.157 0.982 14 13 13 0 0
4.2365 -1.5843 -15.9353 0.407 -0.411 0.816 19 19 19 0 0
4.2132 -1.6057 -16.0203 0.698 0.265 0.665 20 20 21 0 0
4.4206 -1.5575 -15.9973 -0.347 -0.338 0.875 82 82 82 0 0
4.4735 -1.5400 -15.9644 -0.294 -0.084 0.952 43 41 42 0 0
4.5120 -1.5298 -15.9535 -0.096 -0.033 0.995 16 15 14 0 0
4.5535 -1.5470 -16.0876 0.606 0.728 0.320 37 36 34 0 0
4.6485 -1.6464 -16.7054 0.653 0.756 -0.041 147 145 147 0 0
5.1409 -1.5137 -16.5550 0.015 -0.013 1.000 195 195 196 0 0
0.9009 -1.9556 -14.0700 -0.260 -0.620 0.740 201 197 197 0 0
2.0543 -1.6496 -13.7516 0.270 -0.052 0.961 130 50 17 0 0
2.4208 -1.5638 -13.7095 0.181 -0.103 0.978 127 46 25 0 0
2.6273 -1.5217 -13.7179 0.327 0.322 0.888 186 121 96 0 0
2.6475 -1.5208 -13.7350 0.567 0.336 0.752 162 100 74 0 0
2.6658 -1.5206 -13.7542 0.745 0.348 0.570 144 83 61 0 0
2.6824 -1.5213 -13.7755 0.745 0.348 0.570 168 119 106 0 0
2.7052 -1.5192 -13.7897 0.593 0.474 0.651 158 108 95 0 0
2.8504 -1.4795 -13.7436 0.080 -0.169 0.982 122 44 21 0 0
2.9670 -1.4520 -13.7290 0.394 0.161 0.905 107 35 23 0 0
2.9951 -1.4475 -13.7363 0.683 0.378 0.625 136 65 33 0 0
3.7342 -1.3623 -14.1025 0.651 0.632 0.421 89 48 25 0 0
3.7840 -1.4133 -14.4192 0.855 0.499 0.141 108 47 12 0 0
3.7832 -1.5426 -15.0831 0.839 -0.544 0.002 48 13 10 0 0
