ply
format ascii 1.0
element vertex 708
property float x
property float y
property float z
property uchar diffuse_red
property uchar diffuse_green
property uchar diffuse_blue
end_header
2.7018700855602713 -0.17911963697256095 -13.819980328952287 111 38 23
2.7284209057686786 -0.2063259608748127 -13.818391172771364 111 38 22
2.819372668756092 -0.299881633894981 -13.836551669850373 113 40 19
2.8354700123315704 -0.31662732634473434 -13.852112701437274 116 42 20
2.852881301269931 -0.33468646334734986 -13.865425843377832 116 41 19
2.8708230239612558 -0.35327541898795234 -13.877804328840408 116 42 18
2.8887997863135917 -0.37189882991758294 -13.890085265065022 118 44 20
2.880417915797552 -0.364173155280231 -13.947427508404337 118 44 21
2.9030091891623817 -0.38740978552726846 -13.951844729505591 115 43 20
2.934274295101493 -0.4193143159841992 -13.941249857115938 118 45 21
2.9583631778763637 -0.44404440563925673 -13.942869274168071 126 53 27
2.9811610816423206 -0.46748287903542884 -13.946622921079566 138 64 34
2.9999030848286043 -0.4868672214190366 -13.95733010670724 147 77 44
3.0217008412744173 -0.5093040243489946 -13.962669390729715 148 84 49
3.0441620923964603 -0.532402518000294 -13.966771428716168 156 93 56
3.0654468348561297 -0.5543243742124804 -13.972848219503405 155 94 54
3.0881285834941146 -0.5776406085498307 -13.97639701855649 157 98 59
3.10542065336485 -0.595572031047507 -13.98935167069366 161 101 63
3.1324744749164264 -0.6232526694638536 -13.9850254722753 162 103 64
3.1584898865710365 -0.6498942098243474 -13.982404397012221 158 98 59
3.184232456006045 -0.6762613916675009 -13.980143396225515 155 93 54
3.2035446459063195 -0.6962057737780092 -13.98922120427892 153 93 52
3.2239978186094405 -0.7172885226587677 -13.996203389187382 149 91 50
3.235942744271738 -0.7298758335443933 -14.018371396533698 144 81 42
3.2556663106247177 -0.7502288238482295 -14.026573449558411 137 72 35
3.286330998083219 -0.7815024520211176 -14.014983225223574 133 66 29
3.3105466343432637 -0.8063363820760467 -14.014880061515516 128 61 23
3.3557918932203012 -0.8528196910140262 -14.02014068646287 130 60 23
3.377401705730061 -0.875048535998213 -14.024478788261 129 58 22
3.396382565305392 -0.8946529268904406 -14.033544765216227 130 56 24
3.4793574159214318 -0.9800956707939044 -14.056194676779459 127 62 34
3.501209550313173 -1.0025590257263737 -14.059609852769231 138 75 47
3.518087839337838 -1.020060559799981 -14.072201267820734 139 80 51
3.538765026866436 -1.0413499466088534 -14.077661498026458 137 81 56
3.5326670825668653 -1.037287604543844 -14.221992859866557 131 83 69
3.519838093180387 -1.0251760520924509 -14.290864538320733 124 78 63
3.56446252960877 -1.0703390089471698 -14.25110501120715 109 68 57
3.569340004431859 -1.0758800625054543 -14.286582248682876 111 70 59
3.5905474062558733 -1.097697643961172 -14.291015698506808 115 70 56
3.6291760172528535 -1.1368750723253873 -14.262041388974108 115 67 54
3.661876618127245 -1.1708218647537456 -14.28898461289926 90 47 38
3.657624402283224 -1.1672684948567578 -14.342174191481064 76 29 20
3.6684537892365014 -1.1787426156339222 -14.366377319614035 71 20 6
3.677637311843812 -1.1885777850945316 -14.393810119996315 68 15 1
3.6875097483371206 -1.2032798168204617 -14.695215303393724 83 35 16
3.714021653307393 -1.2303752790922862 -14.688953804711765 88 42 19
3.7244943576685205 -1.2415044083830993 -14.714528093915693 99 52 30
3.7446860405393476 -1.2623067428709072 -14.720704816788949 104 59 36
3.7597422283968456 -1.2779974371929073 -14.737109343040018 106 65 42
3.7708084685065106 -1.2897177593377158 -14.761528824319573 97 56 35
3.7841656233943786 -1.3037179592608923 -14.78135969687428 94 51 31
3.7869223944482764 -1.3071723716481642 -14.822654942068477 87 42 22
3.7947921624901078 -1.3157150936148283 -14.853705481376753 76 29 11
3.7973940830471866 -1.3190191479976634 -14.895557604668515 73 23 7
3.8154400617435646 -1.3376857055577616 -14.90600507423467 100 49 33
3.8191613673392277 -1.3421057775139746 -14.945748496921073 89 36 21
3.8270958547034084 -1.350717342281364 -14.976961485901041 86 30 15
3.8058448602884374 -1.330310871381187 -15.068399216415642 90 33 18
3.7999264693057997 -1.3251548397249833 -15.128580051847102 89 32 15
3.808922416896123 -1.3348291318735215 -15.158087190958584 90 32 16
3.7981869247045523 -1.3248909893059726 -15.228692426784185 90 34 14
3.820049837857974 -1.3473578879762873 -15.231612979437129 96 42 19
3.862270622427518 -1.3900555276428355 -15.191844378263902 103 51 25
3.871917138474007 -1.4003777125957844 -15.22007865645609 113 63 37
3.8935910068778483 -1.422651558339238 -15.223053927039105 92 41 23
3.910973502510922 -1.4406603019951651 -15.234993161363619 70 20 9
3.9178800869388644 -1.4482612083074677 -15.269074494059094 67 19 9
3.9306451730888305 -1.4616830249443407 -15.290804651829976 65 18 9
3.914967074167432 -1.446854020913881 -15.373149229928558 55 10 4
3.924626733673411 -1.4571950120230097 -15.4017342622389 52 10 5
3.934516758752177 -1.467765658108184 -15.429884173276129 46 8 3
3.9444190835965456 -1.478349367242353 -15.458063615770321 35 5 3
3.968584979437659 -1.503095537504981 -15.455540579838067 24 5 4
3.9764582047145307 -1.5116651429712054 -15.48812799930607 18 5 5
3.9800638401193575 -1.5159997790852913 -15.53005745256107 18 3 3
3.9807198334278784 -1.5174088689186056 -15.578545899365185 18 3 3
3.963335697560531 -1.5009167476681413 -15.66659275924893 15 3 3
3.9858567152375413 -1.5240308946353234 -15.66768902572186 15 4 3
3.977524398636964 -1.51652920365933 -15.736434593923569 16 4 5
3.981077525191009 -1.5208242221587733 -15.779301497606848 18 7 9
3.9859583118085293 -1.5264385425339428 -15.819379954858963 32 21 24
3.999165882871032 -1.5403144909579378 -15.841131209283994 14 4 5
4.002856580780765 -1.544751477490637 -15.884055747624267 10 2 3
4.022480604571791 -1.5649923120808014 -15.89159497523809 9 4 4
4.0213000665089815 -1.5646016065180661 -15.945598454120285 11 7 6
4.036916488993132 -1.580868785563628 -15.962128726650803 12 8 9
4.058940983330763 -1.6034888185070932 -15.964220641923243 14 11 12
4.082435067997601 -1.627564082205816 -15.962889645861765 13 13 15
4.10361500698639 -1.6493436183443304 -15.966672493205735 18 17 22
4.126299617125822 -1.672613003101115 -15.966942806135831 21 20 25
4.147051429769672 -1.6939652177362041 -15.971500345214077 27 26 31
4.167675462524057 -1.7151894499916276 -15.97625994730186 30 31 35
4.187941544938859 -1.7360576832735646 -15.981751448848396 33 34 38
4.209653041780048 -1.7583565798442948 -15.983835006283044 37 38 42
4.206635617812652 -1.7561581381177405 -16.042854532682412 61 62 66
4.226372819512066 -1.776501045644629 -16.049471672682152 61 63 67
4.247166225043614 -1.7978887922432305 -16.053559964142224 56 60 64
4.265493531734276 -1.8168330850646197 -16.06329660584453 54 57 63
4.281537161826884 -1.8335153494642062 -16.078308440962736 40 41 45
4.310694028606459 -1.8631796558496787 -16.062575709079013 18 17 20
4.337034057874223 -1.8900522510937847 -16.05324596882697 25 23 28
4.362489055883759 -1.9160461609432424 -16.045826019272333 35 33 38
4.387656999494388 -1.9417534778886836 -16.038920346690176 41 40 43
4.42434736984722 -1.978860707729985 -16.00452339247312 46 46 48
4.4147094645860365 -1.9701225614508404 -16.080022475953186 38 38 40
4.590611332226842 -2.148915347834425 -15.973883724735732 59 59 59
4.556807842621475 -2.1162966849507834 -16.108891368755554 69 69 70
4.519767595605271 -2.0804894056228775 -16.252525458814205 77 74 74
4.564008483123711 -2.125035280309687 -16.198033430592226 87 81 78
4.548748446343667 -2.1174218661746442 -16.727316160712036 154 152 154
4.574296479386644 -2.1434912841306923 -16.718585168256254 161 159 162
4.601664556550804 -2.1713546090821096 -16.705064910444737 165 165 167
4.636322646486298 -2.2064100249049754 -16.672807397105373 172 172 172
4.672956662929233 -2.2434104662042578 -16.635184127303035 177 178 178
4.678756579012336 -2.2499796930741036 -16.676069266304467 182 183 185
4.717615967799659 -2.289168554772383 -16.632261275199443 189 190 192
4.7153297774726415 -2.287760898243549 -16.69396986063703 193 194 196
4.732581326021993 -2.305629063896012 -16.705495599194332 196 197 199
4.756209582601156 -2.329785567048928 -16.70045262809316 197 198 200
4.77458227931245 -2.348757051934639 -16.708914351967742 201 202 204
4.792192884560329 -2.366976078625515 -16.719295115738426 203 204 206
-1.9132734371765077 4.524387226500415 -12.649700325363122 142 112 103
-1.7975075107932303 4.407178843557935 -12.572598272158931 131 92 82
-1.7588334888334751 4.367589331551683 -12.572810261467191 124 79 69
-1.7172336271091808 4.325056656232886 -12.569927697059248 117 67 57
-1.5498776317272984 4.154639922718291 -12.516888083613637 107 56 44
-1.5066384804605297 4.110469382992845 -12.51160503624607 105 53 43
-1.4635758616551886 4.0664791744186175 -12.506343790917079 104 51 42
-1.4056783252991085 4.007562337215555 -12.485624294766161 103 50 43
-1.360698209287122 3.9616486035257 -12.478016037022092 101 48 43
-1.0146172374061742 3.608284356934255 -12.425462909042022 107 48 37
-0.9752751043857195 3.5680671727986275 -12.422309379627416 107 48 36
-0.9886393376676441 3.580864545656117 -12.475133671647828 107 48 36
-0.9468235799973295 3.5381615858271767 -12.469214450216672 106 47 36
-0.901288809925135 3.4917210814552546 -12.459152881394145 105 46 35
-0.8657394990143601 3.455325476928207 -12.459633523636457 106 46 35
-0.830303750574382 3.419046099676436 -12.460114947390162 109 47 36
-0.8515207356815742 3.439735470308787 -12.521678979079308 108 48 37
-0.8141852632798026 3.4015470344925793 -12.520036535078884 109 47 36
-0.7785484252981538 3.3650687024599772 -12.52010611020226 109 47 36
-0.7438422277713501 3.329528085331789 -12.52106630459071 110 47 37
-0.7032427469195754 3.2880647333109567 -12.51546746580815 110 48 36
-0.6717881264402523 3.2557971246114463 -12.519736219147195 110 47 34
-0.6315835329503816 3.2147354567071478 -12.514288000155078 110 47 34
-0.5311115236372448 3.11309717620403 -12.442243928655156 110 47 34
-0.502669931343541 3.083867118703218 -12.449299180664045 109 45 33
-0.48270363715264164 3.0631566526071152 -12.465671084219196 110 47 32
-0.3956057950926102 2.974978560253425 -12.407363076635967 112 49 32
-0.4495913629273831 3.028591211132934 -12.50594026735806 111 48 31
-0.40596311861282164 2.984103712015977 -12.495787496552664 112 47 31
-0.3490469686075599 2.926266851229748 -12.470549249050258 111 45 29
-0.3306623099970718 2.9071507894631496 -12.488390114515 112 46 30
-0.32136972282907816 2.8971702185529704 -12.516471024344664 114 48 32
-0.31271635468560266 2.8878311707392497 -12.545316692652927 115 48 32
-0.2304906216254894 2.8045780530969218 -12.490723222506336 112 45 28
-0.3022050936480518 2.875977369794975 -12.610879065928103 112 45 28
-0.1411289816874879 2.7115918971918296 -12.581598837226338 113 46 28
-0.090759808588186 2.6603587249763727 -12.562210161400309 114 46 27
-0.055388767228413016 2.624191265706254 -12.559955422075483 114 46 27
-0.023168874480480106 2.5911903775695695 -12.561227290653827 114 46 27
0.010887386344965222 2.556347393866047 -12.56024873084029 114 43 25
0.033640935604081434 2.532855323399609 -12.572345830845578 114 43 25
0.0660687924148089 2.4996508339201817 -12.573062705517511 115 42 25
0.09801868711934336 2.466928116593386 -12.574226403853086 114 41 24
0.13150349437109732 2.432666350329288 -12.573470118303433 113 40 23
0.1811248197491695 2.382207912071372 -12.553527343806774 121 48 29
0.20311066855948834 2.3594937992410614 -12.56609432685673 120 47 27
0.2356754317829317 2.326161954154548 -12.566045836678725 120 48 26
0.2637022240765097 2.297386766999267 -12.571287014345629 125 51 30
0.3129866794502938 2.247278279942348 -12.551036536386775 117 42 21
0.33818245272954695 2.22134835843564 -12.559422636716217 117 42 21
0.3670061679727725 2.1917789018325697 -12.563379416294712 117 42 21
0.3841933278676306 2.17388776350802 -12.581268963152569 121 46 25
0.4069738298711254 2.150384517550644 -12.592383069855014 121 46 25
0.42580685913262517 2.13084280135572 -12.608230196129444 120 43 24
0.4518661954709673 2.1040515012194465 -12.615265877756837 116 38 20
0.47872462625141754 2.0764598018660356 -12.621251162999311 118 40 23
0.5148501547790971 2.039573061492959 -12.615822324012743 119 41 23
0.5351676736116993 2.0185458648866983 -12.629632284811759 118 39 22
0.561242986565027 1.991743950417792 -12.63632424614488 117 39 21
0.6022251629414326 1.9499919473624097 -12.62455243904061 114 36 19
0.638550257752482 1.9129137210584357 -12.618357810316205 116 38 19
0.6318241978359067 1.9190126404523866 -12.665417456114861 117 39 19
0.7034620096204591 1.8465250178350683 -12.615141834099912 119 41 21
0.7278099984586941 1.8214639579977239 -12.62346288609296 120 42 22
0.748040859192229 1.8005322170389988 -12.636868330744555 123 45 23
0.7684660732743911 1.779406242433291 -12.64999212571261 130 52 30
0.8084882774900208 1.7386335933459565 -12.638415252146743 120 42 20
0.8217928501238188 1.7246486205191687 -12.660375939308759 121 43 21
0.8625772881780209 1.6831163157024247 -12.647568173653537 122 44 22
0.8846963033501467 1.6602971314682486 -12.658264430604014 123 45 23
0.9028568491055999 1.641446505410479 -12.673946903863843 119 41 19
0.9273106880692978 1.616288728862405 -12.681571449355246 119 42 20
0.9525502541370052 1.5903446650145092 -12.688119882617302 125 48 26
0.9496094508956601 1.5926426333302581 -12.730773668507734 133 55 32
0.9785181944531356 1.5630225727899645 -12.732548625689738 129 50 28
0.9968585129734091 1.5439940147123292 -12.747866964637218 139 58 37
1.04836925317709 1.4917305222784067 -12.720203301533672 129 48 26
1.0655290397735655 1.4738876568514359 -12.736879791779243 131 50 23
1.0745830470279882 1.4641657277938256 -12.764096095993153 142 58 33
1.0983556579969047 1.4396984086242108 -12.772129958616542 140 59 41
1.1295910845137618 1.4077566450586398 -12.770320740367339 140 66 48
1.1174214967440852 1.415997204710199 -13.022824242141464 126 56 34
1.1875735322527703 1.34509147233597 -12.968890504554865 117 43 23
1.2369588706102004 1.294323402781906 -12.98195908874256 94 24 6
1.2532993978750335 1.277302377023811 -12.999638058003011 80 17 5
1.3150670165620708 1.2148086461651109 -12.955893331652888 73 15 6
1.336006364190995 1.1931877998278182 -12.967137402873998 80 30 22
1.3561859568137251 1.1723281823395215 -12.979366186567901 122 79 70
1.3629090192907976 1.1649367546018299 -13.00990098718201 59 15 8
1.3699925095448204 1.157183585206572 -13.040005455081161 66 20 14
1.3710358973060286 1.155473641106334 -13.078453183277741 66 22 14
1.3845303142522543 1.1413031845416488 -13.09988459511752 66 23 14
1.4043672712077049 1.1207865252509883 -13.112577957942335 68 26 17
1.4103898754714708 1.1140915915649914 -13.144339419643432 68 25 16
1.4218126983348158 1.1019930201145938 -13.168679063290345 66 23 15
1.3861620411577213 1.1369840726648182 -13.25853255274465 64 20 12
1.3898232655780642 1.1326452884568683 -13.293942190234574 64 20 10
1.394326178766491 1.1274631358637928 -13.32826372637759 71 26 14
1.4344210615648123 1.0866822214557033 -13.312726382420767 75 30 18
1.4437651100431115 1.076658133652618 -13.340258808983855 80 35 23
1.4486518241237505 1.0710907152077702 -13.374126051521195 76 28 17
1.4477648220883594 1.0712953733559898 -13.416245567693124 69 17 7
1.4528704398669214 1.06550598413149 -13.44998735097333 74 21 9
1.456574665583223 1.0611163946807807 -13.485803651434512 82 28 14
1.4763899897097508 1.040618282376638 -13.498712382531583 81 27 12
1.4818371128071037 1.0344843985180434 -13.532150901677479 83 30 15
1.4554612516624044 1.0601597302724333 -13.611356880063871 81 23 7
1.4679478212911414 1.0469848471665832 -13.634946754156132 102 43 18
1.4626368234826463 1.0515977578544402 -13.684257063616153 172 116 78
1.4261700124309131 1.0873450054090346 -13.778854233959144 176 108 70
1.4220237578078834 1.0907861491871236 -13.82694026850149 159 86 53
1.780530786507886 0.7256284451105044 -13.718950588781716 131 50 26
1.8271800746655984 0.6783460895517752 -13.69098449325873 120 43 21
1.7807659934664484 0.7239903409152602 -13.802640495646706 120 42 20
1.8161431031567927 0.687964699987814 -13.791519982550362 120 42 20
1.8419920027179222 0.661454393298222 -13.794627090836507 118 40 18
1.863488375749621 0.6392906592200429 -13.804237758101717 117 40 19
1.8768420492314366 0.6252558684620517 -13.826172048748706 119 42 22
1.9139876049455395 0.5874737705995488 -13.81183595364007 117 40 22
1.9481997809463545 0.5526225952020374 -13.801789768840479 115 38 20
1.9781403372594593 0.5220372338364063 -13.798124000550839 114 38 24
2.000157270490508 0.499361076000048 -13.806512186880928 112 35 18
2.0117841221571773 0.487053459909057 -13.830864093261454 127 47 16
1.984339242671063 0.5137291456505393 -13.915692254284266 138 58 14
2.0496468640475696 0.4478617999524652 -13.856982794800514 160 106 67
2.0602865231438576 0.43653872288785234 -13.882887814976328 118 75 57
2.073228419133639 0.4229185014513277 -13.905236441238113 113 55 36
2.1002474978792867 0.3952567448716544 -13.905569202035087 148 81 50
2.1478309191662586 0.34708651704905247 -13.87351320496694 122 44 24
2.1713109677950335 0.3229595108588317 -13.87910037309824 111 38 24
2.1847330535025797 0.30886386955376466 -13.900485164035022 110 38 23
2.2070960822038908 0.28585262342435325 -13.907725328109429 113 40 25
2.2704408588497493 0.22198091687998334 -13.849823828719284 115 42 27
2.2822860459337235 0.20946139568439204 -13.87348226207097 117 45 29
2.3132927617107484 0.17783903103704235 -13.866564565429218 116 43 26
2.3499731713949963 0.14056344992280678 -13.850407616738268 116 43 26
2.396398484379014 0.093577957186747 -13.818392461193415 115 42 25
2.4245269239727287 0.06483362006486848 -13.815554576952234 116 42 25
2.4550094613534306 0.03374530975154366 -13.808785676789537 119 45 27
2.4017748839369393 0.08608593968749378 -13.937507733984642 117 43 25
2.516340902782626 -0.028788827778492454 -13.794200437089092 117 43 25
2.5264704057812466 -0.039590367288108386 -13.820144282063879 115 41 24
2.538351502999533 -0.05213766720091817 -13.843264994944654 116 41 25
2.583090980005763 -0.09741929419043194 -13.81255086891007 116 41 25
2.6004781806289925 -0.11544957688982516 -13.826510708983015 116 41 26
2.618523669940103 -0.13413505652041113 -13.839355692897659 116 41 25
2.6349248518582913 -0.1511822471366453 -13.854883344078274 114 40 24
2.6558184646660106 -0.1727030812026511 -13.862941229623058 114 39 23
2.6813676976729175 -0.19885897988392642 -13.863192983826993 114 38 23
2.7123853587721314 -0.23045815128879 -13.854215208231443 115 38 24
3.004837361405225 -0.5300919001768096 -13.871320251134541 117 41 17
3.027738113833558 -0.5535878741579707 -13.87462698100075 123 45 21
3.0348748672249943 -0.5614038528648377 -13.905227964509342 121 42 19
3.0550738457632116 -0.5822112633114367 -13.913141536663828 121 43 18
3.074015858174258 -0.6017676870793385 -13.923188411789681 121 44 17
3.09528457630282 -0.6236367609804212 -13.929107522035437 127 50 19
3.113682089077879 -0.6426499356420439 -13.93999827733941 123 48 15
3.1352354732891445 -0.6647997610860608 -13.945280911608915 126 54 20
3.1668130901486258 -0.6969130069263305 -13.932764407492089 130 58 23
3.186506791086927 -0.7172108663018557 -13.94113562496651 135 65 28
3.2059517742689705 -0.73726052846171 -13.949889276640345 140 73 32
3.231004190222695 -0.7628819172274013 -13.948585179011992 146 82 39
3.242863201150471 -0.7753908585916705 -13.970762508501487 152 92 51
3.2601950546413665 -0.7933381305698983 -13.983143691008237 159 100 59
3.2863296348647726 -0.820030669370496 -13.979651616273927 164 104 60
3.310489449973537 -0.844759213814033 -13.979593534931789 169 108 64
3.327896459987982 -0.8627779416838859 -13.991646938077217 160 100 58
3.3466073196992117 -0.882091121113528 -14.001296074205499 153 92 50
3.374825897838819 -0.9108463740825572 -13.993586097005984 158 95 53
3.3929625237283894 -0.9295866974532982 -14.004128726403621 149 82 40
3.4121754650376594 -0.9493950354936063 -14.012654154447759 141 71 30
3.432883215498266 -0.9706866237040943 -14.018376211143417 141 69 29
3.45370883434991 -0.9920939876715789 -14.023806473477828 144 70 32
3.475089892087837 -1.014051481403881 -14.028134329904624 141 63 25
3.498228111518693 -1.0377518324359718 -14.029123873084902 140 63 25
3.5194957573519474 -1.0595938263980802 -14.033486852312624 137 62 24
3.5374660304500614 -1.0781619219041696 -14.043912548843696 134 58 21
3.5539600985991786 -1.0952642952950415 -14.057050890021614 131 55 21
3.614767419645643 -1.1592807368314384 -14.163374282931628 137 71 45
3.611306802444675 -1.1565907007967078 -14.214413145735648 133 67 43
3.6491569532248054 -1.194872616552484 -14.186817488272315 121 62 36
3.678740459697501 -1.2249525688137894 -14.174770464899566 107 51 28
3.6716720288378433 -1.2186879855427755 -14.232896942602448 104 51 34
3.678120484948572 -1.2258284762533012 -14.26523716320282 104 59 42
3.685205663303843 -1.2336015645548475 -14.296431123328638 109 59 44
3.689869466386848 -1.238975751564496 -14.332390741007803 87 30 16
3.7057718770538957 -1.255490817171728 -14.346625177137886 82 23 5
3.7266102462210684 -1.276897265342749 -14.351218944042563 91 32 6
3.778844693719292 -1.333971428941223 -14.567308955319932 79 42 22
3.788537370130917 -1.3443387785846008 -14.594027637950141 73 33 16
3.795321388044105 -1.351826887626712 -14.626616040336764 66 21 11
3.803816525382242 -1.3610105333052762 -14.655854588419817 67 20 13
3.8106245096952405 -1.3685250233213813 -14.68855375690837 78 30 22
3.8191799404035995 -1.3777706750845136 -14.717809731720976 84 35 21
3.8257642638580007 -1.3850664625619125 -14.75112173388585 85 34 20
3.834435709842337 -1.3944292844881652 -14.78028303143609 87 35 21
3.835768548537432 -1.3965311422733078 -14.82445865683026 88 36 23
3.8425294616409014 -1.4040064437369626 -14.857696409613572 78 23 12
3.843789118960606 -1.4060404899154042 -14.902296992571914 78 21 11
3.848639742367797 -1.4116295337751654 -14.939671927294272 78 22 12
3.8520798553270943 -1.4158252461001672 -14.980067768360636 79 22 10
3.8607784405015915 -1.4252240376696483 -15.009719609890292 79 21 7
3.8661873407105736 -1.4313706080830393 -15.04626117005446 81 26 10
3.8695720894112897 -1.4355174061127767 -15.087121500835707 88 35 17
3.8717185218767067 -1.4384420624357284 -15.130699397806332 96 45 27
3.883242685125528 -1.4506403514201756 -15.15479872533518 83 34 17
3.894427458635919 -1.4625036811158956 -15.179642712525713 72 23 9
3.9082886578506697 -1.4770130588812447 -15.198887476277333 69 19 9
3.921416105431301 -1.4907973049964283 -15.219684766333023 72 21 10
3.932320864669596 -1.502385274479383 -15.245202951040483 79 29 14
3.9112734011627355 -1.4824018843290285 -15.338657076058949 74 26 14
3.913662007024003 -1.4855807410670843 -15.382613277603307 63 17 9
3.921537815309563 -1.4941828665794397 -15.414990932551557 59 16 10
3.9283794265248417 -1.5017647983342082 -15.449667843039443 58 21 14
3.967829584087146 -1.541554788161518 -15.414306516349509 55 25 20
3.9681321801000244 -1.542678692502382 -15.463068826754402 52 26 22
3.977363089690643 -1.5526218996543437 -15.492693041478365 52 26 25
3.9829694717448563 -1.558987549277135 -15.530249208490611 36 12 14
3.9687471136098047 -1.5457795503387768 -15.611086930244795 37 17 18
3.9608306876700405 -1.5388025567292782 -15.678531429293646 36 20 20
3.9613755970109903 -1.540181904053905 -15.727737885564284 30 16 15
3.965047592657169 -1.544650432819056 -15.770257841747142 21 8 10
3.968647888507067 -1.5490505947619688 -15.813078675735301 21 10 11
3.9753279362118024 -1.556491879922203 -15.849236510855803 16 6 7
3.9983007242377715 -1.5808620737021832 -15.90048578705695 9 4 3
4.0359577737330685 -1.6205757496594981 -15.970478771121309 19 16 17
4.061134511614864 -1.6462620025584491 -15.965438060453339 22 21 24
4.087138180726076 -1.6727610178436412 -15.958380896855381 26 25 31
4.107156876283016 -1.69335760226808 -15.964719799665836 30 29 35
4.127144964971008 -1.713922702362134 -15.971049375044949 31 30 36
4.150925931408698 -1.7382244613538869 -15.968655310956084 33 34 39
4.1703769732281835 -1.7582572640077867 -15.976027796595666 34 35 40
4.190921475249121 -1.7793662341072918 -15.98082032003614 39 40 45
4.185278448701732 -1.7746745098002474 -16.045765062763696 47 48 53
4.2065393257967 -1.7964892980240954 -16.04891359197181 51 52 57
4.223703208792694 -1.814267166668107 -16.06144617977541 56 57 62
4.242059101995076 -1.8332182650355349 -16.07117052289081 73 74 79
4.25810296138203 -1.8498917461273279 -16.086221365013714 91 92 95
4.283421851380415 -1.8756967654549834 -16.079579284687735 31 32 34
4.306349500352077 -1.8991450549575224 -16.07838123526701 23 22 26
4.326477918739542 -1.9198358729363014 -16.083637498069308 37 36 41
4.360126704942702 -1.9538321415385482 -16.056927488349093 47 46 50
4.390806749451373 -1.9849021603009311 -16.036955075678037 48 48 50
4.373616008541052 -1.968864973424433 -16.130321606256537 45 45 47
4.544689867702517 -2.143305522673144 -16.090355366432433 73 73 74
4.503658142591094 -2.1038597973259043 -16.243291908801 81 78 78
4.546321066422603 -2.1466862447999877 -16.192833823839287 86 81 78
4.598831015284022 -2.1991821648346175 -16.117835081173034 90 85 81
4.494429925064077 -2.1029944333724924 -16.757191308617166 144 143 142
4.519523972911019 -2.1285589496240895 -16.749928805974903 152 150 152
4.556443140621987 -2.1657273970969033 -16.712718579826813 160 158 161
4.563041720132433 -2.173133246235916 -16.751748421629248 165 165 167
4.60845561610082 -2.2186293344834507 -16.692534121006357 170 170 170
4.6506478069181885 -2.2609561819930497 -16.64101194638709 176 177 177
4.688450524937351 -2.2989694651264037 -16.600235212384305 183 184 186
4.6751568473549705 -2.2868579247218754 -16.68980991152257 187 188 190
4.6984262917040445 -2.310612249912924 -16.68598743952045 192 193 195
4.710176877090963 -2.3230688746126047 -16.71167835910365 197 198 200
4.734131615292783 -2.3474917756396816 -16.705886790541868 198 199 201
4.775370634070648 -2.388856027887376 -16.655146383694532 200 201 203
4.7939695221381236 -2.4080215380089065 -16.66281565619201 201 202 204
-1.8661188639120114 4.43006834095868 -12.577838994461818 111 69 59
-1.8174727193184381 4.3805482992359455 -12.568212320516933 109 63 55
-1.603206034137643 4.162760347051928 -12.507799834969916 101 52 44
-1.53685570854278 4.09408279363781 -12.557028919094748 101 49 38
-1.427425423795846 3.9829233315419765 -12.52237378974326 101 48 36
-1.3143391364922294 3.868114873508046 -12.483002742567145 103 48 34
-1.257791364443185 3.810712623249056 -12.462948816622994 105 49 36
-1.2538221604065622 3.806027560835072 -12.497567563703392 105 49 36
-1.0556283814872733 3.6038283529428914 -12.482789890182097 107 47 36
-0.8407979023142236 3.3843226998642963 -12.485091577114419 109 47 36
-0.8155914356581384 3.3583647747774625 -12.496507204616137 109 47 36
-0.4949229887373816 3.030150839842501 -12.531089999755618 110 46 29
-0.43038076921497836 2.9648240510052006 -12.497725538113766 112 46 30
-0.3467499544200159 2.880391782763163 -12.442675327450145 116 50 34
-0.33066261308937595 2.8635870063772475 -12.463025016083236 121 54 38
-0.3215335518020268 2.853747984958988 -12.491207195814312 114 47 31
-0.31764520500604476 2.849154187716856 -12.525350040564494 112 44 28
-0.2964301400261258 2.8272158514596555 -12.539945782298393 111 44 27
-0.17777306929671877 2.7049442319506394 -12.597920329285785 113 46 28
-0.0874176458243694 2.613829598667851 -12.53258349190568 117 48 30
-0.060995125976958775 2.586690681404961 -12.540632691294835 114 46 27
-0.02924301380084504 2.5542210037559734 -12.542432387500128 111 42 23
-0.0019721461691775133 2.5262363716648544 -12.549331974279426 113 42 24
0.021725864486477064 2.5018272720975805 -12.560317156789793 114 43 24
0.05129028529157331 2.4715510997486083 -12.564389136707481 116 43 26
0.08070875923089549 2.441422638341338 -12.56853711393745 116 43 26
0.12302048744192895 2.3984005517875504 -12.557431563436545 111 38 20
0.17079725323432626 2.3499161933833395 -12.53969997948398 120 47 27
0.20783910662325678 2.31217116859943 -12.534442581248532 116 43 22
0.23819627682129596 2.2811133636722642 -12.536964809416816 119 46 25
0.269106405291037 2.249504519188985 -12.538726587962621 126 53 32
0.2992544011317797 2.2186596430845493 -12.541290386849939 119 44 23
0.338516505559868 2.178704431694146 -12.532849962984564 111 36 16
0.35568856847985497 2.1608362533261682 -12.550743595781555 115 39 19
0.37089837415702664 2.144929923183401 -12.570984268861615 122 47 26
0.3791788970239054 2.135950119815136 -12.599585050240615 118 43 22
0.39613778512127773 2.118295082187937 -12.617733091084666 117 39 21
0.4296568807723036 2.0840887461669224 -12.61577383895028 114 35 18
0.466940054638326 2.0461228706333765 -12.609106196225301 116 37 20
0.5033221288335508 2.009060321676023 -12.603383714646919 117 38 21
0.49724934182324265 2.0144249719177 -12.64947449854095 117 39 20
0.5452210619151598 1.9657845262049105 -12.629377068280878 116 37 19
0.5875817410677451 1.9227546009226977 -12.61595530719405 123 44 26
0.6253446634196829 1.8843217663782132 -12.60801683068125 118 40 21
0.6006976936225694 1.9082410670329932 -12.677184262924815 116 38 18
0.6161966143310487 1.8920509787053055 -12.696788195895689 121 43 22
0.7166957153364608 1.7909544292328672 -12.610549460508462 124 46 26
0.7363802549265772 1.7705892442423297 -12.624616963848867 118 39 18
0.7373150440084002 1.7689513222349915 -12.662131421797266 121 42 21
0.7788031637525226 1.7268108581493484 -12.648814946471086 126 48 26
0.7983924775842031 1.706542825385962 -12.662889440786548 118 39 18
0.8239323929199696 1.6803333062595724 -12.669413920027985 121 43 21
0.8695438212026279 1.6340836791270363 -12.650435810588029 124 46 24
0.8860161631754488 1.6169317103558365 -12.668252670295942 118 39 18
0.9083108033123226 1.5939671306521213 -12.678640084624064 116 36 17
0.9356938290434975 1.565923772027054 -12.682471902663107 120 40 20
0.9504018585323246 1.5505347643183125 -12.70245307342806 125 43 24
0.9937234489667377 1.5065844684859213 -12.685666145086078 123 43 22
1.01311296424422 1.4865247271624544 -12.699510830091665 129 51 29
1.034791177879744 1.4641813943738198 -12.710363712751828 128 48 27
1.0557585034925738 1.4425484352539906 -12.722086996250983 125 44 21
1.0827415536813598 1.4149132020211939 -12.72594498553535 144 66 42
1.098285572344654 1.3986938933547428 -12.744623364154346 132 54 35
1.116103073144993 1.3802062851456167 -12.76032380806344 144 70 53
1.2210529092832196 1.2698061037305153 -12.935373587385635 106 31 11
1.2140920763420162 1.276027312116777 -12.984245956841967 87 18 4
1.2364655314891317 1.2529969566376966 -12.993823781417362 78 13 5
1.3408234540450703 1.148228655262046 -12.892738316218537 73 12 7
1.3264401411656692 1.161850332215919 -12.951612717849965 68 11 7
1.3404902520582507 1.1471236214438028 -12.972132792561077 68 17 11
1.3471600310142673 1.1397534897310528 -13.00270062700652 65 17 8
1.3523025731623344 1.1339044486483516 -13.035415290039621 74 23 14
1.3436778456577558 1.141775220238249 -13.087045976265546 73 23 11
1.338427410665549 1.1462799006906899 -13.134228844553604 80 32 21
1.41133657228899 1.0728949751906671 -13.07399040925029 81 33 21
1.410959274376773 1.0725437474316761 -13.114454000090518 68 22 11
1.413569054834321 1.0692141246620364 -13.150902008850185 64 19 12
1.3646133276017105 1.117257094442087 -13.259033206308967 65 21 14
1.368251246946505 1.112895969640554 -13.294447969459018 70 28 16
1.3712471283570702 1.109172780219298 -13.330848664183147 68 26 13
1.4211675259226322 1.058707534022247 -13.301638403322933 66 23 10
1.4308493012840913 1.0483251460547285 -13.328652371354114 78 34 22
1.4357550936737207 1.0426985401756617 -13.362433771452153 79 37 24
1.4375673956813815 1.0401511410630748 -13.400664426027202 78 38 23
1.4401443524469952 1.0368403899539667 -13.437917679561238 75 37 23
1.4396164012473083 1.0366193989999068 -13.479681182019835 68 31 18
1.4511084490601087 1.0244286143103247 -13.504447593557547 63 28 16
1.4612063977446166 1.0136252280531526 -13.531233571798765 64 30 20
1.4436568937660432 1.0303437149561558 -13.597669762481068 63 29 17
1.452856917762852 1.0204306200090985 -13.625938748566695 66 33 21
1.4596892042119922 1.012873347984431 -13.657667106904835 94 60 39
1.4424874087244932 1.029234975796018 -13.72419401357551 168 116 83
1.4245401848092119 1.0463335784676255 -13.79206832611045 179 113 79
1.782237002190767 0.6828718966408056 -13.684979227585462 125 45 20
1.797750944589886 0.66668452210682 -13.703591186408811 124 46 23
1.7661950654919378 0.6972968501787671 -13.792801217799745 128 46 25
1.7949890666349617 0.6679032374874398 -13.791626217949235 123 42 21
1.812349722097089 0.6498777291559565 -13.80757923777701 125 44 23
1.8443229669965442 0.6173273789399567 -13.801401742562408 123 44 24
1.8571577539055344 0.6038022891251411 -13.824114224945841 119 42 22
1.8897374111463687 0.5706531771515371 -13.816798114746842 118 41 23
1.9232688485251304 0.5365610377454653 -13.807873714536658 116 39 21
1.9571620471880742 0.5021124164848505 -13.798230766731141 111 35 19
1.9782988716355234 0.480341905333983 -13.807998473214612 117 39 21
1.989599165924436 0.4683454468610342 -13.832850730693991 130 46 16
1.9665110702890756 0.4905120159501779 -13.910819698681543 145 64 23
2.00162215686502 0.4548584700975966 -13.89902193656604 161 115 77
2.046741279577099 0.40926724471397335 -13.871503663771641 102 61 42
2.0875454658912274 0.36796664759008824 -13.850432251847302 104 44 24
2.1279936411051903 0.32702388818505 -13.829682252928782 143 72 39
2.1646215413408303 0.2898791036593291 -13.814682819807981 122 43 24
2.203169807984632 0.2508310702429801 -13.796468203701393 115 40 26
2.2320298438368695 0.2214063439081464 -13.793296823891444 109 36 20
2.2494452818169055 0.20334627209080303 -13.808074350312204 114 41 24
2.2660383823136154 0.18610303701087139 -13.824128199060942 116 42 26
2.279032592098134 0.172432556681553 -13.845881049510155 120 46 29
2.308908475325615 0.14200578939764963 -13.840747890957932 117 43 26
2.3436689673342475 0.10673375177821232 -13.827667425096493 117 44 26
2.360012312010615 0.08819220978679976 -13.929049495293171 119 44 25
2.389159181476402 0.05849592169951645 -13.92469946380293 121 46 27
2.426605323165651 0.020568829019662616 -13.906756954300647 121 46 27
2.449571828587337 -0.002991040198863981 -13.912142276623102 120 45 26
2.462775376927487 -0.016865767802728193 -13.933367480613413 121 46 26
2.4787434824000822 -0.033482575076443144 -13.950083024950427 120 45 25
2.498491596037849 -0.05384777829398324 -13.96058420685166 119 44 24
2.5845867624159595 -0.14000319297131858 -13.86190153126023 120 44 24
2.604208960270464 -0.16023594015486964 -13.872192633957596 117 42 22
2.6312263921650842 -0.1877997440020076 -13.870197876944921 117 41 21
2.65834263703006 -0.2154592834001927 -13.867917024666685 118 42 23
2.674965174919322 -0.2327144507998189 -13.88297447790762 118 41 23
2.7061285454616684 -0.26438184589036684 -13.873742196964738 121 44 25
2.77174641619529 -0.3301939785708057 -13.806678932486875 120 43 23
2.789701359568598 -0.3487626896244227 -13.819121914339838 119 41 22
2.8017061714864635 -0.3614346244484814 -13.84154438410187 119 42 22
2.819537321904323 -0.37987984728242674 -13.854150754970377 118 42 20
2.837522302617434 -0.3984768147372484 -13.866460329498906 114 38 17
2.862559145888514 -0.42405902402539875 -13.866756608034619 116 38 19
2.8820055548261045 -0.44410160359021456 -13.876466161104567 116 39 18
2.903241127557421 -0.465915332956369 -13.883066717625328 115 39 18
3.097923245343507 -0.6633611591195145 -13.804243589843985 113 38 20
3.1164344286670778 -0.6824628069097911 -13.814747621773748 114 38 19
3.1343454329959757 -0.7009695800983757 -13.826254012285474 115 39 19
3.15299058188359 -0.7202021489160852 -13.836432111875457 117 41 22
3.1755940222035504 -0.7433507658750753 -13.839600701191312 114 40 20
3.193349179987125 -0.7617005751157131 -13.851230337219928 116 42 22
3.1921527206302347 -0.7612995907901481 -13.89634175170022 118 41 20
3.2235522532325094 -0.7931476985162855 -13.883783964217074 119 41 19
3.24230989729754 -0.8124874412320895 -13.893536508750035 121 44 22
3.2573047486039624 -0.8281045455170273 -13.909952224421868 121 44 19
3.2645091781778204 -0.8360168106213894 -13.940297704468449 121 46 17
3.2837934567448634 -0.8558759941803915 -13.949031240330738 126 51 20
3.302669552634189 -0.8753305284269728 -13.958442408323554 135 62 28
3.333725881377802 -0.9068266797010449 -13.945810430289841 136 64 29
3.351979268223298 -0.9256624889239546 -13.9561781211765 135 67 31
3.3677053345064776 -0.9419991664376406 -13.97108814773808 142 77 41
3.387210737880844 -0.962070999891294 -13.979094217741203 157 95 57
3.407608206010118 -0.9830233589609749 -13.985409685260876 157 95 57
3.427383058610813 -1.003359148599539 -13.992794831154317 157 93 55
3.4513143946553226 -1.027800848157233 -13.992478115047863 159 93 56
3.470822972262744 -1.0478707851609435 -14.000201901063152 158 94 55
3.4921289478049937 -1.0697152674740509 -14.004541158452586 159 96 57
3.5077702372010204 -1.0859625623561282 -14.019298629929057 155 91 53
3.5272011279107653 -1.105952541801329 -14.02698972377192 146 78 40
3.552219708359904 -1.1314598990095637 -14.024199289292781 143 72 32
3.5703763593617417 -1.1501886976566817 -14.034117204710032 146 74 33
3.5891170816930336 -1.1694933231792488 -14.04289035101669 149 75 32
3.69793712001741 -1.281722995773153 -14.101262674481926 146 83 44
3.681393166711013 -1.2662051010794708 -14.177220933874366 128 61 30
3.6918393687185214 -1.2773220327069756 -14.201687909864994 115 49 27
3.69951066366451 -1.2857021874028605 -14.231536579829594 100 35 15
3.701806124038808 -1.288780888334379 -14.271839299137739 102 42 16
3.7137458353518022 -1.3013740173634991 -14.293586087984583 110 58 22
3.7308243442535813 -1.319035336335638 -14.305366884709592 113 68 30
3.7417548058383368 -1.3306334682007939 -14.329092142021935 115 72 38
3.7528253291690845 -1.342370284660285 -14.352575831706137 99 58 31
3.7632701976331306 -1.3534908464200877 -14.377317033406687 80 36 18
3.7728435272405116 -1.3637529719123949 -14.403810399297264 76 30 17
3.8109721401563776 -1.4029875781046828 -14.41939187340948 68 20 14
3.83195727325994 -1.4253255056728373 -14.468838598410375 63 17 11
3.829971240459714 -1.4242012442517638 -14.518526916510558 63 18 12
3.8347090647930466 -1.42970419795672 -14.554941491827392 63 18 12
3.8428805947314126 -1.438591353500546 -14.584569198561587 62 17 11
3.8436118782015507 -1.4401518203759704 -14.62924846803321 69 25 18
3.8454816391415108 -1.4428363130965711 -14.671785246307687 72 27 20
3.8498552377435464 -1.4479889171891562 -14.709393489659089 66 23 13
3.859100876224523 -1.4579404824027131 -14.737216019629319 58 16 7
3.8586952977872135 -1.4583918212176217 -14.784765435431432 59 13 7
3.855040227286336 -1.4556476957068378 -14.839131986364542 63 15 11
3.855192642976693 -1.4566549580363435 -14.885906643394115 64 14 9
3.860830586853484 -1.4630637545517065 -14.921569267626321 71 20 11
3.858677399949501 -1.461807838960607 -14.97340555223358 82 30 17
3.866069063353721 -1.4699467435082667 -15.005693707773613 89 36 22
3.871740874384895 -1.4763951716313501 -15.041632842763981 89 36 19
3.87742617969547 -1.4828587657104566 -15.07764781409768 87 33 16
3.880084021247434 -1.4863465679458483 -15.1200874951647 77 22 6
3.890936942996368 -1.4978963850105327 -15.145509889019321 76 20 7
3.910106054671246 -1.5176244961329761 -15.153506193052383 75 20 10
3.9206218606364756 -1.528843367821044 -15.179666878207481 82 29 14
3.933177393656666 -1.5420683094336063 -15.201562488952149 89 39 17
3.90771672048489 -1.5179243219905167 -15.30404750908674 87 39 19
3.90922970587995 -1.5203010479392796 -15.349698904190518 74 28 13
3.9097718836342423 -1.5217266666625981 -15.397582468452796 68 24 14
3.922249617099169 -1.5348837360577585 -15.420115534995489 58 22 13
3.966904546666054 -1.579655735557048 -15.373645844281036 50 19 15
3.959114493777392 -1.5728988220242237 -15.439622792373168 42 13 13
3.964012931356928 -1.5786107191313619 -15.478501788440816 35 10 11
3.9585235871667512 -1.5741223934077184 -15.539988875142384 29 9 8
3.948494434194659 -1.5651805161587444 -15.611591971728725 24 9 9
3.9496073511807612 -1.5671850548188515 -15.659248765608005 20 8 7
3.939339272381332 -1.5580189450572108 -15.731941981733744 20 9 7
3.942675334121695 -1.5622136303710996 -15.775152616121142 18 7 7
4.050786800790065 -1.6757192994258148 -15.943373163236771 15 14 17
4.071301371852367 -1.6967730275311368 -15.948685670446903 21 20 25
4.097296019148383 -1.7231980857987095 -15.94153301596473 25 24 30
4.11563470225954 -1.7421149675739613 -15.951567660146944 25 24 30
4.135408689374334 -1.7624376967253212 -15.958283981461873 26 26 32
4.152674345831317 -1.7803007278785676 -15.970643084368097 29 30 34
4.172935757315999 -1.8010986353669867 -15.976109329032209 35 36 41
4.163311757172856 -1.7926132246581163 -16.050051035757324 53 54 59
4.183898800488161 -1.8137309283100351 -16.054810980176484 56 57 62
4.203876251145138 -1.8342498939249343 -16.06088929923895 70 70 76
4.220929886369081 -1.8519037664530789 -16.0736568095408 90 90 95
4.236406532448569 -1.868012605554993 -16.0900477596093 96 95 99
4.253299053456306 -1.885507498341381 -16.103123375596653 40 41 43
4.276046070625443 -1.9087333926544163 -16.10248016355012 21 22 26
4.299678793778527 -1.9328240696415637 -16.09963842596497 32 32 36
4.322396028754209 -1.9560162317348948 -16.09881352721449 40 40 43
4.357869457045715 -1.9916896762875176 -16.067776729979823 42 42 44
4.507264813876257 -2.145496560742423 -16.13311403097988 69 69 69
4.457769435760013 -2.09808739867344 -16.306340528717126 71 69 68
4.504628969096239 -2.144860266340355 -16.246068333745743 81 76 75
4.5372263280902825 -2.1776881174741267 -16.220112637090438 89 83 79
4.406479463205253 -2.053930929692041 -16.758931563599155 112 107 105
4.435083365037934 -2.082870511374124 -16.743484461716964 122 119 116
4.51874441198021 -2.168576680445601 -16.756710959597058 157 155 158
4.608598798341345 -2.2582689065614514 -16.641358443291047 169 169 169
4.6232932586108335 -2.2736121859521496 -16.659589246273498 175 176 176
4.679965804719735 -2.3298953283533117 -16.571063272165333 183 183 185
4.691558833288297 -2.3422079478589497 -16.59685553426813 189 190 192
4.703025208631452 -2.3543978682899667 -16.62301502970125 192 193 195
4.6764490958316225 -2.3295037734405577 -16.74688850052697 195 196 198
4.718740187321768 -2.371745192130049 -16.69406022962393 197 198 200
4.76928674671129 -2.422023441416853 -16.619442818530644 199 200 202
4.748971676186258 -2.4032447656906992 -16.727900369126644 200 201 203
4.773438784429722 -2.42810453368325 -16.720483694659293 202 202 204
-1.7249438519487743 4.24070315506773 -12.489793298197707 100 54 44
-0.47201184341458013 2.9626945640902678 -12.518830942044332 115 48 32
-0.3897779752245194 2.879902643644912 -12.465550811168884 117 50 34
-0.3362918548638696 2.825794103754191 -12.444059148577864 114 47 31
-0.3157111208324377 2.8045103236120417 -12.459305951137534 113 46 29
-0.3194643113136877 2.807496358535909 -12.501948823437349 114 45 29
-0.3160881854197237 2.8033700221618645 -12.536658461635668 113 44 28
-0.31755576989020096 2.8040723128466474 -12.576939144874189 113 44 28
-0.11933733877329278 2.6056561628819184 -12.390300866392517 114 46 27
-0.21182846716937576 2.6956018093477105 -12.61120529968597 115 46 27
-0.09965420077337672 2.583012137449539 -12.52098213112456 116 45 27
-0.07319189275311189 2.5558746374301053 -12.528980255150454 115 43 25
-0.04748232738204905 2.5294888755202294 -12.537776199199012 115 42 25
-0.031633671527726115 2.5129327368910466 -12.557943166226162 114 41 22
0.001933486270440099 2.4787179450292793 -12.557493924294265 114 41 22
0.03868270089356063 2.441334434833121 -12.553210818227306 115 42 23
0.062233620104446885 2.4171057546241004 -12.564227900858192 113 39 20
0.1091708079883027 2.3695754520151495 -12.547747295463765 117 42 23
0.17188044879434639 2.3063343002318373 -12.51249228121111 119 43 25
0.20133339210123413 2.276232897853537 -12.516166945101084 120 43 25
0.23763509580684783 2.239310472100258 -12.511639245020422 119 44 25
0.26457212050645396 2.2117195822548448 -12.518084418229119 121 46 27
0.2896507729283426 2.185981375909364 -12.5266620367495 114 39 20
0.3161347246529411 2.1588447850952526 -12.533494541275271 114 38 19
0.34086815596063413 2.1334531622880286 -12.542345564223531 117 40 22
0.3648564783990569 2.1088048788227023 -12.55202564213595 118 41 23
0.34455855990145245 2.1282589928902977 -12.614972424295079 116 39 21
0.39944875527195123 2.0728394404497674 -12.58736645628405 118 41 23
0.40012173298958587 2.071408593392607 -12.625146657084516 116 39 21
0.4390602161980892 2.031877983203273 -12.616552117126451 115 38 20
0.47246952638109985 1.9978551944815113 -12.61452672471961 118 41 22
0.49886916072075227 1.9708129076463026 -12.62093625168153 119 41 19
0.5160302499263052 1.9529683193770007 -12.638584313398773 118 40 18
0.5574406348493586 1.9109877017766177 -12.626426462815694 126 48 26
0.5734868957122279 1.8942549241656588 -12.645333729699496 121 43 23
0.5955634764003452 1.8715208979434328 -12.65678298948183 123 45 24
0.616572854948064 1.8498498573997821 -12.669505016432751 130 52 30
0.689719459492319 1.7762998867492499 -12.617393635572743 123 44 22
0.7047851820879485 1.7605480656422854 -12.637252557607738 118 37 18
0.7357241482931602 1.7290036315869526 -12.637271802429481 117 36 17
0.7726805301454478 1.6914750233919555 -12.629634277828714 126 45 26
0.7884281916975029 1.6750475375927474 -12.648498288518851 116 35 15
0.814580132185414 1.6482709423545554 -12.654240518743807 124 43 22
0.8235402788410324 1.6385955506184473 -12.681635938572562 122 41 20
0.8510003844342648 1.610519877789935 -12.68561920609898 123 42 21
0.8793109737048121 1.5816002009391266 -12.688429915344134 121 40 19
0.9057551277448823 1.554538476709574 -12.693522805336338 124 43 22
0.9361187958289277 1.5235810471988036 -12.693518965433547 121 40 19
0.9598675283866616 1.4992029452914286 -12.70188479578039 127 48 27
0.9782558807915844 1.4801554568414854 -12.717079213647956 127 48 26
1.0082735913143663 1.4495473518586808 -12.717247815225125 131 49 27
1.0382055155829688 1.4190267372508623 -12.717415079667326 129 45 24
1.0718600622304955 1.384808092467308 -12.712641221510726 143 64 40
1.0811646199715463 1.3747940176478575 -12.739404332006732 145 66 44
1.1005899193523465 1.3547207354711608 -12.753004087094478 144 66 48
1.1955932676212973 1.254150588823716 -12.94115596179862 104 27 10
1.2174461764179982 1.2316680216695994 -12.951417457240558 85 15 4
1.2627835171933288 1.1858642504544457 -12.930097296866244 76 12 5
1.2536781749298251 1.1941277433605233 -12.98183981615104 69 12 5
1.3067421112554607 1.1406570480248028 -12.949826235847395 66 11 5
1.3264401984485552 1.1203200425800084 -12.962695476874377 69 14 7
1.3210761227457564 1.124865280024184 -13.009558587069797 76 27 13
1.3248764301898106 1.1203098303725323 -13.044097554116782 65 20 10
1.3263531191496458 1.1180592102635107 -13.081895167802697 62 25 16
1.3215941757544725 1.1219957834356769 -13.128337058449969 52 22 18
1.3681450927079917 1.0750051900742772 -13.104455534344595 44 16 9
1.3693460441797374 1.0730250604087024 -13.14279292088117 53 25 17
1.3716171447253638 1.0699808856143402 -13.179758861323432 34 11 7
1.3760344586021915 1.064805182809497 -13.213850356642116 29 11 10
1.3700147280557422 1.0699831923162861 -13.262524876032506 20 4 2
1.3672455558898369 1.0719330799283906 -13.30683600946062 17 3 3
1.4200207504113562 1.0187794083206327 -13.273674126738692 16 2 2
1.4167375483086486 1.0212380122224918 -13.318764841474994 17 3 3
1.4207703448534552 1.0164373369080852 -13.35371928294857 18 4 4
1.4254312758943666 1.0110119789033343 -13.387875384731341 15 3 2
1.4291177060862115 1.0065514092613217 -13.423491099146847 11 3 2
1.4293338584392883 1.0055302425641637 -13.464116295207264 11 5 4
1.4365319487624175 0.9975838781315618 -13.494935611795185 13 5 4
1.4447832692302747 0.9885920450697605 -13.52431617776957 14 5 4
1.4560431614415181 0.9766165133705496 -13.54944983908667 11 2 2
1.4557742708888135 0.9760688196501173 -13.591143247170185 13 4 3
