ply
format ascii 1.0
element vertex 844
property float x
property float y
property float z
property float nx
property float ny
property float nz
property uchar diffuse_red
property uchar diffuse_green
property uchar diffuse_blue
property uchar class
property uchar detection
end_header
4.6928 -0.9922 -15.2457 0.089 -0.932 0.351 55 18 12 0 0
4.7141 -1.0177 -15.2884 0.118 -0.946 0.303 49 17 13 0 0
4.7276 -1.0354 -15.3018 0.788 -0.549 0.277 47 16 13 0 0
4.8683 -1.0850 -16.6391 0.535 0.245 0.808 162 160 161 0 0
4.9393 -1.1783 -16.7066 0.599 -0.266 0.755 179 177 178 0 0
4.1408 -0.3013 -14.8147 0.657 0.058 0.751 109 57 43 0 0
4.9115 -1.1901 -16.6689 0.396 -0.514 0.761 177 175 176 0 0
4.9185 -1.1961 -16.7053 0.272 -0.172 0.947 180 178 179 0 0
4.9616 -1.2662 -16.6252 0.619 0.375 0.691 183 181 182 0 0
5.0768 -1.4188 -16.7233 0.826 -0.491 0.277 200 200 200 0 0
4.0906 -0.2781 -14.7921 0.779 -0.307 0.547 111 59 45 0 0
4.1111 -0.3073 -14.7897 0.852 -0.098 0.515 110 57 44 0 0
4.1263 -0.3277 -14.7999 0.657 0.058 0.751 109 57 43 0 0
4.4197 -0.7191 -15.0230 -0.388 -0.867 0.312 88 33 21 0 0
4.7893 -1.0612 -16.6956 0.241 0.186 0.952 158 157 159 0 0
4.8300 -1.1199 -16.6847 0.254 -0.210 0.944 168 166 167 0 0
4.8457 -1.1412 -16.6936 0.059 -0.682 0.729 170 169 169 0 0
4.9274 -1.2598 -16.6677 -0.132 -0.432 0.892 183 181 182 0 0
5.0504 -1.4259 -16.7415 0.579 -0.272 0.768 199 199 200 0 0
4.9153 -1.2925 -16.6391 0.798 -0.307 0.518 182 182 182 0 0
5.0133 -1.4272 -16.6753 0.846 -0.532 -0.037 196 196 198 0 0
4.6379 -0.9492 -16.6261 -0.231 -0.564 0.793 107 105 103 0 0
4.6534 -0.9700 -16.6363 -0.231 -0.564 0.793 117 115 114 0 0
4.6693 -0.9915 -16.6453 -0.125 -0.561 0.818 126 124 126 0 0
4.6878 -1.0175 -16.6462 -0.256 -0.495 0.831 135 133 136 0 0
4.7529 -1.1062 -16.6764 0.370 0.204 0.906 160 160 162 0 0
4.8966 -1.3135 -16.6316 0.784 -0.282 0.552 182 182 182 0 0
4.9953 -1.4492 -16.6658 0.956 -0.191 0.222 196 196 198 0 0
4.2735 -0.6501 -14.9987 -0.231 -0.794 0.563 68 23 13 0 0
4.5206 -0.8370 -16.5716 -0.590 -0.773 0.233 66 54 52 0 0
4.6419 -0.9983 -16.6636 -0.365 -0.346 0.864 129 127 130 0 0
4.6586 -1.0211 -16.6703 -0.332 -0.534 0.778 137 135 139 0 0
4.4906 -0.8340 -16.6534 -0.525 -0.831 0.183 80 74 73 0 0
4.0416 -0.4245 -14.8985 -0.315 -0.698 0.644 99 39 21 0 0
4.0741 -0.4733 -14.8666 0.603 -0.145 0.785 97 36 18 0 0
4.1019 -0.5143 -14.8459 0.682 -0.072 0.728 95 33 17 0 0
4.1078 -0.5193 -14.8790 0.397 0.384 0.834 90 31 16 0 0
4.1224 -0.5387 -14.8905 0.199 0.306 0.931 82 28 12 0 0
4.1960 -0.5880 -15.4377 0.622 -0.685 0.381 64 29 23 0 0
4.2581 -0.6712 -15.4769 0.336 0.240 0.911 60 23 17 0 0
4.3035 -0.7167 -15.6621 0.479 -0.819 0.316 44 15 13 0 0
4.3111 -0.7243 -15.6932 0.479 -0.819 0.316 42 15 13 0 0
4.4741 -0.8654 -16.5822 0.248 0.346 0.905 80 74 74 0 0
4.4554 -0.8282 -16.6936 -0.607 -0.716 0.345 85 79 79 0 0
4.5751 -0.9863 -16.7936 0.761 0.169 0.626 137 136 141 0 0
4.6847 -1.1501 -16.6899 0.436 -0.830 0.348 160 160 162 0 0
4.8260 -1.3460 -16.7131 0.342 0.345 0.874 187 187 189 0 0
4.9251 -1.4930 -16.6310 -0.296 0.020 0.955 193 193 195 0 0
5.0419 -1.6537 -16.6625 0.129 -0.944 0.305 200 200 202 0 0
3.4009 0.4940 -15.5932 0.588 0.233 0.774 190 194 197 0 0
3.9779 -0.3704 -15.0032 0.149 -0.071 0.986 93 32 14 0 0
4.0047 -0.4096 -14.9858 -0.092 -0.135 0.987 89 30 13 0 0
4.0234 -0.4356 -14.9878 -0.115 0.005 0.993 83 26 12 0 0
4.0440 -0.4646 -14.9853 -0.115 0.005 0.993 74 25 14 0 0
4.1076 -0.5641 -14.8768 0.100 0.350 0.931 65 24 14 0 0
4.1758 -0.6056 -15.4361 0.532 -0.571 0.625 67 30 24 0 0
4.2948 -0.7437 -15.7324 0.586 -0.757 0.290 41 16 13 0 0
4.4968 -0.9298 -16.7346 0.520 -0.203 0.830 107 106 108 0 0
4.6142 -1.0950 -16.7250 0.465 -0.501 0.729 151 151 153 0 0
4.7896 -1.3481 -16.6453 -0.450 -0.123 0.884 178 178 180 0 0
3.7969 -0.1584 -15.0534 -0.804 -0.342 0.486 98 45 31 0 0
4.0375 -0.4996 -14.9985 -0.036 0.005 0.999 42 18 16 0 0
4.1217 -0.5773 -15.4216 0.652 -0.701 0.290 61 21 16 0 0
4.2440 -0.7306 -15.6070 0.349 -0.586 0.731 52 19 15 0 0
4.2817 -0.7684 -15.7631 0.949 -0.014 0.315 41 17 15 0 0
4.2985 -0.7865 -15.8214 0.763 0.496 0.415 31 13 13 0 0
4.3149 -0.8087 -15.8290 0.785 0.483 0.388 19 5 5 0 0
4.3465 -0.8511 -15.8473 0.855 0.445 0.268 17 7 6 0 0
4.3649 -0.8766 -15.8491 0.824 0.485 0.292 17 7 6 0 0
4.4566 -0.9265 -16.6765 0.729 -0.204 0.654 93 90 90 0 0
4.4720 -0.9471 -16.6875 0.674 -0.380 0.634 98 96 96 0 0
4.4818 -0.9580 -16.7154 0.731 -0.517 0.445 105 104 104 0 0
4.4914 -0.9688 -16.7437 0.731 -0.517 0.445 112 110 111 0 0
4.5003 -0.9785 -16.7740 0.636 -0.337 0.694 121 120 120 0 0
4.5439 -1.0354 -16.8153 0.870 -0.430 0.241 143 143 145 0 0
4.5643 -1.0588 -16.8690 0.874 -0.042 0.484 153 153 155 0 0
3.3200 0.5048 -15.5313 -0.156 -0.945 0.287 188 189 193 0 0
3.3490 0.4672 -15.5625 -0.377 -0.752 0.540 187 188 192 0 0
4.3223 -0.8721 -15.7522 0.838 0.381 0.390 22 9 7 0 0
4.4584 -1.0627 -15.7426 0.830 -0.079 0.552 19 11 11 0 0
4.4278 -0.9626 -16.3638 0.970 0.233 0.073 73 70 69 0 0
4.3827 -0.8724 -16.6603 0.162 -0.167 0.972 82 76 76 0 0
4.4114 -0.9096 -16.6894 0.326 -0.856 0.401 89 83 84 0 0
4.4634 -0.9754 -16.7628 0.501 -0.050 0.864 111 109 109 0 0
4.4930 -1.0143 -16.7886 0.576 -0.124 0.808 127 127 129 0 0
4.5004 -1.0212 -16.8240 0.894 -0.189 0.407 135 135 137 0 0
4.5101 -1.0322 -16.8522 0.898 -0.188 0.399 142 142 144 0 0
4.8708 -1.5527 -16.6619 -0.047 -0.289 0.956 191 191 193 0 0
4.1665 -0.7149 -15.5993 0.441 -0.408 0.799 65 25 17 0 0
4.1814 -0.7345 -15.6111 0.327 -0.524 0.786 58 21 14 0 0
4.1944 -0.7512 -15.6276 0.327 -0.524 0.786 52 20 14 0 0
4.2064 -0.7661 -15.6469 0.286 -0.548 0.786 46 18 14 0 0
4.2822 -0.8667 -15.7009 0.741 0.422 0.523 24 9 6 0 0
4.3838 -0.9273 -16.5947 0.409 -0.871 0.274 80 75 73 0 0
4.4817 -1.0487 -16.7582 0.540 -0.499 0.678 125 125 127 0 0
4.5188 -1.1000 -16.7616 0.640 -0.259 0.723 140 140 142 0 0
4.5321 -1.1169 -16.7788 0.733 -0.363 0.575 145 145 147 0 0
4.8512 -1.5718 -16.6577 -0.300 -0.069 0.952 191 191 193 0 0
4.8584 -1.5787 -16.6927 0.328 0.169 0.929 191 192 194 0 0
2.3772 1.7213 -15.5709 0.436 0.276 0.857 198 198 200 0 0
3.0804 0.7586 -15.7253 0.747 0.301 0.593 186 187 191 0 0
3.1723 0.6258 -15.6669 -0.031 0.509 0.860 175 176 180 0 0
4.1352 -0.7193 -15.5759 0.032 -0.347 0.937 60 19 13 0 0
4.1477 -0.7351 -15.5937 0.389 -0.558 0.732 54 19 13 0 0
4.1663 -0.7608 -15.5957 0.013 -0.405 0.914 49 18 13 0 0
4.2734 -0.9031 -15.6685 0.572 0.497 0.653 22 11 8 0 0
4.3163 -0.9637 -15.6561 0.615 0.466 0.636 21 10 9 0 0
4.3704 -0.9431 -16.7390 0.354 -0.857 0.374 89 84 83 0 0
4.7052 -1.4212 -16.5883 0.059 -0.859 0.509 171 171 173 0 0
4.8276 -1.5843 -16.6660 -0.088 0.021 0.996 191 191 193 0 0
4.8409 -1.6013 -16.6820 0.021 -0.007 1.000 189 190 192 0 0
3.0921 0.6869 -15.6499 0.514 0.450 0.730 128 130 135 0 0
3.1336 0.6340 -15.7034 -0.377 0.130 0.917 77 78 83 0 0
3.2560 0.4659 -15.7209 0.650 -0.375 0.661 41 41 44 0 0
4.0124 -0.6025 -15.4867 -0.132 -0.975 0.180 77 31 22 0 0
4.0188 -0.6086 -15.5201 -0.249 -0.785 0.567 73 30 20 0 0
4.0284 -0.6197 -15.5455 -0.260 -0.208 0.943 71 28 18 0 0
4.2327 -0.8964 -15.6197 0.174 0.011 0.985 24 11 11 0 0
4.2508 -0.9211 -15.6226 0.174 0.011 0.985 23 11 11 0 0
4.2684 -0.9452 -15.6266 0.223 -0.050 0.974 20 8 7 0 0
4.2886 -0.9735 -15.6235 0.008 -0.101 0.995 18 8 7 0 0
4.3075 -0.9997 -15.6239 0.021 -0.057 0.998 21 14 12 0 0
4.3491 -0.9609 -16.7382 -0.019 -0.898 0.439 86 81 81 0 0
4.7738 -1.5618 -16.5964 0.821 0.142 0.552 183 183 185 0 0
4.7910 -1.5852 -16.6002 0.428 0.335 0.839 184 185 187 0 0
4.8068 -1.6064 -16.6082 0.384 0.040 0.922 185 186 188 0 0
4.9527 -1.8239 -16.4332 -0.068 -0.532 0.844 192 192 194 0 0
4.9627 -1.8052 -16.8075 0.975 0.185 0.120 200 200 202 0 0
2.2227 1.8441 -15.6893 0.111 0.615 0.780 196 197 199 0 0
2.3910 1.5991 -15.5452 0.536 -0.019 0.844 174 175 179 0 0
2.7149 1.1634 -15.6904 0.275 -0.498 0.822 47 50 55 0 0
3.1261 0.5972 -15.7191 -0.242 0.097 0.965 50 50 56 0 0
3.4309 0.1665 -15.6112 0.449 0.694 0.563 80 38 29 0 0
4.0326 -0.6640 -15.6314 -0.100 -0.688 0.719 52 18 11 0 0
4.0758 -0.7205 -15.6712 0.037 -0.848 0.528 41 15 12 0 0
4.2312 -0.9397 -15.6194 -0.137 -0.188 0.973 18 9 12 0 0
4.2495 -0.9648 -15.6217 -0.137 -0.188 0.973 23 16 18 0 0
4.2687 -0.9914 -15.6215 -0.301 -0.274 0.913 37 32 34 0 0
4.2872 -1.0169 -15.6228 -0.287 -0.131 0.949 44 42 43 0 0
4.4100 -1.1803 -15.6999 0.362 -0.828 0.428 38 39 42 0 0
4.7763 -1.6076 -16.6379 0.225 0.171 0.959 184 185 187 0 0
4.9248 -1.8234 -16.5138 0.613 0.234 0.755 192 192 194 0 0
4.9967 -1.8983 -16.8048 0.651 0.477 0.590 202 202 204 0 0
5.1680 -2.1584 -16.5302 -0.569 0.044 0.821 206 206 206 0 0
2.4273 1.5164 -15.7575 -0.261 -0.077 0.962 67 69 74 0 0
2.7070 1.1261 -15.7070 0.007 -0.272 0.962 36 37 43 0 0
2.9564 0.7815 -15.7037 0.043 -0.773 0.633 62 62 67 0 0
3.3897 0.1675 -15.5103 0.979 0.176 -0.102 15 12 14 0 0
3.9883 -0.6481 -15.6403 -0.141 -0.085 0.986 44 18 12 0 0
4.0364 -0.7122 -15.6680 0.165 -0.705 0.690 41 14 13 0 0
4.0493 -0.7285 -15.6854 0.041 -0.774 0.632 37 15 14 0 0
4.2083 -0.9531 -15.6248 -0.256 -0.500 0.828 41 36 42 0 0
4.2398 -0.9949 -15.6431 -0.374 -0.572 0.730 54 52 58 0 0
4.3448 -1.1421 -15.6164 -0.104 -0.354 0.929 49 49 57 0 0
4.4180 -1.2214 -15.8803 0.495 -0.366 0.788 50 49 54 0 0
2.3835 1.5105 -15.5620 0.620 -0.204 0.758 57 60 65 0 0
2.4009 1.5028 -15.7637 0.289 0.154 0.945 37 40 45 0 0
3.5119 -0.0592 -15.3721 0.642 -0.712 -0.286 48 24 21 0 0
3.5085 -0.0501 -15.4278 0.602 -0.752 -0.270 45 18 15 0 0
3.9979 -0.7054 -15.6625 -0.107 -0.486 0.867 33 12 9 0 0
4.0125 -0.7244 -15.6754 0.693 -0.375 0.615 37 18 18 0 0
4.1653 -0.9384 -15.6328 -0.320 -0.499 0.805 49 47 52 0 0
4.2611 -1.0662 -15.6837 -0.170 -0.575 0.800 13 12 17 0 0
4.2814 -1.0945 -15.6803 0.187 -0.377 0.907 31 30 36 0 0
4.7185 -1.6201 -16.6301 0.078 0.185 0.980 177 178 180 0 0
4.8433 -1.7866 -16.6982 0.875 -0.372 0.309 190 190 192 0 0
3.4728 -0.0413 -15.5088 0.605 -0.727 -0.324 74 59 58 0 0
4.1525 -0.9677 -15.6118 0.050 0.057 0.997 21 20 23 0 0
4.2277 -1.0669 -15.6664 0.087 -0.297 0.951 7 5 9 0 0
4.2437 -1.0883 -15.6746 0.087 -0.297 0.951 6 4 7 0 0
4.3791 -1.2588 -15.8732 0.479 -0.061 0.876 49 50 52 0 0
4.6587 -1.6310 -16.0292 0.275 -0.207 0.939 123 121 122 0 0
4.7111 -1.7109 -15.9289 -0.533 -0.506 0.678 129 127 128 0 0
4.7180 -1.7178 -15.9621 -0.398 -0.370 0.840 133 132 132 0 0
4.8113 -1.7854 -16.7333 0.617 -0.630 0.473 188 188 190 0 0
4.8226 -1.7992 -16.7553 0.740 -0.447 0.503 189 189 191 0 0
4.8305 -1.8075 -16.7882 0.625 -0.764 0.161 191 191 193 0 0
2.9602 0.6256 -15.6454 0.551 -0.697 0.459 49 50 55 0 0
2.9668 0.6193 -15.6793 0.279 -0.437 0.855 54 55 59 0 0
3.4364 -0.0356 -15.5429 0.515 -0.794 -0.324 157 155 155 0 0
3.4262 -0.0161 -15.6148 0.502 -0.815 -0.290 146 144 145 0 0
3.4169 0.0021 -15.6851 -0.578 -0.815 0.041 128 124 124 0 0
3.4227 -0.0031 -15.7206 -0.562 -0.827 0.029 111 106 105 0 0
3.9822 -0.7729 -15.6953 0.109 0.385 0.917 141 128 127 0 0
4.2092 -1.0870 -15.6606 0.289 -0.111 0.951 5 3 6 0 0
4.2214 -1.1024 -15.6787 0.174 -0.255 0.951 5 3 6 0 0
4.2353 -1.1204 -15.6925 0.029 -0.214 0.976 6 4 7 0 0
4.3135 -1.2360 -15.5853 0.014 0.238 0.971 54 53 59 0 0
4.3466 -1.2608 -15.8538 0.495 -0.366 0.788 49 50 52 0 0
4.6169 -1.6176 -16.0379 0.298 0.244 0.923 115 113 115 0 0
4.6384 -1.6478 -16.0287 0.259 -0.256 0.931 124 122 124 0 0
4.6730 -1.6989 -15.9809 -0.295 -0.337 0.894 127 125 127 0 0
3.4052 -0.0345 -15.6131 0.688 -0.671 -0.277 159 158 163 0 0
4.1655 -1.0790 -15.5700 0.327 -0.674 0.662 4 2 3 0 0
4.1898 -1.1058 -15.6569 0.289 -0.111 0.951 4 2 5 0 0
4.2010 -1.1195 -15.6780 0.176 -0.195 0.965 4 2 5 0 0
4.3282 -1.2772 -15.8991 0.126 -0.813 0.569 48 49 51 0 0
4.6003 -1.6403 -16.0265 0.298 0.244 0.923 90 88 92 0 0
4.6159 -1.6611 -16.0345 0.183 -0.203 0.962 80 78 83 0 0
4.6445 -1.6985 -16.0581 0.880 0.122 0.458 88 87 90 0 0
4.6919 -1.7163 -16.6886 0.418 0.365 0.832 174 175 177 0 0
2.5934 1.0177 -15.4702 -0.689 0.060 0.722 41 42 49 0 0
2.7799 0.7723 -15.6013 0.126 0.173 0.977 41 40 44 0 0
3.0735 0.3701 -15.5886 -0.366 -0.106 0.924 43 44 49 0 0
3.4187 -0.1094 -15.4839 0.743 -0.559 -0.368 61 61 65 0 0
3.4789 -0.1737 -15.7318 0.919 0.382 0.102 143 146 146 0 0
4.1541 -1.1064 -15.5957 0.713 -0.596 0.369 4 1 3 0 0
4.1643 -1.1150 -15.6694 0.248 -0.521 0.817 7 4 6 0 0
4.1780 -1.1327 -15.6837 0.084 -0.378 0.922 5 3 4 0 0
4.1922 -1.1511 -15.6969 -0.224 -0.220 0.949 5 2 4 0 0
4.5828 -1.6617 -16.0176 0.217 0.226 0.950 27 26 31 0 0
4.5949 -1.6768 -16.0360 0.098 -0.198 0.975 34 32 37 0 0
4.6805 -1.7485 -16.6592 0.609 0.416 0.675 168 169 170 0 0
4.8862 -2.0266 -16.7006 0.734 -0.411 0.541 195 196 198 0 0
4.9005 -2.0453 -16.7126 0.721 -0.410 0.559 197 198 200 0 0
2.2519 1.4335 -15.4539 -0.498 0.234 0.835 42 42 50 0 0
2.7689 0.7370 -15.5769 -0.438 -0.257 0.861 40 40 42 0 0
2.7743 0.7322 -15.6128 -0.262 -0.014 0.965 40 39 45 0 0
3.0517 0.3521 -15.5879 -0.339 -0.253 0.906 42 42 45 0 0
3.5035 -0.2618 -15.6232 0.919 0.382 0.102 141 142 142 0 0
4.3102 -1.3688 -15.5308 0.991 -0.076 0.113 91 91 96 0 0
4.5731 -1.6913 -16.0397 0.012 -0.269 0.963 52 52 57 0 0
4.8424 -2.0148 -16.6593 0.634 -0.594 0.495 190 191 193 0 0
2.7451 0.7211 -15.5796 -0.421 0.037 0.906 38 38 40 0 0
2.7565 0.7073 -15.6030 -0.120 0.073 0.990 39 38 42 0 0
2.8962 0.5163 -15.5909 0.816 -0.386 0.430 67 66 72 0 0
3.0236 0.3435 -15.6008 -0.339 -0.253 0.906 40 40 43 0 0
4.1093 -1.1446 -15.4560 0.935 0.196 0.295 82 39 16 0 0
4.5683 -1.7288 -16.0474 0.222 -0.313 0.923 55 56 61 0 0
2.1093 1.5377 -15.5936 -0.394 0.237 0.888 72 76 78 0 0
2.7323 0.6920 -15.6065 -0.135 0.063 0.989 39 39 41 0 0
4.0933 -1.1516 -15.6919 0.542 -0.781 0.310 13 3 4 0 0
4.1085 -1.1715 -15.7025 0.137 -0.589 0.797 13 3 4 0 0
4.1199 -1.1856 -15.7230 -0.160 -0.120 0.980 12 3 4 0 0
4.6205 -1.8333 -16.2101 0.889 -0.446 -0.107 61 60 65 0 0
4.6173 -1.8245 -16.2739 0.889 -0.446 -0.107 89 88 90 0 0
4.7911 -2.0367 -16.6331 0.366 -0.303 0.880 183 183 185 0 0
4.7983 -2.0403 -16.7247 0.210 -0.661 0.720 189 190 192 0 0
2.7298 0.6474 -15.6117 -0.310 -0.377 0.873 38 38 39 0 0
2.8621 0.4713 -15.6630 0.836 0.049 0.546 60 59 64 0 0
4.0921 -1.2014 -15.5914 0.514 -0.396 0.761 11 5 2 0 0
4.0977 -1.2002 -15.7265 0.066 -0.220 0.973 12 3 4 0 0
4.2729 -1.4184 -16.0253 -0.034 -0.749 0.662 47 46 52 0 0
4.4353 -1.6407 -15.9926 0.015 -0.270 0.963 52 52 57 0 0
4.4631 -1.6766 -16.0192 0.354 0.034 0.934 55 54 60 0 0
4.4891 -1.7099 -16.0507 -0.012 -0.142 0.990 53 52 58 0 0
4.5267 -1.7610 -16.0489 0.551 -0.078 0.831 52 51 57 0 0
4.6137 -1.8426 -16.6078 0.303 0.427 0.852 144 142 142 0 0
4.8474 -2.1589 -16.6184 0.287 -0.014 0.958 194 195 197 0 0
3.5487 -0.5096 -15.6057 -0.170 -0.063 0.983 64 63 68 0 0
4.0699 -1.2126 -15.6449 0.628 -0.318 0.710 12 3 3 0 0
4.6264 -1.9320 -16.1796 0.873 -0.483 -0.061 81 81 83 0 0
4.6315 -1.9262 -16.3815 0.034 -0.901 0.433 135 134 132 0 0
4.5810 -1.8341 -16.7554 0.205 -0.031 0.978 144 142 143 0 0
4.5857 -1.8378 -16.7976 -0.008 -0.297 0.955 148 147 147 0 0
4.7721 -2.0942 -16.7333 0.441 -0.691 0.573 190 190 192 0 0
4.8304 -2.1811 -16.6071 0.399 -0.092 0.912 195 195 197 0 0
4.8457 -2.2012 -16.6158 0.399 -0.092 0.912 194 195 197 0 0
2.0651 1.4475 -15.5903 0.982 -0.094 0.166 126 127 129 0 0
3.5316 -0.5331 -15.5955 -0.226 -0.174 0.958 75 72 76 0 0
3.8135 -0.9286 -15.3555 0.267 0.085 0.960 128 51 22 0 0
3.8300 -0.9503 -15.3635 0.133 -0.210 0.969 127 46 21 0 0
4.1493 -1.3651 -15.6343 0.030 -0.137 0.990 32 30 31 0 0
4.3563 -1.6196 -16.0456 0.393 -0.553 0.735 67 68 73 0 0
4.3686 -1.6350 -16.0637 0.393 -0.553 0.735 51 50 56 0 0
4.3906 -1.6653 -16.0545 0.072 -0.330 0.941 53 52 58 0 0
4.8081 -2.1916 -16.6692 0.316 -0.254 0.914 194 195 197 0 0
4.8226 -2.2071 -16.7372 0.211 -0.042 0.977 198 199 201 0 0
3.4677 -0.4898 -15.6467 -0.471 -0.131 0.872 53 48 50 0 0
3.7621 -0.9053 -15.3337 0.224 0.234 0.946 122 51 30 0 0
3.7815 -0.9314 -15.3347 0.200 0.040 0.979 126 50 26 0 0
3.7983 -0.9536 -15.3419 0.230 -0.109 0.967 125 46 24 0 0
3.8149 -0.9755 -15.3495 0.253 -0.232 0.939 127 50 26 0 0
4.0432 -1.2739 -15.5087 0.624 -0.470 0.624 41 12 7 0 0
4.1066 -1.3543 -15.5925 0.386 -0.343 0.856 11 2 3 0 0
4.4026 -1.7252 -16.0677 0.235 -0.143 0.961 51 50 56 0 0
4.6017 -1.9802 -16.2933 -0.031 -0.377 0.926 115 113 110 0 0
4.5738 -1.9148 -16.7623 0.124 -0.189 0.974 144 143 142 0 0
4.7535 -2.1630 -16.6620 0.459 -0.473 0.752 188 188 189 0 0
4.7830 -2.2015 -16.6831 0.306 -0.234 0.923 193 194 196 0 0
4.8260 -2.2574 -16.7182 0.303 -0.743 0.596 198 199 201 0 0
4.8391 -2.2741 -16.7339 0.040 -0.577 0.816 200 201 203 0 0
4.8466 -2.2823 -16.7671 0.349 -0.587 0.730 201 202 204 0 0
3.5427 -0.6442 -15.5173 -0.393 -0.741 0.545 32 27 31 0 0
3.5621 -0.6701 -15.5197 -0.205 0.521 0.829 14 7 10 0 0
3.7620 -0.9499 -15.3316 0.502 -0.209 0.840 130 53 27 0 0
3.7733 -0.9640 -15.3520 0.546 -0.552 0.630 127 50 26 0 0
3.7845 -0.9779 -15.3727 0.478 -0.603 0.639 123 46 22 0 0
4.0121 -1.2803 -15.4379 0.548 -0.492 0.676 81 20 6 0 0
4.0263 -1.2987 -15.4507 0.627 -0.268 0.731 84 40 24 0 0
4.0874 -1.3729 -15.5889 0.437 -0.306 0.846 13 3 4 0 0
4.4314 -1.8103 -16.0337 0.048 0.064 0.997 47 48 53 0 0
4.5137 -1.9253 -15.9577 0.150 -0.167 0.975 48 49 54 0 0
4.5976 -2.0370 -15.9790 -0.175 -0.936 0.304 23 20 27 0 0
4.5982 -2.0227 -16.2429 0.220 -0.326 0.919 103 101 99 0 0
4.5500 -1.9308 -16.7148 0.286 -0.061 0.956 134 130 128 0 0
4.5662 -1.9521 -16.7221 0.522 -0.164 0.837 140 139 137 0 0
4.5808 -1.9710 -16.7340 0.628 -0.320 0.710 148 147 145 0 0
4.7401 -2.1941 -16.5833 0.650 0.100 0.753 180 179 180 0 0
4.7552 -2.2138 -16.5927 0.655 -0.036 0.754 185 185 186 0 0
4.7747 -2.2338 -16.7010 0.302 -0.516 0.802 194 195 197 0 0
4.8035 -2.2713 -16.7240 0.303 -0.743 0.596 199 199 201 0 0
3.5127 -0.6482 -15.5379 -0.405 -0.857 0.319 20 16 17 0 0
3.5580 -0.7123 -15.4796 -0.113 0.568 0.815 15 7 8 0 0
3.7379 -0.9616 -15.3395 0.254 -0.264 0.930 128 52 21 0 0
3.7515 -0.9790 -15.3545 0.376 -0.271 0.886 128 52 24 0 0
3.7616 -0.9913 -15.3778 0.400 0.052 0.915 125 48 21 0 0
4.1580 -1.5113 -15.5999 0.837 -0.159 0.523 11 3 3 0 0
4.3968 -1.8086 -16.0210 0.446 0.158 0.881 42 43 48 0 0
4.4138 -1.8311 -16.0256 0.446 0.158 0.881 42 43 48 0 0
4.4307 -1.8537 -16.0301 0.446 0.158 0.881 46 47 52 0 0
4.4956 -1.9452 -15.9512 0.188 -0.784 0.592 46 47 52 0 0
4.5717 -2.0449 -15.9953 -0.161 -0.824 0.544 28 26 33 0 0
4.5817 -2.0571 -16.0188 0.905 -0.426 -0.021 38 36 41 0 0
4.5777 -2.0392 -16.2432 0.391 -0.814 0.429 90 89 88 0 0
3.6644 -0.9061 -15.3697 0.205 -0.161 0.965 139 81 51 0 0
3.6982 -0.9506 -15.3843 0.205 -0.161 0.965 133 59 24 0 0
3.7151 -0.9728 -15.3916 0.205 -0.161 0.965 136 61 24 0 0
4.0248 -1.3770 -15.5942 0.499 -0.592 0.633 16 5 2 0 0
4.1199 -1.5044 -15.5961 0.498 -0.170 0.850 13 3 4 0 0
4.1355 -1.5248 -15.6049 0.524 -0.216 0.824 10 2 3 0 0
4.1463 -1.5381 -15.6264 0.478 -0.576 0.662 8 2 2 0 0
4.1521 -1.5440 -15.6609 0.593 -0.725 0.351 7 3 2 0 0
4.1456 -1.5291 -15.7777 0.099 -0.759 0.643 8 2 2 0 0
4.1552 -1.5406 -15.8027 0.673 -0.722 0.160 8 2 4 0 0
4.5497 -2.0587 -16.0001 -0.152 -0.469 0.870 31 28 35 0 0
4.5155 -1.9728 -16.7482 -0.062 -0.535 0.843 130 129 127 0 0
4.5304 -1.9922 -16.7594 -0.062 -0.535 0.843 140 139 137 0 0
4.6486 -2.1547 -16.6813 0.817 -0.241 0.524 170 170 172 0 0
4.7561 -2.2985 -16.6867 0.304 -0.682 0.665 196 196 198 0 0
4.7694 -2.3155 -16.7017 0.104 -0.465 0.879 199 199 201 0 0
4.8055 -2.3640 -16.7013 0.089 -0.512 0.854 203 203 205 0 0
4.0151 -1.4071 -15.6154 0.538 -0.234 0.810 19 5 2 0 0
4.0478 -1.4476 -15.6794 0.058 -0.654 0.754 18 6 6 0 0
4.0488 -1.4464 -15.7266 -0.283 -0.528 0.801 15 4 4 0 0
4.0644 -1.4668 -15.7359 -0.346 -0.363 0.865 10 2 2 0 0
4.3387 -1.8193 -16.0162 0.197 -0.305 0.932 10 7 12 0 0
4.5406 -2.0556 -16.6663 0.119 0.184 0.976 137 134 132 0 0
4.5728 -2.0979 -16.6807 0.666 -0.658 0.351 152 152 153 0 0
4.6290 -2.1734 -16.6776 0.654 -0.281 0.702 170 170 171 0 0
4.6415 -2.1891 -16.6955 0.654 -0.281 0.702 176 175 177 0 0
4.7989 -2.3986 -16.7142 0.681 0.240 0.692 202 202 204 0 0
4.0742 -1.5207 -15.8062 0.372 -0.914 0.161 9 3 3 0 0
4.0788 -1.5224 -15.8945 0.269 -0.908 0.321 10 4 4 0 0
4.3184 -1.8362 -16.0154 0.341 -0.127 0.931 12 11 16 0 0
4.4257 -1.9815 -15.9757 -0.057 -0.269 0.961 44 45 50 0 0
4.6093 -2.1916 -16.6745 0.519 -0.336 0.786 167 167 169 0 0
4.7327 -2.3586 -16.6313 0.083 -0.229 0.970 195 196 198 0 0
3.9908 -1.4579 -15.7194 0.788 -0.444 0.426 16 4 4 0 0
4.0017 -1.4714 -15.7410 0.491 -0.442 0.751 17 6 6 0 0
4.0143 -1.4873 -15.7583 0.461 -0.305 0.834 14 5 6 0 0
4.0240 -1.4991 -15.7828 0.438 -0.145 0.887 8 1 1 0 0
4.0392 -1.5188 -15.7935 0.438 -0.145 0.887 8 2 2 0 0
4.0416 -1.5199 -15.8372 0.754 -0.396 0.524 9 3 3 0 0
4.4059 -1.9988 -15.9741 0.379 -0.214 0.900 49 49 54 0 0
4.4997 -2.1215 -16.0209 0.746 -0.660 -0.087 22 19 26 0 0
4.5912 -2.2124 -16.6665 0.534 -0.479 0.696 164 164 164 0 0
4.6031 -2.2273 -16.6859 0.534 -0.479 0.696 171 171 173 0 0
4.7460 -2.4174 -16.6942 0.294 -0.445 0.846 199 199 201 0 0
4.7530 -2.4250 -16.7288 0.421 -0.356 0.834 201 201 203 0 0
3.9558 -1.4583 -15.6575 0.849 -0.505 0.157 18 3 3 0 0
3.9616 -1.4645 -15.6918 0.870 -0.487 0.075 17 4 3 0 0
3.9735 -1.4794 -15.7108 0.862 -0.396 0.317 15 3 4 0 0
3.9777 -1.4833 -15.7493 0.803 -0.005 0.596 14 3 3 0 0
4.0242 -1.5414 -15.8284 0.754 -0.396 0.524 9 3 3 0 0
4.3819 -2.0099 -15.9842 0.420 -0.433 0.797 44 45 50 0 0
4.3940 -2.0252 -16.0020 0.653 -0.464 0.599 44 44 49 0 0
4.5307 -2.1785 -16.6198 0.606 -0.589 0.534 146 146 144 0 0
4.5634 -2.2189 -16.6874 0.647 -0.613 0.453 163 163 163 0 0
4.5677 -2.2227 -16.7299 0.670 -0.646 0.366 170 170 171 0 0
4.6934 -2.3920 -16.6813 -0.166 -0.821 0.547 195 196 198 0 0
4.7056 -2.4074 -16.6996 -0.106 -0.683 0.722 199 199 201 0 0
3.9342 -1.4737 -15.6597 0.950 -0.312 0.036 22 6 6 0 0
3.9459 -1.4883 -15.6792 0.771 -0.636 0.039 21 6 7 0 0
3.9571 -1.5023 -15.6997 0.804 -0.511 0.305 20 7 7 0 0
3.9641 -1.5102 -15.7312 0.803 -0.005 0.596 18 7 6 0 0
3.9714 -1.5185 -15.7620 0.819 -0.124 0.560 17 7 6 0 0
3.9836 -1.5339 -15.7801 0.807 -0.029 0.590 26 16 17 0 0
4.0007 -1.5563 -15.7858 0.165 -0.444 0.881 26 17 18 0 0
4.1165 -1.6990 -16.0354 -0.013 -0.474 0.880 29 30 35 0 0
4.1435 -1.7358 -16.0143 0.424 -0.029 0.905 29 30 35 0 0
4.4776 -2.1789 -16.0202 0.756 -0.013 0.654 35 35 34 0 0
4.4904 -2.1952 -16.0359 0.745 -0.064 0.663 50 51 50 0 0
4.4679 -2.1532 -16.3107 0.125 -0.560 0.819 85 84 80 0 0
4.4493 -2.1238 -16.4179 -0.584 -0.206 0.785 88 87 82 0 0
4.4076 -2.0559 -16.7016 0.790 -0.550 -0.270 107 103 99 0 0
4.5463 -2.2386 -16.7317 0.545 -0.804 0.239 167 167 167 0 0
4.6906 -2.4323 -16.6825 -0.421 -0.361 0.832 196 197 199 0 0
2.5439 0.2579 -14.1024 -0.229 -0.344 0.910 185 181 186 0 0
3.8676 -1.4488 -15.2000 0.909 0.301 0.289 100 48 24 0 0
3.8785 -1.4625 -15.2202 0.909 0.301 0.289 88 32 13 0 0
3.9282 -1.5092 -15.6716 0.771 -0.636 0.039 28 10 9 0 0
3.9385 -1.5219 -15.6944 0.657 -0.688 0.308 28 12 9 0 0
3.9435 -1.5269 -15.7310 0.554 -0.484 0.677 26 12 10 0 0
3.9542 -1.5402 -15.7528 0.407 -0.669 0.622 21 10 9 0 0
4.1257 -1.7566 -16.0066 0.424 -0.029 0.905 26 27 32 0 0
4.1414 -1.7771 -16.0154 0.334 -0.198 0.922 31 32 37 0 0
4.4777 -2.2225 -16.0145 0.618 0.284 0.733 45 46 45 0 0
4.4708 -2.1856 -16.6738 0.212 -0.509 0.834 140 139 137 0 0
2.3060 0.5289 -14.1267 0.491 0.448 0.747 173 148 144 0 0
2.3382 0.4856 -14.1099 0.603 0.452 0.658 172 147 144 0 0
2.3609 0.4556 -14.1102 0.603 0.452 0.658 169 144 141 0 0
2.3818 0.4281 -14.1133 0.679 0.490 0.547 160 134 131 0 0
2.4037 0.3991 -14.1146 0.679 0.490 0.547 158 132 128 0 0
4.3134 -2.0490 -16.0039 0.029 -0.781 0.624 37 38 43 0 0
4.4698 -2.2287 -16.6703 0.738 -0.429 0.521 146 145 143 0 0
4.6833 -2.5147 -16.5790 0.018 -0.387 0.922 196 197 199 0 0
2.2722 0.5260 -14.0674 0.575 0.368 0.731 129 78 59 0 0
3.6204 -1.2555 -13.9956 0.323 0.334 0.886 143 78 44 0 0
3.9122 -1.5894 -15.3211 0.894 -0.431 0.128 48 17 12 0 0
4.1470 -1.8734 -15.9915 0.631 -0.267 0.728 29 29 35 0 0
4.3810 -2.1890 -15.8132 0.820 -0.070 0.568 36 37 42 0 0
4.4453 -2.2670 -15.9914 0.238 -0.164 0.957 38 39 41 0 0
4.4518 -2.2496 -16.6620 0.738 -0.429 0.521 144 144 144 0 0
4.6916 -2.5684 -16.6012 0.012 0.488 0.873 198 199 201 0 0
4.7518 -2.6485 -16.5819 0.489 0.003 0.872 204 204 206 0 0
3.8943 -1.6127 -15.2212 0.837 -0.519 0.174 60 20 13 0 0
3.9852 -1.7268 -15.3747 0.194 -0.364 0.911 23 9 7 0 0
4.0000 -1.7458 -15.3854 0.194 -0.364 0.911 21 8 7 0 0
4.0147 -1.7648 -15.3962 0.194 -0.364 0.911 20 10 9 0 0
4.0282 -1.7820 -15.4102 0.275 -0.239 0.931 20 10 10 0 0
4.0424 -1.8003 -15.4222 0.346 -0.079 0.935 20 10 10 0 0
4.0583 -1.8210 -15.4299 0.346 -0.079 0.935 19 10 9 0 0
2.8172 -0.2837 -13.9672 0.771 0.498 0.398 122 61 40 0 0
3.1061 -0.6644 -13.9385 0.521 0.418 0.745 121 48 30 0 0
3.5931 -1.3034 -13.9701 0.417 0.165 0.894 106 38 21 0 0
3.7403 -1.4933 -14.0699 0.630 -0.591 0.504 134 64 32 0 0
3.7759 -1.5369 -14.1602 0.116 -0.654 0.748 126 57 31 0 0
3.8122 -1.5830 -14.2067 0.251 -0.122 0.960 106 48 31 0 0
3.8282 -1.6038 -14.2135 0.251 -0.122 0.960 107 51 34 0 0
3.8797 -1.6590 -14.5729 0.669 -0.743 0.006 94 58 45 0 0
3.8810 -1.6592 -14.6141 0.644 -0.761 0.072 92 56 42 0 0
3.8829 -1.6603 -14.6540 0.620 -0.780 0.083 93 57 44 0 0
3.8855 -1.6624 -14.6924 0.620 -0.780 0.083 91 53 39 0 0
3.8879 -1.6642 -14.7315 0.638 -0.768 0.059 90 52 39 0 0
3.8871 -1.6615 -14.7781 0.724 -0.688 0.055 93 54 41 0 0
3.8977 -1.6636 -15.1176 0.886 -0.454 0.091 54 23 15 0 0
3.9014 -1.6671 -15.1550 0.882 -0.449 0.140 52 20 15 0 0
3.9916 -1.7771 -15.4033 0.326 -0.127 0.937 17 10 11 0 0
4.0074 -1.7975 -15.4115 0.326 -0.127 0.937 17 13 13 0 0
4.1811 -1.9985 -16.1967 0.835 0.473 0.282 36 37 41 0 0
2.4512 0.1528 -13.9577 0.633 0.492 0.598 110 50 39 0 0
2.5411 0.0348 -13.9560 0.530 0.309 0.790 114 49 39 0 0
2.5593 0.0112 -13.9631 0.548 0.207 0.810 116 49 38 0 0
2.5778 -0.0129 -13.9695 0.548 0.207 0.810 113 46 33 0 0
3.7499 -1.5421 -14.2168 -0.296 -0.503 0.812 110 44 23 0 0
3.8563 -1.6710 -14.5375 0.736 -0.677 0.003 79 50 41 0 0
3.8597 -1.6743 -14.5735 0.679 -0.734 0.011 71 43 33 0 0
3.8621 -1.6747 -14.6563 0.646 -0.758 0.092 68 40 30 0 0
3.9358 -1.7486 -15.3491 0.117 -0.477 0.871 18 10 10 0 0
3.9887 -1.8160 -15.4075 0.326 -0.127 0.937 53 49 52 0 0
4.0052 -1.8374 -15.4140 0.322 -0.063 0.945 64 60 63 0 0
4.0226 -1.8602 -15.4177 0.227 -0.182 0.957 81 77 80 0 0
4.1030 -1.9580 -15.6473 0.425 -0.888 0.173 18 17 22 0 0
1.5199 1.3141 -13.5148 0.805 -0.322 0.499 99 69 61 0 0
1.5296 1.3021 -13.5381 0.805 -0.322 0.499 92 55 44 0 0
1.5381 1.2918 -13.5633 0.804 -0.331 0.494 94 51 35 0 0
1.5476 1.2800 -13.5868 0.804 -0.331 0.494 109 56 35 0 0
1.5572 1.2682 -13.6103 0.804 -0.331 0.494 112 55 31 0 0
1.5649 1.2589 -13.6368 0.853 -0.272 0.445 102 44 25 0 0
1.5726 1.2522 -13.7411 0.964 -0.108 0.242 104 44 29 0 0
1.9473 0.7659 -13.8776 0.812 0.103 0.575 116 43 22 0 0
1.9612 0.7481 -13.8937 0.734 0.188 0.653 119 46 25 0 0
2.1625 0.4864 -13.9486 0.680 0.337 0.651 131 75 48 0 0
2.7112 -0.2325 -13.9271 0.134 0.084 0.987 114 42 28 0 0
3.8715 -1.7096 -15.2691 0.360 -0.705 0.610 8 6 8 0 0
3.8805 -1.7208 -15.2938 0.529 -0.585 0.615 9 6 7 0 0
4.0030 -1.8772 -15.4163 0.227 -0.182 0.957 89 87 88 0 0
4.0995 -1.9946 -15.7016 0.928 -0.344 0.146 13 12 17 0 0
4.1008 -1.9950 -15.7472 0.884 -0.467 0.020 12 11 16 0 0
1.5002 1.2931 -13.4733 0.943 -0.090 0.320 113 83 78 0 0
1.5078 1.2839 -13.4998 0.925 -0.106 0.364 113 82 76 0 0
1.5138 1.2769 -13.5286 0.890 -0.045 0.454 109 78 69 0 0
1.5470 1.2446 -13.9034 0.590 0.013 0.807 140 73 32 0 0
1.8186 0.8872 -13.8184 0.917 0.244 0.316 108 36 21 0 0
1.7876 0.9315 -13.9481 0.307 -0.173 0.936 102 32 18 0 0
2.1564 0.4488 -13.9222 0.681 0.287 0.673 130 68 43 0 0
2.9381 -0.5718 -13.9438 0.336 0.272 0.902 116 43 26 0 0
3.5415 -1.3622 -13.8733 0.407 -0.788 0.463 122 44 21 0 0
3.5426 -1.3626 -13.9117 -0.038 -0.603 0.797 125 45 22 0 0
3.5539 -1.3768 -13.9291 -0.090 -0.673 0.734 127 45 22 0 0
3.8415 -1.7140 -15.2458 0.446 -0.682 0.580 15 13 16 0 0
3.8547 -1.7307 -15.2606 0.309 -0.369 0.877 35 33 35 0 0
3.8607 -1.7376 -15.2927 0.529 -0.585 0.615 20 19 19 0 0
3.8711 -1.7507 -15.3141 0.529 -0.585 0.615 10 9 9 0 0
3.9698 -1.8770 -15.4011 0.390 0.174 0.904 77 77 79 0 0
4.0630 -1.9986 -15.4049 0.294 -0.146 0.944 11 9 14 0 0
4.0727 -2.0093 -15.4758 0.288 -0.707 0.646 31 31 33 0 0
4.0510 -1.9722 -15.7743 0.766 -0.531 0.363 14 13 18 0 0
1.4445 1.3104 -13.1126 0.835 -0.121 0.536 99 58 50 0 0
1.4585 1.2926 -13.1286 0.637 -0.282 0.718 101 65 57 0 0
1.4714 1.2763 -13.1464 0.551 -0.522 0.651 100 67 57 0 0
1.4747 1.2728 -13.1785 0.565 -0.776 0.281 103 71 61 0 0
1.4967 1.2526 -13.4833 0.929 0.021 0.371 128 94 83 0 0
1.5065 1.2520 -13.9325 0.516 -0.679 0.522 136 65 30 0 0
3.3135 -1.1064 -13.8538 0.487 -0.081 0.870 122 45 24 0 0
3.3290 -1.1264 -13.8629 0.486 -0.035 0.873 123 45 25 0 0
3.3573 -1.1615 -13.9272 0.707 -0.210 0.675 121 44 23 0 0
3.6101 -1.4886 -14.0160 -0.039 -0.434 0.900 88 37 22 0 0
3.6111 -1.4844 -14.2223 0.579 -0.793 -0.190 115 46 23 0 0
3.6168 -1.4897 -14.2946 -0.104 -0.988 0.118 110 53 36 0 0
3.7915 -1.7141 -14.4202 0.397 -0.918 -0.020 10 6 10 0 0
3.7916 -1.7131 -14.4631 0.397 -0.918 -0.020 15 11 15 0 0
3.8217 -1.7309 -15.2446 0.578 -0.545 0.608 8 6 9 0 0
3.8489 -1.7643 -15.3188 0.597 -0.426 0.680 12 12 14 0 0
4.0324 -2.0004 -15.4312 -0.034 -0.867 0.497 13 11 16 0 0
4.0722 -2.0405 -15.8633 0.667 -0.640 0.380 9 8 13 0 0
4.0957 -2.0674 -16.0010 0.416 -0.485 0.769 52 53 53 0 0
4.2573 -2.2789 -15.9705 0.733 0.576 0.362 30 32 37 0 0
4.3476 -2.3792 -16.6023 0.683 -0.704 0.196 130 130 130 0 0
1.3404 1.3967 -12.9404 0.284 -0.403 0.870 96 41 24 0 0
1.7902 0.8373 -13.9511 0.716 0.106 0.690 112 43 24 0 0
1.8146 0.8055 -13.9504 0.635 0.283 0.719 112 42 25 0 0
1.9947 0.5694 -13.8870 0.157 0.116 0.981 117 45 27 0 0
2.2751 0.2064 -13.9603 0.593 0.122 0.796 113 45 26 0 0
2.2924 0.1841 -13.9698 0.593 0.122 0.796 115 45 28 0 0
2.6539 -0.2877 -13.9184 0.720 -0.409 0.561 119 44 29 0 0
3.1503 -0.9353 -13.8567 0.095 -0.172 0.981 125 48 26 0 0
3.3132 -1.1473 -13.8550 0.486 -0.035 0.873 127 45 24 0 0
3.3730 -1.2241 -13.8957 0.546 -0.010 0.838 124 45 22 0 0
3.5035 -1.3945 -13.8712 0.503 -0.849 0.163 121 42 21 0 0
3.5091 -1.4001 -13.9410 0.852 -0.019 0.524 130 47 22 0 0
3.5200 -1.4138 -13.9591 0.852 -0.019 0.524 134 47 19 0 0
3.5938 -1.5085 -14.0092 -0.071 -0.095 0.993 89 38 22 0 0
3.7673 -1.7224 -14.4737 0.321 -0.947 -0.027 33 31 36 0 0
3.7519 -1.6948 -14.7715 0.791 -0.604 0.095 42 42 44 0 0
3.7559 -1.6991 -14.8068 0.717 -0.676 0.170 41 40 43 0 0
3.7597 -1.7031 -14.8427 0.630 -0.729 0.267 39 38 40 0 0
3.7662 -1.7108 -14.8723 0.649 -0.704 0.288 33 33 35 0 0
3.7917 -1.7351 -15.2216 0.756 -0.518 0.401 8 5 8 0 0
3.8015 -1.7472 -15.2445 0.703 -0.315 0.637 8 5 8 0 0
4.1739 -2.2127 -15.9893 0.325 -0.153 0.933 29 30 34 0 0
4.3290 -2.3934 -16.8118 0.766 -0.642 0.007 158 159 161 0 0
4.5637 -2.7041 -16.6097 -0.266 -0.200 0.943 200 200 202 0 0
1.3732 1.3094 -12.9345 0.587 -0.422 0.690 114 47 24 0 0
1.8878 0.6651 -13.9509 0.745 0.243 0.621 109 41 24 0 0
1.9986 0.5187 -13.8445 0.344 -0.319 0.883 117 45 24 0 0
2.0526 0.4483 -13.8322 0.600 -0.480 0.640 144 73 32 0 0
2.6062 -0.2705 -13.8486 0.317 -0.429 0.845 118 46 31 0 0
2.6204 -0.2885 -13.8624 0.481 -0.376 0.792 118 45 30 0 0
2.6349 -0.3070 -13.8757 0.683 -0.672 0.287 118 45 29 0 0
2.6413 -0.3147 -13.9037 0.640 -0.699 0.319 122 46 30 0 0
2.9867 -0.7645 -13.8547 0.163 -0.672 0.722 121 46 27 0 0
3.2845 -1.1519 -13.8326 0.502 0.025 0.864 129 47 25 0 0
3.3023 -1.1750 -13.8371 0.560 -0.012 0.828 129 47 25 0 0
3.3152 -1.1913 -13.8517 0.559 -0.030 0.829 129 48 25 0 0
3.4723 -1.3953 -13.8548 0.059 -0.630 0.774 121 43 21 0 0
3.4851 -1.4115 -13.8689 0.059 -0.630 0.774 121 41 22 0 0
3.5826 -1.5284 -14.2830 0.885 -0.350 0.308 118 68 54 0 0
3.6326 -1.5919 -14.3436 -0.566 -0.059 0.822 138 74 47 0 0
3.7386 -1.7240 -14.5806 0.270 -0.962 0.038 26 27 32 0 0
3.7299 -1.7111 -14.6441 0.729 -0.684 0.034 27 26 32 0 0
3.7338 -1.7153 -14.6791 0.665 -0.730 0.156 27 26 31 0 0
3.7394 -1.7219 -14.7103 0.641 -0.711 0.289 28 28 30 0 0
3.7388 -1.7125 -15.0697 0.825 -0.413 0.385 30 28 31 0 0
3.7460 -1.7211 -15.0985 0.782 -0.517 0.349 29 28 31 0 0
3.7531 -1.7297 -15.1273 0.782 -0.517 0.349 28 27 29 0 0
3.8970 -1.9094 -15.4307 0.330 -0.645 0.690 55 56 61 0 0
4.0143 -2.0597 -15.5181 0.736 -0.674 0.057 39 39 39 0 0
4.0429 -2.0882 -15.8823 0.436 -0.874 0.216 7 6 11 0 0
4.0664 -2.1189 -15.8707 0.658 -0.436 0.613 7 6 11 0 0
4.5790 -2.7671 -16.6113 -0.281 0.169 0.945 201 201 203 0 0
1.1870 1.5036 -12.8088 0.070 -0.696 0.715 134 48 14 0 0
1.3637 1.2776 -12.9533 0.529 -0.556 0.641 97 27 9 0 0
1.9834 0.4936 -13.8340 0.490 -0.034 0.871 117 44 22 0 0
2.0165 0.4504 -13.8178 0.613 -0.156 0.774 132 51 21 0 0
2.0294 0.4341 -13.8353 0.522 0.229 0.822 150 82 43 0 0
2.0705 0.3810 -13.8444 0.563 0.215 0.798 104 61 43 0 0
2.4037 -0.0490 -13.9372 0.278 -0.659 0.699 120 47 30 0 0
2.5878 -0.2897 -13.8445 -0.125 -0.594 0.795 122 48 31 0 0
2.9685 -0.7830 -13.8510 0.461 -0.424 0.780 123 47 27 0 0
3.2786 -1.1853 -13.8451 0.431 -0.204 0.879 131 49 27 0 0
3.2931 -1.2037 -13.8564 0.431 -0.204 0.879 131 49 27 0 0
3.3115 -1.2276 -13.8596 0.240 -0.806 0.541 130 50 27 0 0
3.3345 -1.2575 -13.8535 0.107 -0.771 0.628 129 49 26 0 0
3.7128 -1.7336 -14.5075 0.656 -0.754 -0.036 28 27 32 0 0
3.7151 -1.7356 -14.5458 0.645 -0.764 0.020 28 27 32 0 0
3.7149 -1.7325 -14.6768 0.642 -0.735 0.221 35 33 38 0 0
3.7198 -1.7381 -14.7096 0.642 -0.735 0.221 36 34 37 0 0
3.7691 -1.7907 -15.2250 0.750 -0.450 0.486 9 9 11 0 0
4.3352 -2.4927 -16.6731 0.556 -0.598 0.577 156 157 159 0 0
4.5834 -2.8126 -16.7548 0.013 0.084 0.996 204 204 206 0 0
0.8144 1.9377 -12.6474 -0.124 -0.470 0.874 135 56 31 0 0
0.8784 1.8539 -12.5975 0.440 0.244 0.865 135 57 32 0 0
0.9925 1.7076 -12.6558 -0.039 -0.099 0.994 127 48 22 0 0
1.0086 1.6869 -12.6692 -0.077 -0.253 0.964 131 51 26 0 0
1.4046 1.1829 -13.0809 0.814 -0.462 0.352 66 20 13 0 0
1.8475 0.6234 -13.7504 0.330 -0.295 0.897 120 44 26 0 0
2.4040 -0.0945 -13.8599 0.220 -0.605 0.765 122 49 32 0 0
2.3990 -0.0871 -13.9083 0.188 -0.406 0.894 122 49 32 0 0
2.5698 -0.3094 -13.8397 0.227 -0.753 0.617 124 48 32 0 0
2.5805 -0.3228 -13.8599 0.227 -0.753 0.617 123 47 31 0 0
2.7376 -0.5271 -13.8099 0.768 -0.361 0.529 129 54 35 0 0
2.7467 -0.5384 -13.8326 0.829 -0.286 0.480 125 50 31 0 0
2.8624 -0.6885 -13.8149 -0.015 -0.323 0.946 125 49 29 0 0
2.8781 -0.7086 -13.8250 -0.098 -0.624 0.775 125 50 29 0 0
2.9498 -0.8009 -13.8483 0.424 -0.249 0.871 124 47 27 0 0
3.2522 -1.1920 -13.8584 0.431 -0.343 0.834 131 49 27 0 0
3.3175 -1.2766 -13.8482 -0.085 -0.488 0.869 130 50 27 0 0
3.6153 -1.6520 -14.3376 -0.664 -0.099 0.741 124 51 26 0 0
3.6977 -1.7545 -14.5405 0.739 -0.667 0.094 46 46 51 0 0
3.7176 -1.7706 -15.0251 0.922 -0.225 0.315 24 23 26 0 0
3.9701 -2.0890 -15.4325 0.290 -0.908 0.303 10 9 14 0 0
0.6724 2.0756 -12.6290 0.142 -0.387 0.911 128 51 30 0 0
1.3887 1.1589 -13.0726 0.775 -0.520 0.359 66 22 15 0 0
2.2309 0.0842 -13.7725 0.539 -0.139 0.831 119 47 29 0 0
2.2845 0.0155 -13.7972 0.029 -0.165 0.986 121 45 29 0 0
2.7304 -0.5599 -13.8251 0.419 -0.496 0.760 126 51 30 0 0
2.8331 -0.6924 -13.8320 0.234 -0.206 0.950 126 48 29 0 0
2.8582 -0.7250 -13.8244 0.579 -0.229 0.782 126 48 30 0 0
3.3086 -1.3058 -13.8667 0.205 -0.079 0.976 130 49 28 0 0
3.3262 -1.3285 -13.8713 0.243 -0.047 0.969 129 49 27 0 0
3.5421 -1.6004 -14.2428 0.474 -0.343 0.811 119 54 35 0 0
3.5899 -1.6601 -14.3501 -0.699 -0.154 0.699 130 54 29 0 0
3.6851 -1.7798 -14.5244 0.696 -0.692 0.193 46 46 48 0 0
3.6867 -1.7812 -14.5640 0.679 -0.722 0.134 47 47 49 0 0
3.6887 -1.7783 -14.8663 0.563 -0.801 0.200 41 41 43 0 0
3.6984 -1.7887 -14.9779 0.900 -0.226 0.374 27 25 28 0 0
3.7051 -1.7969 -15.0073 0.922 -0.225 0.315 21 20 22 0 0
3.9863 -2.1477 -15.6752 0.429 -0.344 0.836 14 13 18 0 0
4.0074 -2.1751 -15.6697 0.421 -0.711 0.563 12 11 16 0 0
4.2919 -2.5238 -16.6784 0.534 -0.287 0.796 153 153 153 0 0
4.4426 -2.7187 -16.6710 0.611 -0.303 0.731 193 194 196 0 0
4.4933 -2.7849 -16.6295 0.602 -0.350 0.717 198 198 200 0 0
0.6191 2.1003 -12.7051 0.069 -0.471 0.880 119 45 28 0 0
0.7504 1.9317 -12.7449 0.171 0.059 0.984 121 46 25 0 0
1.3784 1.1281 -13.0927 0.688 -0.618 0.380 73 29 16 0 0
1.3847 1.1204 -13.1200 0.682 -0.650 0.335 76 33 19 0 0
1.3923 1.1111 -13.1455 0.688 -0.618 0.380 76 31 20 0 0
1.4002 1.1013 -13.1706 0.573 -0.630 0.524 73 26 18 0 0
1.4062 1.0941 -13.1986 0.485 -0.610 0.626 67 23 12 0 0
1.4221 1.0775 -13.4355 0.455 -0.804 0.381 82 30 10 0 0
1.9423 0.4136 -13.8346 0.180 -0.303 0.936 149 67 23 0 0
2.0669 0.2528 -13.8208 -0.084 0.113 0.990 129 56 31 0 0
2.2303 0.0415 -13.7764 0.686 -0.086 0.723 124 49 31 0 0
2.2595 0.0043 -13.8041 0.434 0.072 0.898 122 47 29 0 0
2.3635 -0.1295 -13.8186 0.238 0.027 0.971 125 50 34 0 0
2.6508 -0.5004 -13.7760 0.037 -0.396 0.918 127 50 30 0 0
2.8180 -0.7152 -13.8223 0.525 -0.370 0.766 127 50 30 0 0
2.8455 -0.7508 -13.8104 0.670 -0.437 0.600 128 50 30 0 0
3.1248 -1.1105 -13.8316 0.453 -0.055 0.890 132 54 31 0 0
3.5768 -1.6847 -14.3356 0.555 0.627 0.547 131 52 26 0 0
3.6701 -1.8026 -14.4709 0.895 -0.438 0.082 47 47 49 0 0
3.6638 -1.7935 -14.5279 0.896 -0.424 0.133 47 47 49 0 0
3.6828 -1.8122 -14.8784 0.634 -0.719 0.285 39 39 41 0 0
3.6771 -1.8040 -14.9359 0.900 -0.226 0.374 34 34 36 0 0
3.7076 -1.8369 -15.3186 0.602 -0.605 0.521 35 36 38 0 0
3.9354 -2.1281 -15.4658 0.641 -0.709 0.295 9 9 11 0 0
3.9670 -2.1654 -15.6726 0.429 -0.344 0.836 15 14 19 0 0
4.4269 -2.7418 -16.6569 0.761 -0.374 0.530 194 195 197 0 0
4.4727 -2.8013 -16.6299 0.254 -0.163 0.953 198 198 200 0 0
0.0023 2.8478 -12.6770 0.578 0.200 0.791 136 72 46 0 0
0.0289 2.8136 -12.6798 0.788 -0.105 0.607 135 68 41 0 0
0.8609 1.7438 -12.7097 0.716 -0.096 0.691 118 43 22 0 0
1.3784 1.0844 -13.1342 0.200 -0.922 0.332 65 26 12 0 0
1.3826 1.0794 -13.1647 0.136 -0.887 0.441 61 23 10 0 0
1.3841 1.0781 -13.1994 0.355 -0.769 0.531 57 23 13 0 0
1.8604 0.4733 -13.7403 0.409 -0.367 0.835 120 44 24 0 0
1.8873 0.4387 -13.7349 0.527 -0.500 0.687 118 43 24 0 0
1.8984 0.4247 -13.7553 0.612 -0.358 0.705 118 42 25 0 0
2.2235 0.0070 -13.7910 0.295 -0.341 0.892 125 50 29 0 0
2.2421 -0.0167 -13.7980 0.267 -0.055 0.962 125 50 29 0 0
3.1087 -1.1311 -13.8243 0.447 -0.217 0.868 132 54 31 0 0
3.5324 -1.6689 -14.3049 0.970 0.031 0.242 147 77 56 0 0
3.5381 -1.6759 -14.3345 0.915 0.222 0.337 141 61 36 0 0
3.6368 -1.7985 -14.6303 0.764 -0.618 0.187 50 49 53 0 0
3.6561 -1.8220 -14.7176 0.848 -0.424 0.319 50 49 53 0 0
3.6635 -1.8312 -14.7445 0.897 -0.337 0.288 50 49 53 0 0
3.9169 -2.1466 -15.4615 0.738 -0.615 0.277 10 10 12 0 0
3.9622 -2.2023 -15.6333 0.495 -0.804 0.330 16 15 20 0 0
4.4511 -2.8164 -16.6332 0.395 -0.099 0.913 198 198 200 0 0
1.0459 1.4612 -12.6771 0.585 0.028 0.810 124 46 24 0 0
1.0580 1.4463 -12.7311 0.559 -0.328 0.761 126 44 22 0 0
1.3171 1.1177 -13.0464 0.644 -0.734 0.217 61 23 14 0 0
1.3550 1.0707 -13.1737 0.136 -0.887 0.441 44 28 19 0 0
1.3635 1.0601 -13.1978 0.136 -0.887 0.441 44 26 19 0 0
1.8784 0.4063 -13.7531 0.380 -0.660 0.648 118 40 20 0 0
2.1768 0.0237 -13.7961 0.436 -0.407 0.803 124 49 28 0 0
2.2040 -0.0113 -13.7885 0.308 -0.048 0.950 125 50 29 0 0
2.4085 -0.2739 -13.7838 0.598 -0.067 0.799 127 50 31 0 0
2.6111 -0.5341 -13.7739 0.041 -0.458 0.888 130 53 32 0 0
2.6285 -0.5563 -13.7816 0.252 -0.614 0.748 130 53 32 0 0
2.6407 -0.5718 -13.7985 0.252 -0.614 0.748 130 52 32 0 0
2.6530 -0.5873 -13.8154 0.236 -0.642 0.729 129 51 31 0 0
2.6668 -0.6049 -13.8295 0.273 -0.645 0.714 128 50 30 0 0
2.8093 -0.7877 -13.8420 0.021 -0.151 0.988 132 53 31 0 0
2.9479 -0.9660 -13.8178 0.129 -0.030 0.991 132 51 30 0 0
3.3252 -1.4506 -13.7952 0.102 -0.451 0.887 113 37 19 0 0
3.6704 -1.8747 -15.2645 0.722 -0.381 0.577 6 6 8 0 0
4.1784 -2.5088 -16.6634 0.516 -0.241 0.822 124 121 121 0 0
4.4175 -2.8156 -16.6717 -0.335 -0.725 0.602 196 196 198 0 0
4.4488 -2.8563 -16.6336 -0.643 -0.441 0.627 200 200 202 0 0
1.2948 1.1005 -12.9032 0.541 -0.358 0.761 66 12 4 0 0
1.3989 0.9761 -13.7124 0.183 -0.546 0.817 17 4 3 0 0
1.8184 0.4390 -13.7391 0.221 -0.450 0.865 131 55 32 0 0
1.8728 0.3700 -13.8045 0.520 -0.510 0.685 135 53 20 0 0
2.5290 -0.4717 -13.7285 0.166 -0.731 0.662 127 50 29 0 0
2.9289 -0.9831 -13.8159 0.129 -0.030 0.991 133 52 31 0 0
3.2449 -1.3882 -13.7971 0.198 -0.017 0.980 113 42 22 0 0
3.7010 -1.9700 -14.0235 0.317 -0.329 0.889 125 41 11 0 0
3.7383 -2.0164 -14.1489 0.703 -0.688 -0.180 62 51 51 0 0
3.6440 -1.8830 -15.2788 0.411 -0.703 0.580 6 6 8 0 0
3.6922 -1.9440 -15.3488 0.349 -0.191 0.917 24 24 26 0 0
3.7007 -1.9536 -15.4676 -0.046 -0.026 0.999 22 21 24 0 0
3.9652 -2.2887 -15.8118 0.295 -0.334 0.896 7 6 11 0 0
4.0517 -2.3976 -15.9800 0.776 -0.451 0.442 32 31 36 0 0
4.1270 -2.4912 -16.2305 0.998 0.057 -0.034 57 58 60 0 0
4.4646 -2.9193 -16.6344 -0.170 0.380 0.909 201 201 203 0 0
-0.8712 3.8247 -12.6962 -0.273 -0.614 0.741 213 213 214 0 0
-0.6393 3.5282 -12.7167 -0.511 -0.763 0.396 170 135 115 0 0
-0.5483 3.4116 -12.6825 0.521 0.501 0.691 148 97 75 0 0
-0.5117 3.3647 -12.6754 0.539 0.521 0.662 147 92 69 0 0
-0.4720 3.3138 -12.6646 0.553 0.508 0.660 141 80 56 0 0
-0.0402 2.7604 -12.5396 0.385 -0.135 0.913 114 52 38 0 0
0.0066 2.7004 -12.5181 0.464 0.023 0.885 113 51 37 0 0
0.0271 2.6743 -12.5281 0.464 0.023 0.885 114 52 36 0 0
0.7447 1.7577 -12.6361 0.266 -0.273 0.924 119 42 24 0 0
1.0347 1.3874 -12.7038 0.410 -0.191 0.892 126 43 25 0 0
1.2673 1.0933 -13.0563 0.144 -0.968 0.207 37 11 5 0 0
1.2703 1.0897 -13.0882 0.321 -0.933 0.165 7 2 2 0 0
1.4145 0.9113 -13.7310 0.124 -0.048 0.991 159 90 55 0 0
1.4366 0.8831 -13.7351 0.124 -0.048 0.991 163 83 56 0 0
1.4576 0.8563 -13.7408 0.331 -0.143 0.933 145 70 50 0 0
1.6542 0.6045 -13.6997 0.097 0.408 0.908 129 52 26 0 0
1.7235 0.5163 -13.7424 0.670 0.196 0.716 126 46 23 0 0
2.3743 -0.3156 -13.7713 0.729 -0.087 0.679 129 52 31 0 0
2.7826 -0.8378 -13.7772 0.363 -0.074 0.929 132 51 28 0 0
2.9755 -1.0842 -13.8076 0.335 0.173 0.926 133 53 30 0 0
3.0431 -1.1707 -13.7965 0.315 -0.112 0.942 130 49 29 0 0
3.0595 -1.1916 -13.8044 0.315 -0.112 0.942 129 50 28 0 0
3.6836 -1.9877 -14.0196 0.329 -0.189 0.925 128 40 8 0 0
3.6295 -1.9091 -15.0392 0.729 -0.668 0.149 17 16 21 0 0
3.6231 -1.8982 -15.3258 0.143 -0.382 0.913 6 6 8 0 0
4.1396 -2.5462 -16.6556 0.234 -0.144 0.962 120 116 117 0 0
4.1559 -2.5670 -16.6627 0.234 -0.144 0.962 129 128 128 0 0
4.2557 -2.6942 -16.6989 0.601 -0.394 0.695 174 174 175 0 0
4.2930 -2.7424 -16.6457 0.598 -0.428 0.678 178 179 181 0 0
4.5542 -3.0767 -16.6304 -0.537 0.161 0.828 207 207 207 0 0
-0.7126 3.5735 -12.7024 0.009 -0.122 0.993 140 93 76 0 0
-0.6853 3.5386 -12.7066 0.001 -0.214 0.977 142 89 67 0 0
-0.6397 3.4803 -12.6898 0.293 0.313 0.903 137 79 51 0 0
-0.6054 3.4365 -12.6857 0.293 0.313 0.903 128 66 44 0 0
0.1804 2.4327 -12.5575 0.576 0.119 0.809 113 46 30 0 0
1.2748 1.0426 -13.4557 0.401 -0.056 0.914 17 15 16 0 0
1.3025 1.0072 -13.4516 0.642 -0.212 0.737 17 16 18 0 0
1.3296 0.9737 -13.5991 0.641 -0.758 0.120 23 21 26 0 0
1.3937 0.8929 -13.7293 0.124 -0.048 0.991 147 82 43 0 0
1.4158 0.8647 -13.7334 0.124 -0.048 0.991 156 74 39 0 0
1.4383 0.8360 -13.7368 0.337 -0.102 0.936 150 73 48 0 0
1.7758 0.4053 -13.7387 0.557 -0.197 0.807 130 51 28 0 0
1.8215 0.3469 -13.7413 0.073 -0.485 0.871 120 42 21 0 0
2.1113 -0.0227 -13.7617 0.519 0.106 0.848 127 50 32 0 0
2.2959 -0.2584 -13.7552 0.021 -0.097 0.995 129 53 30 0 0
2.3058 -0.2709 -13.7768 0.255 -0.054 0.966 129 53 30 0 0
2.4915 -0.5080 -13.7613 0.541 -0.071 0.838 132 52 29 0 0
2.6163 -0.6672 -13.7710 0.645 -0.085 0.759 133 51 30 0 0
2.7270 -0.8085 -13.7643 0.233 -0.375 0.897 134 52 30 0 0
2.8789 -1.0022 -13.7952 0.514 0.173 0.840 132 51 29 0 0
2.9601 -1.1058 -13.7990 0.333 0.163 0.929 128 50 28 0 0
2.9858 -1.1386 -13.7895 0.117 0.025 0.993 124 47 26 0 0
3.0055 -1.1638 -13.7911 0.117 0.025 0.993 121 46 26 0 0
3.0238 -1.1871 -13.7954 0.220 -0.047 0.974 118 43 26 0 0
3.0416 -1.2098 -13.8006 0.315 -0.112 0.942 115 40 25 0 0
3.1903 -1.3997 -13.7878 0.139 -0.125 0.982 133 59 29 0 0
3.2077 -1.4218 -13.7931 0.139 -0.125 0.982 148 67 29 0 0
3.5044 -1.8006 -13.7908 0.475 -0.662 0.580 93 46 26 0 0
3.6567 -1.9935 -13.9951 0.310 -0.319 0.896 132 43 11 0 0
3.6905 -2.0361 -14.0453 0.439 -0.647 0.624 96 25 4 0 0
3.7014 -2.0500 -14.0626 0.299 -0.158 0.941 87 33 18 0 0
3.6608 -1.9882 -15.3729 0.753 -0.131 0.645 20 20 22 0 0
4.1857 -2.6491 -16.5742 0.541 -0.709 0.453 136 136 138 0 0
4.3859 -2.9033 -16.7447 -0.600 -0.221 0.769 201 201 203 0 0
4.3840 -2.9005 -16.8039 -0.587 -0.205 0.783 201 201 202 0 0
-0.7994 3.6355 -12.6675 0.366 0.104 0.925 145 91 75 0 0
-0.7893 3.6228 -12.6916 0.329 0.202 0.922 132 76 61 0 0
-0.7601 3.5856 -12.6939 0.329 0.202 0.922 124 65 50 0 0
-0.1307 2.7831 -12.5585 0.195 -0.032 0.980 111 50 33 0 0
0.0626 2.5370 -12.5695 0.308 -0.361 0.880 114 48 32 0 0
0.2736 2.2683 -12.5885 0.560 0.000 0.829 114 44 26 0 0
0.9745 1.3761 -12.6920 0.176 -0.525 0.833 122 40 19 0 0
1.2978 0.9687 -13.4636 0.567 -0.265 0.780 18 16 19 0 0
1.3805 0.8647 -13.7159 0.519 0.229 0.824 128 73 35 0 0
2.0218 0.0476 -13.6840 0.365 -0.476 0.800 145 72 44 0 0
2.0292 0.0384 -13.7102 0.565 0.000 0.825 114 46 28 0 0
2.2761 -0.2759 -13.7536 0.118 -0.152 0.981 130 54 31 0 0
2.2877 -0.2905 -13.7723 0.375 -0.057 0.925 129 53 30 0 0
2.4757 -0.5301 -13.7529 0.541 -0.071 0.838 131 51 27 0 0
2.4896 -0.5478 -13.7671 0.567 -0.288 0.772 132 52 28 0 0
2.5065 -0.5692 -13.7759 0.201 -0.347 0.916 133 53 30 0 0
2.5383 -0.6096 -13.7969 0.261 -0.713 0.650 134 54 31 0 0
2.5489 -0.6230 -13.8167 0.348 -0.627 0.697 135 53 31 0 0
2.6036 -0.6931 -13.7572 0.636 0.009 0.772 135 53 31 0 0
2.8718 -1.0346 -13.7711 0.318 -0.205 0.926 130 46 27 0 0
2.9657 -1.1542 -13.7897 0.075 0.031 0.997 118 44 26 0 0
3.0238 -1.2281 -13.7968 0.315 -0.112 0.942 111 38 26 0 0
3.2263 -1.4860 -13.7968 0.292 -0.498 0.817 133 48 19 0 0
3.6315 -2.0010 -14.0080 0.803 -0.080 0.591 135 46 17 0 0
3.6541 -2.0296 -14.0412 0.481 -0.524 0.703 121 35 1 0 0
3.6795 -2.0618 -14.0685 0.067 -0.057 0.996 92 25 10 0 0
3.7340 -2.1239 -15.3351 0.473 -0.570 0.672 30 29 35 0 0
4.4579 -3.0382 -16.6880 -0.717 -0.066 0.694 205 205 205 0 0
-0.9783 3.8140 -12.4881 -0.480 -0.667 0.570 211 209 207 0 0
-0.8313 3.6274 -12.5707 -0.054 -0.070 0.996 139 80 60 0 0
-0.8009 3.5887 -12.5718 -0.054 -0.070 0.996 131 70 50 0 0
-0.8671 3.6734 -12.6816 0.250 0.174 0.952 125 62 45 0 0
-0.8149 3.6069 -12.6582 0.366 0.104 0.925 122 58 47 0 0
-0.1790 2.7979 -12.5537 -0.018 -0.109 0.994 111 49 34 0 0
0.2443 2.2599 -12.5623 0.474 -0.148 0.868 121 50 32 0 0
0.2612 2.2385 -12.5761 0.415 -0.212 0.885 112 40 23 0 0
0.8666 1.4691 -12.6679 0.174 -0.562 0.809 124 43 22 0 0
0.8837 1.4475 -12.6801 0.313 -0.735 0.602 122 41 20 0 0
1.2190 1.0229 -13.1416 0.825 -0.214 0.523 40 39 38 0 0
1.2270 1.0129 -13.1665 0.696 -0.096 0.711 37 35 36 0 0
1.2691 0.9596 -13.2148 0.696 -0.096 0.711 13 11 14 0 0
1.3457 0.8641 -13.6976 0.467 0.152 0.871 13 2 1 0 0
1.3670 0.8371 -13.7031 0.334 0.231 0.914 97 53 25 0 0
1.5237 0.6378 -13.6888 0.527 -0.728 0.438 128 48 24 0 0
1.6885 0.4281 -13.6571 0.341 -0.343 0.875 133 53 29 0 0
2.2386 -0.2709 -13.7438 0.510 -0.504 0.697 128 50 28 0 0
2.4620 -0.5550 -13.7409 0.156 -0.425 0.892 132 52 28 0 0
2.4726 -0.5683 -13.7609 -0.068 -0.579 0.813 133 53 29 0 0
2.8431 -1.0394 -13.7484 -0.151 -0.394 0.907 127 49 27 0 0
2.8526 -1.0515 -13.7695 0.094 -0.254 0.963 123 46 25 0 0
3.0059 -1.2463 -13.7930 0.315 -0.112 0.942 128 52 29 0 0
3.0553 -1.3090 -13.8161 0.233 -0.227 0.945 159 80 33 0 0
3.2355 -1.5375 -13.9384 0.694 -0.675 0.249 142 90 75 0 0
3.2492 -1.5549 -13.9509 0.540 -0.720 0.435 142 100 90 0 0
3.6023 -1.9993 -15.0972 0.791 -0.279 0.544 10 10 12 0 0
3.6871 -2.1061 -15.3526 -0.365 -0.638 0.678 27 27 29 0 0
4.0758 -2.5946 -16.7639 0.591 -0.807 -0.012 133 133 133 0 0
4.3150 -2.8989 -16.7241 0.074 -0.417 0.906 197 198 200 0 0
-1.0265 3.8268 -12.5146 -0.444 -0.614 0.652 191 171 162 0 0
-1.0076 3.8030 -12.5641 -0.296 -0.411 0.862 153 111 96 0 0
-0.8520 3.6055 -12.5673 -0.073 -0.121 0.990 115 56 45 0 0
-0.8227 3.5684 -12.5696 -0.073 -0.121 0.990 112 56 43 0 0
-0.0280 2.5599 -12.5546 0.372 -0.352 0.859 109 43 27 0 0
0.1846 2.2901 -12.5388 0.036 -0.356 0.934 116 46 30 0 0
0.2624 2.1914 -12.5467 0.487 -0.517 0.704 115 42 25 0 0
0.2816 2.1671 -12.5576 0.361 -0.465 0.808 116 43 26 0 0
0.6982 1.6386 -12.6522 0.234 -0.309 0.922 123 45 23 0 0
1.2875 0.8920 -13.1928 0.399 -0.769 0.499 10 10 12 0 0
1.3283 0.8414 -13.6908 -0.124 -0.177 0.976 8 3 1 0 0
1.4522 0.6842 -13.6901 0.457 -0.224 0.861 138 62 33 0 0
2.1681 -0.2242 -13.6749 0.501 -0.473 0.725 131 53 30 0 0
