ply
format ascii 1.0
element vertex 863
property float x
property float y
property float z
property float nx
property float ny
property float nz
property uchar diffuse_red
property uchar diffuse_green
property uchar diffuse_blue
property uchar class
property uchar detection
end_header
0.5063 2.4157 -16.6358 -0.146 -0.233 0.961 125 126 129 0 0
0.1332 2.1035 -12.5373 -0.067 0.028 0.997 122 53 38 0 0
0.1344 2.1382 -12.5446 0.015 0.158 0.987 117 48 33 0 0
0.1354 2.1768 -12.5485 0.174 0.257 0.951 116 47 31 0 0
0.1373 2.2018 -12.5640 0.060 0.381 0.922 118 49 34 0 0
0.1387 2.2344 -12.5729 0.149 0.381 0.913 112 43 28 0 0
0.1462 2.6937 -12.5759 0.247 0.698 0.672 154 88 57 0 0
0.2604 2.2914 -13.8092 0.221 0.481 0.848 45 13 9 0 0
0.3395 2.6238 -14.5651 0.713 0.701 0.006 72 64 67 0 0
0.4955 2.2685 -16.2184 0.531 0.821 -0.212 59 55 54 0 0
0.5024 2.2448 -16.2932 0.475 0.830 -0.293 60 55 54 0 0
0.5446 2.0524 -16.7556 0.135 0.246 0.960 84 82 80 0 0
0.5386 2.1650 -16.6759 0.219 0.344 0.913 90 92 89 0 0
0.5404 2.1959 -16.6895 0.285 0.440 0.852 98 100 100 0 0
0.5377 2.4698 -16.6178 -0.163 -0.266 0.950 132 133 137 0 0
0.1632 2.1809 -12.5419 -0.458 0.342 0.820 119 50 34 0 0
0.1682 2.2150 -12.5869 -0.176 0.603 0.778 113 44 29 0 0
0.1696 2.6499 -12.5378 0.259 0.675 0.691 134 60 43 0 0
0.1719 2.6689 -12.5579 0.290 0.646 0.706 152 84 60 0 0
0.1969 2.6817 -12.8096 0.653 0.747 0.128 105 57 51 0 0
0.2834 1.9125 -13.7986 0.431 0.440 0.788 11 5 5 0 0
0.2833 1.9650 -13.7901 0.171 0.007 0.985 10 4 4 0 0
0.3063 2.6788 -13.9178 0.522 0.586 0.619 70 19 4 0 0
0.3122 2.7060 -13.9729 0.021 0.534 0.845 60 15 1 0 0
0.3180 2.7337 -14.0278 0.524 0.747 0.409 104 58 42 0 0
0.3527 2.6191 -14.3956 0.578 0.816 0.003 101 72 62 0 0
0.3706 2.6067 -14.5793 0.698 0.708 -0.105 74 63 63 0 0
0.4352 2.4669 -15.2545 0.800 0.598 -0.041 112 76 68 0 0
0.4408 2.4544 -15.3129 0.770 0.631 -0.091 87 58 54 0 0
0.4468 2.4381 -15.3757 0.770 0.631 -0.091 103 67 60 0 0
0.5314 2.2245 -16.2641 0.529 0.821 -0.212 59 55 54 0 0
0.5722 2.2000 -16.6809 0.101 0.237 0.966 104 105 107 0 0
0.1949 -0.4078 -12.9260 0.442 -0.319 0.839 206 208 206 0 0
0.1838 1.3375 -12.5783 -0.401 0.521 0.753 117 50 33 0 0
0.1920 2.6207 -12.4866 0.410 0.828 0.383 109 38 23 0 0
0.3141 2.1517 -13.7733 0.749 0.607 0.264 13 2 2 0 0
0.3194 2.1865 -13.8216 0.217 0.181 0.959 48 17 10 0 0
0.3165 2.2704 -13.7821 -0.092 0.298 0.950 49 16 9 0 0
0.3108 2.4868 -13.6955 0.472 0.430 0.769 50 9 2 0 0
0.3462 2.6952 -14.0218 0.508 0.803 0.311 101 55 37 0 0
0.5356 2.3122 -15.9720 0.725 0.641 0.252 54 51 50 0 0
0.5707 2.1485 -16.3456 0.616 0.788 -0.022 60 56 55 0 0
0.6046 2.1493 -16.6858 0.219 0.344 0.913 100 102 102 0 0
0.2140 1.3201 -12.5896 -0.021 0.609 0.793 116 49 32 0 0
0.2205 2.6088 -12.4942 0.354 0.818 0.454 113 43 25 0 0
0.3438 1.8474 -13.8122 0.376 0.037 0.926 15 6 7 0 0
0.3429 2.2064 -13.7586 0.334 0.400 0.853 60 22 15 0 0
0.3445 2.2371 -13.7700 0.204 0.075 0.976 49 16 11 0 0
0.3458 2.2703 -13.7789 -0.087 0.284 0.955 46 14 9 0 0
0.3733 2.6701 -14.0023 0.484 0.676 0.556 88 38 25 0 0
0.3775 2.6696 -14.0441 0.610 0.710 0.351 108 60 47 0 0
0.4643 2.4731 -14.9292 0.793 0.609 -0.001 113 74 65 0 0
0.6098 2.0284 -16.4282 0.624 0.726 -0.288 60 54 55 0 0
0.6317 2.3893 -16.6014 0.416 0.803 0.427 133 134 136 0 0
0.6327 2.4270 -16.6066 -0.272 -0.102 0.957 137 138 140 0 0
0.3746 1.7854 -13.8258 0.679 0.675 -0.289 18 9 10 0 0
0.3717 1.8699 -13.7878 0.321 0.085 0.943 13 4 5 0 0
0.3746 2.2264 -13.7769 -0.116 0.102 0.988 50 15 10 0 0
0.3754 2.2653 -13.7804 -0.422 0.451 0.787 44 12 7 0 0
0.4017 2.5836 -14.0026 0.596 0.592 0.543 64 21 11 0 0
0.4131 2.6446 -14.1074 0.660 0.733 0.165 112 72 64 0 0
0.4169 2.6491 -14.1445 0.551 0.804 0.225 120 77 66 0 0
0.5292 2.3469 -15.2819 0.701 0.712 -0.048 110 71 61 0 0
0.5825 2.2321 -15.8185 0.615 0.753 0.234 95 53 41 0 0
0.5906 2.2466 -15.8960 0.586 0.776 0.234 62 48 43 0 0
0.5958 2.2428 -15.9472 0.659 0.739 0.141 56 50 49 0 0
0.2820 2.1472 -12.5966 0.031 0.385 0.923 110 43 29 0 0
0.2821 2.2910 -12.5831 0.108 0.275 0.955 106 40 26 0 0
0.4044 2.2678 -13.7747 0.024 0.269 0.963 45 9 5 0 0
0.4324 2.5658 -14.0170 0.596 0.592 0.543 64 20 9 0 0
0.4445 2.6201 -14.1287 0.697 0.696 0.172 111 72 65 0 0
0.5571 2.3279 -15.2535 0.662 0.742 -0.104 107 68 59 0 0
0.5636 2.3097 -15.3180 0.704 0.708 -0.056 110 74 65 0 0
0.6158 2.2130 -15.8356 0.565 0.804 0.186 102 61 47 0 0
0.6200 2.2185 -15.8763 0.586 0.776 0.234 80 56 49 0 0
0.6240 2.2268 -15.9139 0.586 0.776 0.234 60 49 47 0 0
0.6298 2.2171 -15.9717 0.659 0.739 0.141 58 50 49 0 0
0.6617 2.0515 -16.2981 0.586 0.784 -0.206 59 53 53 0 0
0.6737 1.9836 -16.4221 0.229 0.908 -0.351 60 54 54 0 0
0.7136 2.1294 -16.7955 -0.399 -0.436 0.807 129 130 134 0 0
0.4283 2.1388 -13.7318 0.768 0.560 0.311 49 25 22 0 0
0.6498 2.1869 -15.8603 0.630 0.721 0.288 95 58 46 0 0
0.6532 2.2014 -15.8912 0.589 0.740 0.324 67 49 46 0 0
0.6576 2.2059 -15.9332 0.599 0.749 0.282 60 48 47 0 0
0.6857 2.0790 -16.2156 0.156 0.945 -0.286 59 53 52 0 0
0.7134 1.9129 -16.4971 0.263 0.921 -0.287 61 53 53 0 0
0.3380 2.2458 -12.5794 -0.193 0.225 0.955 107 40 27 0 0
0.4655 1.7182 -13.8375 0.289 0.804 0.519 11 5 5 0 0
0.4548 2.0757 -13.7070 0.686 0.608 0.399 6 2 1 0 0
0.4574 2.0942 -13.7301 0.800 0.579 0.160 26 11 9 0 0
0.4648 2.3386 -13.7816 0.373 0.638 0.674 105 50 19 0 0
0.4699 2.3765 -13.8265 0.410 0.538 0.737 91 40 16 0 0
0.6656 2.1962 -15.7069 0.533 0.807 0.253 80 45 36 0 0
0.6867 2.1814 -15.9094 0.565 0.769 0.298 62 48 48 0 0
0.7665 1.8157 -16.6999 -0.424 -0.406 0.810 67 66 64 0 0
0.3668 2.2829 -12.5813 -0.164 0.117 0.979 108 41 28 0 0
0.4957 1.7141 -13.8380 -0.328 0.448 0.832 12 6 6 0 0
0.4956 2.3218 -13.7944 0.346 0.447 0.825 126 77 39 0 0
0.7932 2.0537 -16.6236 -0.417 -0.501 0.758 106 106 109 0 0
0.7972 2.1100 -16.6577 -0.393 -0.253 0.884 122 122 124 0 0
0.4509 2.2481 -13.1047 0.630 0.634 -0.448 69 57 58 0 0
0.5225 1.6997 -13.8071 0.463 0.535 0.707 14 8 8 0 0
0.5236 2.2883 -13.7826 0.454 0.587 0.671 113 62 31 0 0
0.5259 2.3096 -13.8029 0.454 0.587 0.671 121 76 43 0 0
0.5282 2.3310 -13.8231 0.454 0.587 0.671 80 32 11 0 0
0.8346 1.7438 -16.7232 0.367 0.845 0.390 69 65 64 0 0
0.8263 1.9552 -16.6331 0.300 0.933 0.200 92 92 92 0 0
0.8290 2.1137 -16.6493 -0.493 -0.322 0.808 125 124 129 0 0
0.4251 1.9832 -12.6112 0.037 0.334 0.942 114 48 32 0 0
0.4306 2.0128 -12.6607 0.232 0.646 0.727 105 39 27 0 0
0.5494 1.9161 -13.7657 0.499 0.229 0.836 9 2 3 0 0
0.6283 2.3862 -14.4744 0.774 0.632 -0.043 107 70 61 0 0
0.6330 2.3852 -14.5182 0.700 0.694 -0.168 119 77 63 0 0
0.8627 2.1013 -16.6595 -0.506 -0.313 0.804 127 129 131 0 0
0.4526 1.8090 -12.6072 0.392 0.731 0.558 115 49 33 0 0
0.4559 1.9552 -12.6323 0.555 0.258 0.791 110 44 30 0 0
0.5831 1.6438 -13.8113 0.469 0.356 0.808 12 6 9 0 0
0.8951 1.9202 -16.6645 -0.182 0.378 0.908 104 103 106 0 0
0.6084 1.8717 -13.7600 0.575 0.393 0.718 11 2 4 0 0
0.6313 2.3541 -13.9547 0.483 0.520 0.704 73 19 11 0 0
0.7051 2.2707 -14.6277 0.776 0.631 -0.026 101 65 59 0 0
0.9265 1.9291 -16.6506 -0.320 0.220 0.922 108 108 112 0 0
0.9237 1.9963 -16.6237 -0.264 -0.034 0.964 115 115 120 0 0
0.5122 1.7360 -12.6257 -0.272 0.659 0.701 113 47 31 0 0
0.5141 1.7603 -12.6426 -0.290 0.572 0.767 114 48 32 0 0
0.5433 2.3387 -12.8946 0.757 0.653 -0.035 80 56 53 0 0
0.6426 1.6012 -13.8031 0.264 0.066 0.962 12 6 9 0 0
0.6418 1.9235 -13.7897 0.337 0.291 0.895 55 20 14 0 0
0.6911 2.3276 -14.2269 0.018 0.693 0.721 108 69 59 0 0
0.7334 2.2428 -14.6094 0.780 0.618 -0.101 117 76 66 0 0
0.7391 2.2349 -14.6606 0.785 0.618 0.050 97 60 54 0 0
0.7460 2.2161 -14.7230 0.749 0.655 -0.098 120 77 68 0 0
0.6888 -1.6192 -13.9756 -0.140 -0.326 0.935 140 94 75 0 0
0.5784 0.0364 -12.9746 0.469 -0.431 0.771 117 69 59 0 0
0.5402 1.7419 -12.6177 0.010 0.717 0.697 113 47 31 0 0
0.5406 1.7827 -12.6206 0.314 0.859 0.405 114 48 32 0 0
0.5441 1.7903 -12.6517 0.179 0.331 0.927 112 46 30 0 0
0.5448 1.8271 -12.6580 0.397 0.751 0.527 110 44 30 0 0
0.6745 1.5358 -13.8189 0.073 -0.119 0.990 15 10 9 0 0
0.6687 1.8164 -13.7641 0.378 0.481 0.791 8 3 2 0 0
0.6721 1.8719 -13.7939 0.309 0.384 0.870 60 25 19 0 0
0.6704 2.0201 -13.7771 0.173 0.180 0.968 38 8 6 0 0
0.7250 2.2889 -14.2619 0.405 0.826 0.392 119 75 63 0 0
0.7301 2.2850 -14.3079 0.540 0.822 0.182 123 78 65 0 0
0.7750 2.1836 -14.7093 0.744 0.667 -0.052 105 67 60 0 0
0.5689 1.7404 -12.6159 0.115 0.692 0.713 114 48 32 0 0
0.5712 1.7609 -12.6361 0.115 0.692 0.713 115 49 33 0 0
0.5744 1.8155 -12.6648 0.396 0.764 0.510 108 42 27 0 0
0.7040 1.4964 -13.8107 0.686 0.657 0.312 24 20 19 0 0
0.7015 1.8302 -13.7888 0.174 0.672 0.720 47 27 23 0 0
0.7047 1.8434 -13.8173 0.042 0.711 0.702 49 16 11 0 0
0.7013 2.0489 -13.7874 0.346 0.238 0.908 61 13 1 0 0
0.7376 2.2718 -14.1081 0.646 0.752 0.131 106 58 46 0 0
0.7517 2.2726 -14.2326 0.370 0.781 0.503 114 71 61 0 0
0.7553 2.2827 -14.2646 0.359 0.905 0.229 123 76 64 0 0
0.8158 2.1333 -14.8004 0.713 0.699 -0.065 118 73 64 0 0
0.6004 1.7544 -12.6386 0.273 0.795 0.542 115 49 33 0 0
0.6248 2.2849 -12.8574 0.826 0.456 0.332 97 64 62 0 0
0.7353 1.4843 -13.8185 0.178 0.344 0.922 14 10 9 0 0
0.7317 1.8248 -13.7905 0.287 0.593 0.752 50 25 21 0 0
0.7337 1.8500 -13.8078 -0.073 0.337 0.939 45 15 10 0 0
0.7313 2.0439 -13.7888 0.475 0.463 0.748 75 21 4 0 0
0.7608 2.2435 -14.0493 0.563 0.780 0.272 72 27 15 0 0
0.8514 2.0885 -14.8425 0.629 0.776 -0.056 116 71 61 0 0
0.6474 2.2550 -12.8049 0.780 0.604 0.160 101 39 19 0 0
0.6557 2.2601 -12.8765 0.835 0.476 0.274 78 53 52 0 0
0.7589 1.8045 -13.7654 0.266 0.782 0.564 50 25 22 0 0
0.7942 2.2091 -14.0795 0.556 0.823 0.112 87 40 24 0 0
0.7982 2.2160 -14.1143 0.571 0.819 0.065 108 61 47 0 0
0.8837 2.0728 -14.8550 0.685 0.728 0.017 114 69 61 0 0
1.1036 1.5084 -16.7556 0.488 0.862 -0.139 73 70 68 0 0
0.6646 0.9785 -12.6725 0.602 -0.102 0.792 115 52 35 0 0
0.6550 1.6074 -12.6064 0.196 0.339 0.920 113 47 31 0 0
0.7924 1.4238 -13.7853 0.667 0.743 -0.042 50 45 47 0 0
0.7849 1.7948 -13.7304 0.106 0.721 0.685 42 24 22 0 0
0.7894 1.7968 -13.7692 0.266 0.782 0.564 44 16 12 0 0
1.1376 1.5001 -16.7607 0.449 0.893 -0.035 77 75 73 0 0
1.1259 1.6759 -16.6646 0.171 0.554 0.815 95 95 94 0 0
1.1394 1.9174 -16.7876 0.035 -0.298 0.954 140 141 145 0 0
1.1235 6.5094 -16.7732 0.675 0.021 0.737 213 213 213 0 0
0.6726 2.1765 -12.5292 0.495 0.148 0.856 115 43 26 0 0
0.8253 1.3982 -13.8052 0.552 0.831 0.072 25 18 18 0 0
0.8199 1.7892 -13.7730 0.266 0.782 0.564 36 9 6 0 0
0.8219 1.8134 -13.7913 0.080 0.578 0.812 34 8 3 0 0
1.1614 1.6546 -16.6842 0.055 0.463 0.885 99 99 98 0 0
1.1641 1.6770 -16.7085 -0.335 -0.159 0.929 108 108 109 0 0
0.7023 2.1200 -12.5379 0.495 0.261 0.829 111 41 25 0 0
0.8519 1.5998 -13.7815 0.186 0.354 0.917 9 3 3 0 0
0.8458 1.9465 -13.7452 0.478 0.497 0.724 60 11 5 0 0
0.8465 1.9817 -13.7529 0.545 0.746 0.382 86 30 14 0 0
0.9437 2.0770 -14.5799 0.667 0.739 -0.092 116 76 65 0 0
1.1250 1.7020 -16.0975 0.883 0.396 0.252 53 50 51 0 0
1.1902 1.5550 -16.6431 0.088 0.580 0.810 79 76 73 0 0
1.1959 1.6838 -16.6969 -0.330 -0.105 0.938 112 112 114 0 0
0.8813 1.6038 -13.7745 0.172 0.901 0.398 10 1 2 0 0
0.8783 1.9621 -13.7680 0.480 0.778 0.406 119 65 41 0 0
0.8841 1.9945 -13.8191 0.474 0.752 0.459 78 30 10 0 0
1.0606 1.8491 -15.2919 0.631 0.759 -0.161 94 67 58 0 0
1.2233 1.5098 -16.6397 0.388 0.473 0.791 74 73 69 0 0
1.2336 1.6049 -16.7314 -0.179 0.078 0.981 109 109 112 0 0
0.9146 1.3640 -13.7855 0.130 0.796 0.591 18 8 7 0 0
1.0966 1.8113 -15.3273 0.653 0.734 -0.188 107 73 63 0 0
1.2474 1.4024 -16.5574 0.621 0.702 -0.349 49 44 42 0 0
1.2539 6.4434 -16.9162 0.806 0.193 0.560 212 212 212 0 0
1.2577 6.4555 -16.9490 0.857 0.162 0.489 213 213 213 0 0
0.9690 -1.4693 -13.7891 -0.073 -0.299 0.951 116 58 46 0 0
0.9406 1.9342 -13.7877 0.545 0.729 0.414 110 64 34 0 0
0.9990 2.0700 -14.2788 0.509 0.751 0.420 123 74 62 0 0
1.2791 1.3678 -16.5422 0.668 0.676 -0.313 48 44 41 0 0
1.2928 1.3548 -16.6540 0.606 0.794 -0.048 58 54 50 0 0
1.2915 1.4910 -16.6524 0.261 0.415 0.872 84 82 84 0 0
1.2980 1.5710 -16.7116 -0.255 0.049 0.966 111 109 111 0 0
0.8316 1.4833 -12.6170 0.132 0.855 0.502 112 48 33 0 0
0.8361 1.4845 -12.6537 0.521 0.775 0.358 112 46 33 0 0
0.9683 1.5833 -13.7427 0.062 0.624 0.779 29 12 11 0 0
0.9714 1.5984 -13.7696 -0.268 0.511 0.817 36 10 8 0 0
1.0078 2.0343 -14.1008 0.603 0.784 0.148 112 65 50 0 0
1.0317 1.9270 -14.2884 0.407 0.738 0.539 97 55 35 0 0
1.0319 1.9659 -14.2927 0.343 -0.073 0.936 113 68 51 0 0
1.0309 2.0141 -14.2880 0.387 -0.078 0.919 125 77 63 0 0
0.8603 1.4434 -12.6095 -0.192 0.903 0.383 113 50 35 0 0
0.8638 1.4532 -12.6391 -0.212 0.936 0.282 110 47 32 0 0
0.8701 1.6023 -12.7028 -0.070 0.084 0.994 108 41 29 0 0
0.8717 1.6293 -12.7177 -0.279 0.125 0.952 107 41 29 0 0
1.0637 1.9120 -14.2996 0.317 0.767 0.557 100 56 38 0 0
1.2470 1.5623 -15.7576 0.565 0.825 0.024 96 56 48 0 0
1.3532 1.2668 -16.5944 0.744 0.641 -0.187 46 41 38 0 0
1.0402 -0.5964 -13.6351 -0.402 0.256 0.879 130 72 50 0 0
0.9027 1.4480 -12.7161 -0.144 0.507 0.850 110 44 31 0 0
0.9003 1.6307 -12.7135 -0.308 0.095 0.946 105 41 29 0 0
1.0289 1.5350 -13.7395 0.212 0.557 0.803 29 11 9 0 0
1.0949 1.9033 -14.3047 0.482 0.837 0.258 117 71 55 0 0
1.3255 1.4802 -16.1217 0.581 0.811 -0.059 52 42 41 0 0
1.0711 -0.5864 -13.6239 -0.402 0.256 0.879 123 61 41 0 0
0.9510 0.9111 -12.8143 0.620 -0.377 0.688 113 60 51 0 0
0.9324 1.4415 -12.7185 0.005 0.140 0.990 107 41 29 0 0
0.9579 1.8672 -12.9644 0.828 0.548 0.118 98 59 48 0 0
1.0829 1.8654 -13.9621 0.580 0.592 0.560 86 34 17 0 0
1.3196 1.5001 -15.8150 0.646 0.726 0.237 87 43 35 0 0
1.3614 1.4549 -16.1447 0.654 0.755 -0.050 49 41 39 0 0
1.1187 -1.1877 -13.6806 0.000 0.291 0.957 122 56 40 0 0
1.1190 -1.1435 -13.6877 0.252 0.138 0.958 113 52 38 0 0
0.9552 1.8479 -12.7110 0.468 0.255 0.846 138 64 30 0 0
1.4770 1.5527 -16.8107 0.759 0.268 0.594 134 135 137 0 0
1.1688 -1.4845 -13.7809 -0.726 0.229 0.649 118 56 43 0 0
0.9831 1.6190 -12.6765 0.073 0.282 0.957 107 44 33 0 0
0.9848 1.7615 -12.7065 0.267 0.154 0.951 139 58 31 0 0
0.9850 1.7985 -12.7126 0.267 0.154 0.951 140 63 32 0 0
1.1171 1.6240 -13.7298 0.160 0.551 0.819 46 8 4 0 0
1.2273 1.7147 -14.6059 0.506 0.776 0.375 88 53 42 0 0
1.5344 1.3548 -16.9764 0.882 0.416 0.220 132 132 134 0 0
1.5320 1.4105 -16.9646 0.838 0.523 0.159 135 136 138 0 0
1.0101 1.6717 -12.6666 0.410 0.436 0.801 107 42 30 0 0
1.0149 1.7109 -12.7088 0.291 0.146 0.945 131 55 27 0 0
1.0149 1.7495 -12.7137 0.275 0.170 0.946 143 67 34 0 0
1.1450 1.5987 -13.7090 0.015 0.646 0.763 35 4 1 0 0
1.1470 1.6225 -13.7279 0.138 0.600 0.788 58 13 3 0 0
1.2573 1.6792 -14.5940 0.226 0.971 0.080 57 33 29 0 0
1.2622 1.6840 -14.6324 0.350 0.711 0.610 39 23 20 0 0
1.2699 1.7470 -14.7003 0.603 0.797 -0.045 108 54 39 0 0
1.3239 1.5663 -15.0993 -0.083 0.898 0.432 113 65 52 0 0
1.4022 1.4285 -15.6925 0.570 0.822 -0.017 94 50 43 0 0
1.2168 -1.1442 -13.6784 -0.323 0.352 0.879 114 58 42 0 0
1.3563 1.5578 -15.1042 -0.403 0.887 0.226 107 56 43 0 0
1.5058 1.2758 -16.2234 0.858 0.512 0.035 45 35 34 0 0
1.5639 1.4658 -16.6973 -0.410 0.346 0.844 120 120 121 0 0
1.5780 1.4576 -16.8049 -0.295 0.953 -0.074 130 130 131 0 0
1.5858 1.4485 -16.8645 -0.167 0.972 -0.163 134 134 136 0 0
1.5905 1.4596 -16.9019 -0.067 0.992 -0.105 137 138 140 0 0
1.5985 1.4501 -16.9624 -0.113 0.994 -0.000 141 142 144 0 0
1.2425 -0.7285 -13.6792 -0.222 0.180 0.958 147 88 60 0 0
1.0962 1.7549 -12.8934 0.717 0.690 0.097 93 42 25 0 0
1.1018 1.7504 -12.9357 0.694 0.720 -0.025 97 58 46 0 0
1.1105 1.7226 -12.9985 0.738 0.655 -0.160 47 17 11 0 0
1.1259 1.6824 -13.1112 0.754 0.647 -0.117 23 9 6 0 0
1.1916 1.4216 -13.5796 -0.480 0.737 0.476 14 4 3 0 0
1.1967 1.4226 -13.6190 -0.531 0.663 0.528 16 3 3 0 0
1.4074 1.4624 -15.2408 -0.067 0.996 0.062 99 55 43 0 0
1.5474 1.2172 -16.2813 0.903 0.427 0.050 43 35 33 0 0
1.6009 1.4799 -16.7270 -0.127 0.948 0.291 126 126 126 0 0
1.6090 1.4695 -16.7878 -0.102 0.990 -0.095 131 131 132 0 0
1.2668 -0.3170 -13.6747 0.001 0.058 0.998 138 86 63 0 0
1.1075 1.5443 -12.7275 0.420 0.196 0.886 120 51 33 0 0
1.1419 1.7033 -13.0122 0.906 0.395 0.152 32 9 3 0 0
1.1521 1.6653 -13.0842 0.816 0.578 0.004 24 8 5 0 0
1.1577 1.6619 -13.1260 0.862 0.495 0.108 23 9 5 0 0
1.2002 1.4997 -13.4268 -0.059 0.995 0.079 16 5 3 0 0
1.2641 1.6921 -13.9401 0.385 0.804 0.453 87 35 18 0 0
1.3458 1.5841 -14.5471 -0.413 0.883 0.223 68 64 63 0 0
1.3553 1.6356 -14.6261 0.198 0.797 0.571 53 26 16 0 0
1.5608 1.3001 -16.1425 0.896 0.330 0.297 40 33 31 0 0
1.5818 1.2062 -16.2890 0.937 0.321 0.140 40 33 31 0 0
1.6183 1.5349 -16.6135 -0.805 -0.007 0.593 124 124 125 0 0
1.6216 1.5542 -16.6412 -0.641 0.395 0.658 128 128 128 0 0
1.2991 -0.3650 -13.6692 0.005 0.110 0.994 120 57 36 0 0
1.1940 1.6089 -13.1695 0.861 0.496 0.110 23 9 3 0 0
1.2521 1.4913 -13.5912 -0.319 0.937 0.139 27 7 2 0 0
1.3809 1.5919 -14.5790 -0.399 0.721 0.567 48 44 47 0 0
1.3839 1.6107 -14.6037 0.237 0.808 0.540 53 34 28 0 0
1.3882 1.6200 -14.6379 0.539 0.823 0.181 98 54 36 0 0
1.4066 1.6123 -14.7754 0.760 0.650 -0.003 81 22 14 0 0
1.5733 1.3469 -15.9951 0.742 0.651 0.157 37 32 31 0 0
1.6300 1.1087 -16.3878 0.937 0.321 0.140 37 32 29 0 0
1.2148 1.5936 -13.1017 0.490 0.839 -0.237 34 12 5 0 0
1.2563 1.4829 -13.3955 0.057 0.978 0.203 31 10 7 0 0
1.3577 1.6497 -14.1809 0.387 0.651 0.653 73 26 13 0 0
1.3602 1.6705 -14.2031 0.387 0.651 0.653 105 53 33 0 0
1.4738 1.4881 -15.0262 0.589 0.808 -0.021 101 34 14 0 0
1.3897 -1.4480 -13.6887 -0.202 0.167 0.965 117 57 45 0 0
1.2090 1.6211 -12.8434 0.526 0.610 0.593 92 40 20 0 0
1.2114 1.6412 -12.8644 0.527 0.590 0.612 97 37 22 0 0
1.6285 1.3263 -15.9150 0.498 0.416 0.761 39 31 30 0 0
1.7211 0.9933 -16.5501 -0.643 0.536 0.547 33 28 25 0 0
1.2427 1.5494 -12.8634 0.710 0.527 0.467 95 41 25 0 0
1.2441 1.5763 -12.8787 0.687 0.581 0.436 97 35 23 0 0
1.3431 1.4783 -13.5932 0.371 0.861 0.348 87 51 33 0 0
1.6183 1.3165 -15.5967 0.733 0.680 -0.022 72 43 38 0 0
1.4259 -0.6160 -13.6116 -0.235 0.885 0.402 136 65 40 0 0
1.3733 1.4752 -13.5928 -0.006 0.959 0.284 95 57 41 0 0
1.3774 1.4851 -13.6241 0.057 0.945 0.323 96 59 44 0 0
1.7775 0.9733 -16.4662 -0.214 0.650 0.729 28 24 21 0 0
1.7854 0.9659 -16.5224 -0.612 0.311 0.727 30 25 22 0 0
1.7774 1.5587 -16.5675 -0.172 -0.309 0.935 123 123 124 0 0
1.4625 -0.5671 -13.6512 -0.255 0.675 0.692 112 62 47 0 0
1.6208 1.3488 -15.1498 0.141 0.857 0.495 100 44 30 0 0
1.8036 0.9754 -16.4117 -0.435 0.737 0.516 26 21 19 0 0
1.7978 1.0474 -16.1414 0.717 0.685 -0.130 28 26 24 0 0
1.8103 1.0129 -16.2248 0.781 0.615 -0.110 27 23 22 0 0
1.5217 -0.6167 -13.6024 -0.261 0.944 0.201 146 87 56 0 0
1.4107 0.9652 -13.1133 0.440 -0.391 0.809 115 48 27 0 0
1.3973 1.0960 -13.0424 0.551 -0.319 0.771 115 50 32 0 0
1.3874 1.2019 -12.9920 0.554 -0.311 0.772 114 48 29 0 0
1.9257 0.8490 -16.7809 -0.425 -0.170 0.889 61 57 57 0 0
1.9223 0.9076 -16.7681 -0.453 -0.122 0.883 72 68 68 0 0
1.5957 -1.6012 -13.7022 -0.515 0.104 0.851 116 59 50 0 0
1.5514 -0.6423 -13.5786 0.263 0.324 0.909 139 75 47 0 0
1.5521 -0.6061 -13.5908 0.469 0.852 0.233 143 89 60 0 0
1.5598 -0.4969 -13.6673 0.105 0.351 0.930 127 50 28 0 0
1.5606 -0.4615 -13.6798 0.012 0.493 0.870 133 54 29 0 0
1.4308 1.1063 -13.0695 0.601 -0.304 0.739 115 44 24 0 0
1.7356 1.2628 -15.2689 0.748 0.649 0.139 3 4 4 0 0
1.9549 0.8730 -16.7515 0.199 0.279 0.940 64 58 60 0 0
1.9500 0.9396 -16.7301 -0.002 0.436 0.900 72 68 69 0 0
1.5922 -0.4600 -13.6753 -0.136 0.634 0.761 126 48 27 0 0
1.5953 1.3399 -14.0675 0.561 0.753 0.343 98 60 43 0 0
1.5992 1.3526 -14.0974 0.560 0.732 0.388 100 63 48 0 0
1.6030 1.3654 -14.1273 0.560 0.732 0.388 103 65 51 0 0
1.6107 1.3544 -14.1793 0.338 0.798 0.499 96 58 43 0 0
1.7161 1.2671 -14.9055 0.130 0.985 -0.110 10 7 8 0 0
1.7723 1.1946 -15.2879 0.683 0.728 -0.053 3 5 5 0 0
1.7826 1.1715 -15.3559 0.567 0.808 -0.163 2 2 4 0 0
1.6010 1.2726 -13.8776 0.702 0.652 0.289 87 32 18 0 0
1.6322 1.3727 -14.1172 0.581 0.222 0.783 88 49 37 0 0
1.6456 1.3266 -14.2018 0.002 0.999 0.054 94 56 45 0 0
1.7314 1.2127 -14.7794 0.851 0.419 0.316 15 13 13 0 0
1.7607 1.1872 -14.9795 0.737 0.675 0.019 9 7 8 0 0
1.7554 1.2562 -14.9566 0.331 0.934 -0.137 10 7 8 0 0
1.6810 1.2964 -14.2264 -0.004 0.992 -0.124 88 50 39 0 0
1.7293 1.1522 -14.5307 -0.158 0.597 0.787 114 62 47 0 0
1.7326 1.1689 -14.5579 0.108 0.892 0.439 101 51 37 0 0
1.7449 1.2068 -14.6514 0.574 0.318 0.754 47 31 27 0 0
1.7465 1.2344 -14.6683 0.532 0.408 0.742 33 30 29 0 0
1.7533 1.2305 -14.7155 0.574 0.340 0.745 21 19 17 0 0
1.8059 1.1437 -15.0623 0.682 0.730 0.031 8 6 8 0 0
1.8139 1.1340 -15.1162 0.624 0.776 0.090 10 7 9 0 0
1.8354 1.0835 -15.2551 0.723 0.690 -0.041 12 10 9 0 0
2.0542 0.9941 -16.7585 -0.949 0.178 0.259 84 80 79 0 0
2.0568 1.0181 -16.7821 0.607 0.746 0.273 87 85 86 0 0
2.0547 1.0678 -16.7781 0.558 0.800 0.222 92 91 90 0 0
2.0569 1.0939 -16.7993 -0.139 0.075 0.987 98 96 97 0 0
2.0653 1.1632 -16.8729 -0.460 0.724 0.515 112 110 111 0 0
1.7203 -1.1729 -13.7338 -0.169 0.514 0.841 114 48 28 0 0
1.6899 -0.6367 -13.6428 0.197 0.860 0.471 107 44 27 0 0
1.6449 0.7852 -13.6484 -0.539 -0.296 0.789 115 47 28 0 0
1.7594 1.1200 -14.5146 -0.103 0.134 0.986 114 61 48 0 0
1.7569 1.2086 -14.5171 -0.043 -0.060 0.997 92 43 29 0 0
1.7627 1.2481 -14.5656 0.457 -0.013 0.889 82 48 32 0 0
1.9195 1.0476 -15.6049 0.893 0.412 0.181 3 3 5 0 0
1.9638 1.3243 -15.9730 -0.867 0.124 0.482 27 23 21 0 0
2.1082 0.8831 -16.8731 -0.014 0.991 -0.130 83 79 78 0 0
2.1161 0.8792 -16.9269 0.081 0.948 -0.307 86 85 83 0 0
2.0431 2.1861 -16.7134 -0.005 -0.317 0.948 181 181 181 0 0
1.6851 1.0204 -13.7654 0.118 -0.006 0.993 91 45 38 0 0
1.9318 1.0087 -15.4570 -0.030 0.798 0.602 3 3 5 0 0
2.1243 1.2022 -16.8225 -0.789 -0.253 0.559 111 109 111 0 0
2.0761 2.1811 -16.7151 0.594 -0.098 0.798 181 181 181 0 0
1.9015 -2.5653 -14.1926 0.137 -0.507 0.851 126 86 81 0 0
1.7227 0.6055 -13.7151 0.786 0.198 0.585 116 44 25 0 0
1.7140 0.9919 -13.7464 0.802 -0.133 0.582 95 41 35 0 0
1.7190 1.0715 -13.7986 0.554 0.596 0.582 114 55 33 0 0
2.1584 1.0849 -16.7971 -0.903 0.287 0.318 95 93 94 0 0
2.1602 1.1131 -16.8161 -0.893 0.362 0.268 101 99 100 0 0
2.1636 1.1327 -16.8443 -0.726 0.669 0.157 105 103 104 0 0
2.1199 1.4329 -16.6166 0.360 -0.403 0.841 115 115 117 0 0
2.1055 1.5440 -16.5440 0.188 -0.485 0.854 122 122 124 0 0
1.7858 -0.7968 -13.5956 0.627 0.407 0.665 150 86 60 0 0
1.7759 1.0214 -13.9633 0.201 0.976 -0.087 103 44 17 0 0
1.8591 1.0803 -14.5413 0.582 0.712 0.393 94 44 31 0 0
1.8642 1.0880 -14.5771 0.466 0.586 0.663 92 44 32 0 0
1.8651 1.1191 -14.5909 0.660 0.276 0.699 98 51 35 0 0
2.0165 1.0065 -15.5889 0.485 0.453 0.748 6 6 8 0 0
2.0364 0.9720 -15.7154 0.412 0.864 0.288 4 4 6 0 0
2.0385 0.9980 -15.7356 0.236 0.885 0.400 4 4 6 0 0
2.0401 1.0266 -15.7533 -0.396 0.752 0.528 4 4 6 0 0
2.1840 1.1240 -16.7509 -0.734 0.613 0.293 96 95 93 0 0
2.1868 1.1468 -16.7756 -0.730 0.638 0.245 101 100 98 0 0
1.8562 -1.3733 -13.7096 0.106 0.343 0.933 140 79 49 0 0
1.8125 0.1309 -13.7831 -0.173 0.157 0.972 148 82 50 0 0
1.8096 0.1864 -13.7776 -0.030 0.052 0.998 133 61 27 0 0
1.8081 0.2337 -13.7789 0.085 0.070 0.994 121 47 19 0 0
1.8083 0.2704 -13.7890 0.132 -0.058 0.990 113 40 21 0 0
1.7640 0.8748 -13.6390 -0.993 0.004 0.117 114 44 26 0 0
1.7671 0.8923 -13.6643 -0.958 -0.142 0.251 113 45 25 0 0
1.8242 0.9525 -14.0632 0.644 0.765 0.010 117 51 21 0 0
1.8293 0.9592 -14.0989 0.552 0.832 0.065 97 40 24 0 0
1.8354 0.9600 -14.1399 0.486 0.794 0.365 93 48 41 0 0
1.8946 1.0550 -14.5615 0.649 0.647 0.401 90 37 23 0 0
1.8991 1.0660 -14.5942 0.516 0.449 0.729 98 43 30 0 0
1.9011 1.0911 -14.6138 0.660 0.276 0.699 84 40 26 0 0
2.0621 1.0076 -15.6761 -0.395 0.891 0.224 6 6 8 0 0
2.2120 1.1503 -16.7186 -0.691 0.668 0.275 95 94 92 0 0
1.8900 -1.4208 -13.7012 0.150 0.419 0.895 148 89 55 0 0
1.8917 -1.3911 -13.7199 0.377 0.761 0.528 149 89 58 0 0
1.8624 -0.9578 -13.6329 0.328 0.056 0.943 124 59 35 0 0
1.8407 -0.1167 -13.6981 -0.185 0.519 0.834 115 42 22 0 0
1.8434 0.1331 -13.7780 -0.173 0.157 0.972 127 74 47 0 0
1.8412 0.1838 -13.7765 -0.030 0.052 0.998 143 81 47 0 0
1.8399 0.2298 -13.7790 -0.030 0.052 0.998 134 63 30 0 0
1.8372 0.2839 -13.7744 0.018 -0.028 0.999 120 46 21 0 0
1.8326 0.4239 -13.7786 -0.226 -0.094 0.970 115 43 23 0 0
1.8633 0.9399 -14.1129 0.270 0.963 0.002 97 42 29 0 0
1.8701 0.9371 -14.1572 -0.147 0.841 0.521 100 54 46 0 0
1.8791 0.9575 -14.2227 0.148 0.451 0.880 73 27 16 0 0
1.9279 1.0061 -14.5607 0.578 0.704 0.412 81 23 12 0 0
1.9323 1.0179 -14.5927 0.667 0.586 0.460 90 36 21 0 0
1.9356 1.0352 -14.6197 0.667 0.586 0.460 92 43 29 0 0
2.0944 1.2272 -15.7277 0.202 -0.040 0.978 5 5 5 0 0
2.0831 1.3228 -15.6763 -0.403 -0.022 0.915 5 5 6 0 0
2.2575 1.0502 -16.7730 -0.085 -0.448 0.890 89 88 86 0 0
2.2029 1.5445 -16.5316 -0.267 -0.123 0.956 123 121 122 0 0
2.2259 2.0065 -16.8007 0.254 0.683 0.685 181 181 182 0 0
1.9251 9.2846 -16.6105 -0.293 -0.311 0.904 214 214 214 0 0
1.9225 -1.4187 -13.6963 0.037 0.323 0.946 124 62 33 0 0
1.8908 -0.9331 -13.6104 0.740 0.535 0.407 129 61 34 0 0
1.8748 -0.1328 -13.7080 0.039 0.269 0.962 115 38 17 0 0
1.8821 -0.0636 -13.7741 0.089 0.563 0.822 123 51 21 0 0
1.8733 0.0658 -13.7488 -0.200 0.494 0.846 155 97 68 0 0
1.8747 0.1326 -13.7752 -0.250 0.273 0.929 143 99 75 0 0
1.8738 0.1753 -13.7804 -0.092 0.065 0.994 129 78 49 0 0
1.8690 0.2791 -13.7751 0.018 -0.028 0.999 138 67 32 0 0
1.8645 0.3438 -13.7614 0.012 -0.124 0.992 123 48 20 0 0
1.8602 0.4440 -13.7583 -0.140 -0.116 0.983 114 41 21 0 0
1.8454 0.6425 -13.7110 -0.052 -0.319 0.946 115 44 24 0 0
2.0828 0.9101 -15.3541 0.565 0.615 0.550 4 4 5 0 0
2.1091 0.9532 -15.5391 0.337 0.863 0.377 11 11 11 0 0
2.3247 0.7681 -16.9219 -0.411 -0.220 0.885 78 74 71 0 0
2.3000 0.9669 -16.8089 -0.167 -0.444 0.880 84 83 81 0 0
2.2778 1.1518 -16.7090 -0.169 -0.469 0.867 96 95 93 0 0
2.2391 1.4899 -16.5385 0.116 -0.361 0.925 118 116 116 0 0
1.9720 9.2007 -16.7341 0.731 -0.150 0.666 214 214 214 0 0
1.9575 -1.4336 -13.7044 0.002 0.401 0.916 134 72 45 0 0
1.9609 -1.4147 -13.7313 0.239 0.762 0.602 113 45 23 0 0
1.9421 -1.0944 -13.6912 -0.119 0.495 0.860 128 61 38 0 0
1.9065 0.1288 -13.7750 -0.069 0.342 0.937 163 117 89 0 0
1.8924 0.4359 -13.7619 0.153 0.095 0.984 123 48 20 0 0
1.8898 0.8523 -13.8528 0.186 0.755 0.629 111 47 30 0 0
1.8915 0.8784 -13.8709 0.149 0.897 0.415 109 43 25 0 0
1.8927 0.9074 -13.8865 0.325 0.938 0.117 119 52 30 0 0
2.1152 0.9083 -15.3522 -0.248 0.403 0.881 5 5 7 0 0
2.1472 1.1042 -15.6141 -0.395 0.071 0.916 11 9 12 0 0
2.1651 1.1202 -15.7363 0.203 -0.095 0.975 8 8 11 0 0
2.1622 1.1717 -15.7304 0.014 -0.026 1.000 7 7 10 0 0
2.1619 1.2093 -15.7384 -0.463 0.139 0.875 7 7 9 0 0
2.3005 1.2395 -16.6595 -0.076 -0.436 0.897 101 101 99 0 0
2.2940 1.3080 -16.6345 0.012 -0.386 0.923 107 106 104 0 0
2.2985 1.5401 -16.7243 0.596 0.583 0.553 147 147 146 0 0
1.9950 -1.4230 -13.7343 0.239 0.762 0.602 110 42 23 0 0
1.9974 -1.3981 -13.7567 0.083 0.857 0.508 113 45 27 0 0
1.9508 -0.4406 -13.7057 0.292 0.647 0.704 143 77 50 0 0
1.9331 0.0449 -13.7188 -0.055 0.569 0.821 113 36 17 0 0
1.9382 0.1266 -13.7736 0.101 0.376 0.921 152 94 66 0 0
1.9369 0.1715 -13.7770 0.289 0.124 0.949 157 108 80 0 0
1.9266 0.4533 -13.7847 0.344 0.202 0.917 128 51 23 0 0
1.9294 0.4739 -13.8081 0.173 0.364 0.915 120 49 27 0 0
1.9247 0.8631 -13.8811 0.527 0.485 0.698 122 55 33 0 0
2.0005 0.9042 -14.3880 0.725 0.562 0.397 107 41 23 0 0
2.1619 0.7935 -15.4150 0.432 0.452 0.780 3 3 5 0 0
2.1621 1.4782 -15.5980 0.253 -0.222 0.942 7 7 7 0 0
2.3351 1.2313 -16.6644 0.014 -0.426 0.905 103 102 100 0 0
2.3322 1.6426 -16.7545 0.876 0.279 0.394 156 156 155 0 0
2.3452 1.6526 -16.8423 -0.276 -0.320 0.906 163 163 163 0 0
2.0223 9.1287 -16.7122 0.388 -0.078 0.918 214 214 214 0 0
2.0321 9.1256 -16.7757 -0.011 -0.286 0.958 215 215 215 0 0
2.0240 -1.4390 -13.7019 -0.048 0.441 0.896 126 65 37 0 0
2.0106 -1.0382 -13.7234 0.221 0.721 0.657 130 74 55 0 0
2.0142 -1.0212 -13.7514 0.159 0.806 0.570 109 54 36 0 0
1.9812 -0.4710 -13.6859 0.178 0.327 0.928 131 59 32 0 0
1.9847 -0.4538 -13.7130 0.377 0.672 0.637 130 62 41 0 0
1.9999 -0.4312 -13.8182 0.657 0.620 0.429 116 36 17 0 0
1.9694 0.1265 -13.7704 0.122 0.529 0.840 138 73 44 0 0
1.9621 0.4631 -13.8141 0.310 0.255 0.916 124 54 25 0 0
1.9776 0.5198 -13.9300 -0.012 0.639 0.769 116 50 32 0 0
1.9763 0.5638 -13.9332 0.433 0.217 0.875 117 52 34 0 0
1.9618 0.8266 -13.9099 0.659 0.269 0.703 133 75 46 0 0
2.1954 0.7501 -15.4081 0.326 0.509 0.797 2 2 3 0 0
2.1969 0.7787 -15.4257 0.432 0.452 0.780 3 3 5 0 0
2.1962 1.4661 -15.6067 0.201 -0.206 0.958 9 9 10 0 0
2.4015 0.8858 -16.7846 -0.041 -0.532 0.846 82 77 74 0 0
2.3410 1.3977 -16.5295 0.505 -0.121 0.855 110 109 107 0 0
2.3608 1.4468 -16.6714 -0.049 0.066 0.997 133 133 133 0 0
2.3594 1.4890 -16.6743 -0.049 0.066 0.997 140 140 140 0 0
2.3852 1.6182 -16.8767 -0.224 -0.306 0.925 164 164 164 0 0
2.0535 9.0185 -16.7204 0.033 0.655 0.755 215 215 215 0 0
2.0532 9.0425 -16.7251 0.254 0.346 0.903 215 215 215 0 0
2.0264 -1.0146 -13.6197 -0.185 0.908 0.375 133 67 40 0 0
2.0195 -0.4719 -13.7243 0.182 0.729 0.660 118 48 28 0 0
2.0196 -0.4346 -13.7354 0.149 0.563 0.813 113 41 23 0 0
2.0085 0.5204 -13.9262 -0.167 0.578 0.799 117 51 32 0 0
2.0073 0.5633 -13.9304 0.049 0.038 0.998 115 50 32 0 0
1.9976 0.7973 -13.9324 0.659 0.269 0.703 139 84 53 0 0
1.9983 0.8295 -13.9454 0.638 0.621 0.455 115 62 35 0 0
2.4126 1.6785 -16.8547 -0.145 -0.336 0.931 169 169 169 0 0
2.0591 -1.0169 -13.6182 -0.087 0.799 0.595 140 76 49 0 0
2.0519 -0.4753 -13.7238 0.298 0.584 0.755 121 50 30 0 0
2.0395 0.4842 -13.9129 -0.163 0.931 0.326 124 55 30 0 0
2.0350 0.7603 -13.9617 0.690 0.602 0.402 118 62 33 0 0
2.2875 0.6074 -15.5390 0.654 0.692 0.306 4 4 6 0 0
2.2659 0.8273 -15.4620 -0.384 0.183 0.905 6 6 8 0 0
2.2689 1.2428 -15.5973 -0.071 0.287 0.955 19 19 20 0 0
2.4532 1.0308 -16.7206 0.354 -0.234 0.906 93 92 90 0 0
2.4544 1.0614 -16.7369 0.263 -0.378 0.888 99 98 96 0 0
2.4285 1.2207 -16.6150 0.240 -0.473 0.848 104 102 103 0 0
2.1095 9.0477 -16.7609 -0.080 0.425 0.902 214 214 214 0 0
2.1012 -0.9990 -13.6831 0.362 0.729 0.581 110 51 33 0 0
2.0635 0.4869 -13.8660 -0.161 0.820 0.549 132 71 42 0 0
2.3015 1.2037 -15.5872 0.041 0.424 0.905 27 26 27 0 0
2.4636 1.1380 -16.6020 0.650 0.300 0.698 93 93 91 0 0
2.4645 1.1701 -16.6165 0.650 0.300 0.698 100 100 98 0 0
2.4736 1.1630 -16.6730 0.604 0.788 -0.118 106 104 105 0 0
2.0958 0.5153 -13.8795 -0.020 0.740 0.672 127 65 38 0 0
2.3419 1.1622 -15.6253 0.124 0.604 0.787 20 19 20 0 0
2.1701 -1.0243 -13.6962 0.336 0.353 0.873 109 47 30 0 0
2.1545 -0.7048 -13.6919 0.190 0.366 0.911 124 57 30 0 0
2.1549 -0.6698 -13.7052 0.315 0.383 0.869 150 79 41 0 0
2.3660 1.0586 -15.5420 -0.061 0.530 0.846 7 5 6 0 0
2.3717 1.1370 -15.6010 0.018 0.746 0.665 11 9 10 0 0
2.3742 1.1603 -15.6236 -0.183 0.734 0.654 16 14 16 0 0
2.5665 0.8947 -16.7552 0.233 0.228 0.945 90 90 88 0 0
2.2419 -1.7229 -13.7313 0.059 0.186 0.981 126 62 35 0 0
2.1881 -0.7143 -13.6962 0.333 0.470 0.818 125 53 26 0 0
2.1891 -0.6821 -13.7117 0.321 0.448 0.835 132 60 29 0 0
2.1572 0.0146 -13.7209 0.336 0.398 0.854 119 43 20 0 0
2.1590 0.4008 -13.8476 -0.398 0.699 0.594 134 78 59 0 0
2.1623 0.4187 -13.8734 -0.407 0.796 0.449 130 75 55 0 0
2.1594 0.4697 -13.8708 0.226 0.865 0.449 124 64 39 0 0
2.3985 1.0562 -15.5408 0.273 0.560 0.782 9 7 8 0 0
2.4032 1.1395 -15.5949 -0.020 0.428 0.904 9 7 8 0 0
2.4053 1.1642 -15.6159 -0.153 0.513 0.845 12 10 11 0 0
2.4066 1.1934 -15.6324 -0.156 0.494 0.856 19 17 20 0 0
2.4098 1.2832 -15.6794 0.301 0.725 0.619 27 26 29 0 0
2.5931 0.9257 -16.7183 0.229 0.730 0.645 93 93 91 0 0
2.2207 -0.7554 -13.6844 0.373 0.467 0.802 145 70 38 0 0
2.2226 -0.6909 -13.7154 0.265 0.541 0.798 136 63 31 0 0
2.1660 0.1380 -13.6156 -0.258 0.567 0.782 119 43 20 0 0
2.1923 0.3884 -13.8548 0.116 0.665 0.737 125 71 58 0 0
2.3888 0.5494 -15.1245 0.633 0.767 0.103 37 15 11 0 0
2.4186 1.1130 -15.4805 -0.045 0.523 0.851 12 10 11 0 0
2.4352 1.1389 -15.5918 0.070 0.374 0.925 10 8 9 0 0
2.4379 1.1964 -15.6257 -0.283 0.545 0.789 16 14 17 0 0
2.6177 0.9649 -16.6727 0.378 0.698 0.608 96 96 94 0 0
2.6209 0.9861 -16.6991 0.378 0.698 0.608 102 99 98 0 0
2.5635 1.4928 -16.4959 0.328 -0.014 0.945 140 140 140 0 0
2.2461 8.9231 -16.7790 0.048 0.987 0.156 215 215 215 0 0
2.2589 8.9137 -16.8556 -0.030 0.860 0.510 211 211 211 0 0
2.2610 8.9314 -16.8743 -0.047 0.652 0.756 212 212 212 0 0
2.3104 -1.7753 -13.7225 0.087 0.270 0.959 130 65 36 0 0
2.3101 -1.7345 -13.7334 0.061 0.273 0.960 154 89 58 0 0
2.3106 -1.6986 -13.7478 0.186 0.515 0.837 137 72 46 0 0
2.2557 -0.6972 -13.7171 0.023 0.789 0.615 155 85 50 0 0
2.4235 0.5005 -15.1221 0.687 0.695 0.212 37 14 9 0 0
2.4906 0.6739 -15.5897 -0.099 0.294 0.951 13 11 14 0 0
2.4889 0.7179 -15.5926 0.025 0.113 0.993 14 12 13 0 0
2.2884 8.9022 -16.8755 0.610 0.788 0.090 213 213 213 0 0
2.2953 8.9080 -16.9197 0.351 0.175 0.920 213 213 213 0 0
2.3443 -1.7799 -13.7226 0.061 0.273 0.960 127 62 33 0 0
2.3442 -1.7406 -13.7347 0.056 0.492 0.869 128 62 37 0 0
2.3456 -1.7098 -13.7530 0.121 0.569 0.813 120 53 35 0 0
2.3157 -1.3448 -13.6831 0.017 0.132 0.991 129 64 41 0 0
2.2889 -0.7409 -13.7074 0.227 0.615 0.755 134 60 30 0 0
2.2831 -0.1945 -13.8426 0.358 -0.231 0.905 119 43 20 0 0
2.4680 0.4399 -15.1753 0.656 0.754 0.023 32 11 8 0 0
2.5317 0.3450 -15.5366 0.269 0.910 0.317 3 3 5 0 0
2.5250 0.6644 -15.5952 -0.255 0.659 0.707 15 13 16 0 0
2.5271 0.6901 -15.6161 -0.176 0.494 0.851 16 14 15 0 0
2.5281 0.7210 -15.6318 -0.030 0.388 0.921 16 14 15 0 0
2.5297 0.8197 -15.6726 0.038 0.135 0.990 16 14 15 0 0
2.3237 8.8997 -16.9329 -0.675 0.092 0.732 213 213 213 0 0
2.3368 -1.2797 -13.6301 0.415 0.872 0.261 133 67 41 0 0
2.3405 -1.2627 -13.6582 0.469 0.860 0.201 141 77 50 0 0
2.3508 -1.2448 -13.7269 0.138 0.790 0.597 117 58 41 0 0
2.3224 -0.7492 -13.7107 0.227 0.615 0.755 133 59 29 0 0
2.2932 -0.0077 -13.7673 -0.483 0.515 0.708 119 43 24 0 0
2.4577 0.4344 -14.9105 0.694 0.720 0.028 57 17 6 0 0
2.5541 0.6446 -15.5649 -0.308 0.726 0.616 11 9 12 0 0
2.5565 0.6688 -15.5873 -0.441 0.682 0.583 15 13 16 0 0
2.5618 0.7147 -15.6342 -0.499 0.561 0.660 19 17 18 0 0
2.5644 0.7382 -15.6572 -0.412 0.344 0.844 18 16 17 0 0
2.7523 1.3071 -16.9830 0.638 0.741 0.210 171 171 171 0 0
2.3492 8.8983 -16.9310 -0.522 0.750 0.406 213 213 213 0 0
2.3439 8.9347 -16.9099 -0.664 0.701 0.260 214 214 214 0 0
2.4237 -2.0108 -13.7218 0.193 0.129 0.973 122 74 58 0 0
2.4153 -1.8458 -13.7238 0.092 0.162 0.983 131 67 41 0 0
2.4138 -1.7599 -13.7425 -0.065 0.577 0.814 128 62 38 0 0
2.4156 -1.7314 -13.7626 -0.065 0.577 0.814 107 41 24 0 0
2.3751 -1.3122 -13.6516 0.460 0.701 0.545 136 67 42 0 0
2.3846 -1.2519 -13.7290 0.138 0.686 0.714 107 46 30 0 0
2.5638 1.1696 -15.5920 0.138 0.340 0.930 69 67 70 0 0
2.5737 1.3313 -15.7039 0.078 0.926 0.369 59 55 52 0 0
2.5676 1.4271 -15.6979 0.293 0.345 0.892 67 63 60 0 0
2.4497 -1.8530 -13.7259 0.092 0.162 0.983 126 61 33 0 0
2.4106 -1.3284 -13.6607 0.460 0.701 0.545 137 68 42 0 0
2.3821 0.3159 -14.0246 0.545 0.707 0.450 126 64 36 0 0
2.6186 0.6812 -15.5677 -0.229 0.804 0.549 10 8 11 0 0
2.6198 0.7107 -15.5847 -0.345 0.595 0.726 11 9 12 0 0
2.5722 -2.7898 -13.9481 0.023 0.174 0.984 212 212 214 0 0
2.5001 -2.1043 -13.7425 0.017 -0.048 0.999 117 74 61 0 0
2.4432 -1.3286 -13.6576 0.388 0.871 0.300 138 73 48 0 0
2.4502 -1.2919 -13.7119 0.057 0.958 0.282 111 54 35 0 0
2.4501 -1.2535 -13.7237 -0.028 0.350 0.936 101 41 22 0 0
2.4170 0.2273 -14.0140 0.112 0.323 0.940 113 58 29 0 0
2.4167 0.2641 -14.0242 0.228 0.549 0.804 118 59 29 0 0
2.6505 0.6836 -15.5617 -0.136 0.863 0.487 8 6 9 0 0
2.6523 0.7101 -15.5816 -0.146 0.697 0.702 9 7 10 0 0
2.6556 0.7302 -15.6079 -0.125 0.622 0.773 11 9 12 0 0
2.3970 8.8959 -16.7523 -0.397 0.603 0.692 212 212 212 0 0
2.3986 8.9149 -16.7680 -0.397 0.603 0.692 211 211 211 0 0
2.3982 8.9616 -16.7810 0.591 0.478 0.650 214 214 214 0 0
2.5873 -2.5218 -13.9195 0.113 -0.406 0.907 156 143 138 0 0
2.5580 -2.3187 -13.8131 0.028 -0.269 0.963 110 77 70 0 0
2.4855 -1.3066 -13.7200 -0.273 0.822 0.499 103 43 26 0 0
2.4816 -1.2477 -13.7159 -0.216 0.178 0.960 105 43 26 0 0
2.4819 -0.8052 -13.8658 -0.398 0.887 0.233 112 35 16 0 0
2.4491 0.1886 -14.0022 0.233 0.397 0.888 116 59 33 0 0
2.4762 0.3337 -14.2119 0.751 0.613 0.244 69 15 5 0 0
2.7042 0.3386 -15.5700 -0.210 0.453 0.866 12 10 11 0 0
2.7038 0.3762 -15.5800 -0.393 0.754 0.526 11 11 13 0 0
2.7024 0.4179 -15.5858 -0.742 0.434 0.510 11 11 13 0 0
2.6823 0.6508 -15.5442 0.487 0.585 0.649 10 8 11 0 0
2.6850 0.6737 -15.5677 0.281 0.820 0.499 10 8 11 0 0
2.6766 0.8164 -15.5654 0.094 0.567 0.818 10 8 11 0 0
2.6874 0.9413 -15.6716 0.290 0.337 0.895 29 28 28 0 0
2.6575 1.3483 -15.6293 0.434 0.665 0.608 65 61 60 0 0
2.4228 8.9166 -16.7597 -0.116 0.912 0.393 214 214 214 0 0
2.4250 8.9341 -16.7787 0.001 0.848 0.529 215 215 215 0 0
2.5165 -1.2980 -13.7101 0.133 0.430 0.893 104 42 25 0 0
2.5138 -1.2459 -13.7113 0.062 0.025 0.998 109 46 29 0 0
2.4848 0.1668 -14.0174 0.491 0.552 0.673 110 53 25 0 0
2.7236 0.3284 -15.4845 0.557 0.590 0.584 12 10 11 0 0
2.7284 0.3422 -15.5171 0.462 0.527 0.713 12 10 11 0 0
2.7334 0.3547 -15.5510 0.115 0.061 0.992 12 10 11 0 0
2.6880 1.3198 -15.6087 -0.349 0.294 0.890 68 64 63 0 0
2.4576 8.8238 -16.7829 0.464 0.754 0.464 213 213 213 0 0
2.4613 8.8378 -16.8096 0.513 0.688 0.513 211 211 211 0 0
2.4566 8.8721 -16.7933 -0.114 0.589 0.800 214 214 214 0 0
2.4486 8.9141 -16.7603 -0.111 0.877 0.468 215 215 215 0 0
2.5529 -1.3183 -13.7223 0.369 0.425 0.827 106 44 26 0 0
2.5468 -1.2489 -13.7103 0.120 -0.032 0.992 115 49 34 0 0
2.5363 -1.0458 -13.7180 0.257 0.160 0.953 139 68 40 0 0
2.5187 0.1542 -14.0248 0.656 0.453 0.604 124 63 36 0 0
2.7478 0.0834 -15.3472 0.810 0.546 0.214 19 7 9 0 0
2.7625 0.1939 -15.4712 0.241 0.757 0.607 7 5 6 0 0
2.7647 0.3606 -15.5416 0.541 0.354 0.763 13 11 12 0 0
2.7554 0.6831 -15.5970 -0.056 0.344 0.937 14 14 15 0 0
2.7453 0.8318 -15.5887 0.164 0.591 0.790 12 11 11 0 0
2.7531 0.8665 -15.6464 0.064 0.707 0.705 18 16 17 0 0
2.7527 0.9374 -15.6680 0.051 0.501 0.864 23 21 23 0 0
2.4870 8.7903 -16.7926 -0.031 0.617 0.786 215 215 215 0 0
2.4808 8.8280 -16.7693 0.328 0.321 0.888 213 213 213 0 0
2.4820 8.8710 -16.7908 -0.075 0.083 0.994 214 214 214 0 0
2.6828 -2.6033 -13.8423 0.160 -0.075 0.984 210 211 214 0 0
2.7008 -2.6627 -13.9274 0.160 -0.230 0.960 210 207 207 0 0
2.5862 -1.3216 -13.7215 0.315 0.237 0.919 109 45 28 0 0
2.7892 0.0079 -15.3682 0.693 0.494 0.525 20 10 11 0 0
2.8019 -0.0147 -15.4346 0.496 0.736 0.461 8 4 4 0 0
2.8110 0.0153 -15.4978 0.443 0.828 0.345 4 3 4 0 0
2.8048 0.3272 -15.5698 0.451 0.182 0.874 15 13 14 0 0
2.8081 0.4885 -15.6445 -0.089 0.292 0.952 17 17 19 0 0
2.7849 0.8340 -15.6288 -0.112 0.522 0.846 24 22 23 0 0
2.7861 0.8631 -15.6460 0.064 0.707 0.705 17 15 16 0 0
2.7863 0.8967 -15.6587 0.291 0.693 0.660 21 19 20 0 0
2.7857 1.0365 -15.7035 0.586 0.220 0.780 49 45 44 0 0
2.6060 -1.0716 -13.7315 0.451 0.272 0.850 126 55 24 0 0
2.6063 -1.0367 -13.7456 0.344 0.483 0.805 129 54 24 0 0
2.8262 0.0955 -15.4194 0.363 0.380 0.851 5 3 4 0 0
2.8399 0.4920 -15.6375 -0.154 0.363 0.919 18 18 20 0 0
2.8482 0.4904 -15.6851 -0.486 0.586 0.649 18 18 20 0 0
2.8168 0.8353 -15.6237 0.041 0.644 0.764 46 44 45 0 0
2.8190 0.8604 -15.6450 0.041 0.644 0.764 19 17 18 0 0
2.8192 0.8935 -15.6582 0.135 0.598 0.790 34 32 33 0 0
2.8171 0.9369 -15.6611 -0.133 0.632 0.764 59 57 59 0 0
2.8187 0.9643 -15.6798 -0.071 0.259 0.963 65 63 64 0 0
2.5252 8.7724 -16.7089 0.160 0.944 0.289 215 215 215 0 0
2.5291 8.7861 -16.7361 0.307 0.886 0.346 215 215 215 0 0
2.5379 8.7882 -16.7877 -0.200 0.883 0.425 215 215 215 0 0
2.5547 8.8172 -16.8955 0.138 0.941 0.308 214 214 214 0 0
2.7277 -2.3242 -13.8005 -0.437 -0.147 0.887 122 83 72 0 0
2.7001 -2.0250 -13.7474 0.124 0.121 0.985 153 87 51 0 0
2.6556 -1.5654 -13.6528 0.388 0.433 0.814 124 63 40 0 0
2.6415 -1.0875 -13.7406 0.304 0.262 0.916 143 70 33 0 0
2.6406 -1.0464 -13.7499 0.216 0.762 0.610 136 59 27 0 0
2.8732 0.2792 -15.5623 -0.259 0.473 0.842 10 8 9 0 0
2.8741 0.3102 -15.5786 -0.260 0.454 0.852 12 10 11 0 0
2.8735 0.3829 -15.6009 -0.469 0.350 0.811 25 23 26 0 0
2.8739 0.4161 -15.6149 -0.469 0.350 0.811 29 27 30 0 0
2.8722 0.4932 -15.6326 -0.154 0.363 0.919 22 22 24 0 0
2.8769 0.5076 -15.6646 -0.108 0.661 0.742 21 21 23 0 0
2.8489 0.8361 -15.6192 0.246 0.646 0.723 46 45 45 0 0
2.8519 0.8574 -15.6442 0.041 0.644 0.764 24 22 23 0 0
2.8520 0.8913 -15.6567 0.168 0.680 0.714 47 45 46 0 0
2.8491 0.9379 -15.6563 -0.133 0.632 0.764 68 66 67 0 0
2.5584 8.7758 -16.7529 0.337 0.898 0.282 215 215 215 0 0
2.5689 8.7739 -16.8128 -0.478 0.824 0.303 213 213 213 0 0
2.7361 -2.0389 -13.7544 0.148 0.490 0.859 148 83 49 0 0
2.7381 -2.0112 -13.7754 0.106 0.649 0.754 123 60 31 0 0
2.6741 -1.0888 -13.7383 0.103 0.331 0.938 141 67 32 0 0
2.6738 -1.0509 -13.7501 0.099 0.787 0.608 153 78 39 0 0
2.6595 0.0470 -14.0609 0.304 0.543 0.783 119 53 27 0 0
2.9059 0.3143 -15.5711 -0.260 0.454 0.852 11 9 10 0 0
2.8840 0.8239 -15.6276 0.062 0.607 0.792 37 37 37 0 0
2.8917 0.9614 -15.7214 -0.143 0.621 0.770 79 79 77 0 0
2.6099 8.3658 -16.7539 0.048 0.932 0.360 213 213 213 0 0
2.6131 8.3814 -16.7777 -0.466 0.662 0.587 212 212 212 0 0
2.6217 8.4072 -16.8364 -0.418 0.679 0.603 211 211 211 0 0
2.5859 8.7698 -16.7608 0.328 0.891 0.313 213 213 213 0 0
2.5913 8.7800 -16.7954 0.328 0.891 0.313 211 211 211 0 0
2.5987 8.7855 -16.8399 0.345 0.870 0.352 213 213 213 0 0
2.8518 -2.8153 -13.9396 -0.171 0.279 0.945 213 213 215 0 0
2.7082 -1.0974 -13.7417 0.138 0.600 0.788 125 51 24 0 0
2.7189 -0.8979 -13.8748 0.089 0.281 0.956 117 42 21 0 0
2.6959 -0.1843 -14.0018 0.279 0.297 0.913 108 46 28 0 0
2.9382 0.4205 -15.6034 -0.064 0.497 0.865 15 13 16 0 0
2.9410 0.4775 -15.6404 -0.036 0.793 0.609 26 26 28 0 0
2.9454 0.4933 -15.6711 0.019 0.904 0.427 28 28 30 0 0
2.9131 0.7686 -15.5865 -0.189 0.477 0.859 36 36 36 0 0
2.9189 0.8464 -15.6476 0.142 0.738 0.660 31 30 31 0 0
2.9297 0.9372 -15.7420 -0.387 0.533 0.753 82 81 79 0 0
3.1182 0.9551 -16.8242 -0.218 0.054 0.974 162 162 164 0 0
2.6338 8.3694 -16.7421 -0.406 0.793 0.453 212 212 212 0 0
2.6099 8.7494 -16.7430 0.466 0.466 0.753 212 212 212 0 0
2.6137 8.7631 -16.7701 0.499 0.760 0.417 211 211 211 0 0
2.6219 8.7898 -16.8263 0.270 0.795 0.543 214 214 214 0 0
2.7418 -1.1033 -13.7430 0.138 0.600 0.788 128 54 26 0 0
2.7128 -0.6041 -13.7615 0.196 0.975 -0.106 115 40 21 0 0
2.9766 -0.1654 -15.4187 0.703 0.550 0.452 10 4 4 0 0
2.9707 0.5244 -15.6372 -0.003 0.365 0.931 27 27 29 0 0
2.9847 0.8087 -15.8203 -0.177 0.984 0.006 82 82 82 0 0
3.1268 1.1551 -16.7532 0.551 0.551 0.627 176 177 179 0 0
2.6683 8.4173 -16.8070 -0.351 0.790 0.502 215 215 215 0 0
2.6379 8.7651 -16.7614 0.212 0.815 0.540 214 214 214 0 0
2.6488 8.7855 -16.8306 0.141 0.886 0.441 214 214 214 0 0
2.9172 -2.7986 -13.9208 -0.351 0.141 0.926 212 212 214 0 0
2.8403 -2.0595 -13.7597 0.090 0.698 0.710 123 64 36 0 0
2.7948 -1.6434 -13.6571 0.587 0.451 0.672 131 66 42 0 0
2.7994 -1.6294 -13.6879 0.457 0.824 0.334 144 76 45 0 0
2.7494 -0.6617 -13.7631 -0.336 0.929 0.155 116 41 22 0 0
2.7666 -0.1148 -14.0622 0.469 0.302 0.830 126 61 35 0 0
3.0324 -0.0173 -15.5978 0.692 0.330 0.642 16 14 15 0 0
3.0346 0.0085 -15.6196 0.691 0.352 0.631 15 13 14 0 0
3.0354 0.0401 -15.6359 0.619 0.434 0.655 15 13 14 0 0
3.0200 0.1761 -15.5995 0.392 0.262 0.882 15 13 14 0 0
2.6653 8.7595 -16.7683 0.287 0.774 0.565 214 214 214 0 0
2.9519 -2.8004 -13.9187 -0.372 0.273 0.887 213 213 215 0 0
2.9105 -2.5497 -13.7803 -0.585 0.722 -0.370 211 211 214 0 0
2.8721 -2.0893 -13.7368 0.083 0.658 0.748 116 65 44 0 0
2.8745 -2.0638 -13.7595 0.083 0.658 0.748 107 52 33 0 0
2.8323 -1.6662 -13.6709 0.514 0.657 0.552 137 69 43 0 0
2.8011 -0.1970 -14.0441 0.385 0.346 0.856 124 68 39 0 0
2.8018 -0.1312 -14.0726 0.158 0.278 0.947 114 46 26 0 0
3.0725 -0.0476 -15.6225 0.353 0.274 0.895 19 17 18 0 0
3.0512 0.1835 -15.5888 -0.289 0.114 0.951 16 14 15 0 0
3.0580 0.1892 -15.6293 0.562 0.381 0.734 17 15 16 0 0
3.0516 0.2510 -15.6165 0.535 0.294 0.792 17 15 16 0 0
3.0390 0.4078 -15.6044 0.227 0.199 0.953 15 13 14 0 0
2.9787 -2.7626 -13.8882 -0.460 0.384 0.800 213 213 215 0 0
2.8772 -1.6159 -13.7539 -0.166 0.663 0.730 103 44 26 0 0
2.8740 -1.5638 -13.7558 -0.015 0.092 0.996 105 43 25 0 0
2.8470 -1.1783 -13.7501 0.125 0.736 0.665 126 52 24 0 0
2.8601 -1.0984 -13.8535 0.249 0.340 0.907 108 34 16 0 0
2.8598 -1.0610 -13.8657 0.036 0.276 0.961 111 37 19 0 0
2.8385 -0.2577 -14.0496 0.340 0.282 0.897 121 65 35 0 0
3.0650 0.4698 -15.5870 0.327 0.441 0.835 25 24 26 0 0
3.0739 0.4672 -15.6354 -0.180 0.496 0.850 25 25 27 0 0
3.0138 -2.7668 -13.8879 0.450 0.080 0.890 212 212 214 0 0
2.9066 -1.7085 -13.6961 0.052 0.731 0.680 145 76 46 0 0
2.8815 -1.1884 -13.7546 0.072 0.706 0.705 141 65 35 0 0
2.8740 -0.3094 -14.0474 -0.129 0.186 0.974 119 61 34 0 0
2.8763 -0.2852 -14.0692 0.673 0.549 0.496 128 67 40 0 0
3.1135 0.1975 -15.5681 0.169 0.236 0.957 23 21 22 0 0
3.1193 0.2076 -15.6044 -0.297 0.424 0.856 23 21 22 0 0
2.9740 -2.0238 -13.7617 -0.058 0.279 0.959 115 56 43 0 0
2.9065 -0.4158 -14.0067 -0.040 0.733 0.679 110 47 25 0 0
2.9126 -0.3745 -14.0562 -0.373 0.306 0.876 118 63 36 0 0
2.9160 -0.3555 -14.0824 0.485 0.692 0.534 125 64 40 0 0
3.1434 0.2438 -15.5664 0.022 0.300 0.954 28 26 27 0 0
2.9794 -1.6689 -13.7425 0.140 0.419 0.897 104 47 32 0 0
3.1692 0.4431 -15.6016 0.136 0.855 0.501 56 55 58 0 0
3.4141 0.1253 -16.8216 0.265 -0.209 0.941 105 103 104 0 0
3.0237 -1.8688 -13.7231 0.471 0.061 0.880 138 72 44 0 0
2.9785 -0.4525 -14.0302 -0.295 0.151 0.944 116 57 31 0 0
2.9839 -0.4425 -14.0639 0.420 0.852 0.313 116 60 33 0 0
2.9848 -0.4118 -14.0804 0.633 0.737 0.235 124 65 38 0 0
3.2767 -0.5233 -15.6286 0.301 0.953 -0.026 13 5 3 0 0
3.2870 -0.5309 -15.6818 0.230 0.971 -0.071 12 4 3 0 0
3.2969 -0.5371 -15.7338 0.230 0.971 -0.071 12 3 4 0 0
3.3017 -0.5213 -15.7657 0.206 0.969 0.133 10 3 3 0 0
3.4679 -0.0218 -16.8678 0.769 0.337 0.543 103 101 102 0 0
3.4696 0.0071 -16.8881 0.769 0.337 0.543 104 102 103 0 0
3.4695 0.0428 -16.9015 0.809 0.301 0.505 107 105 106 0 0
3.3848 0.6115 -16.6623 0.030 0.990 0.135 137 135 136 0 0
3.0173 -0.4828 -14.0519 0.583 0.653 0.483 125 67 41 0 0
3.3299 -0.4987 -15.7412 0.113 0.972 0.206 8 1 1 0 0
3.3652 -0.5378 -15.9173 0.748 -0.043 0.662 8 2 2 0 0
3.3343 -0.3405 -15.8275 0.826 0.164 0.539 10 4 4 0 0
3.5431 -0.1797 -17.0235 -0.581 0.616 0.531 102 100 101 0 0
3.5134 -0.0298 -16.9215 0.692 0.624 0.363 104 102 103 0 0
3.4717 0.5474 -16.9226 -0.128 0.456 0.881 162 160 161 0 0
3.0498 -0.5538 -14.0230 0.261 0.065 0.963 123 68 41 0 0
3.3505 -0.4451 -15.6883 0.336 0.739 0.584 7 1 1 0 0
3.3532 -0.2459 -15.7819 0.380 -0.131 0.916 10 4 6 0 0
3.3494 -0.1960 -15.7817 0.379 -0.064 0.923 10 5 7 0 0
3.3431 -0.1356 -15.7715 0.646 0.417 0.639 12 8 9 0 0
3.4824 0.4960 -16.7743 0.584 0.798 0.147 140 138 139 0 0
3.4385 0.9314 -16.7109 -0.515 0.172 0.840 179 179 181 0 0
3.4362 0.9735 -16.7152 -0.580 0.012 0.815 182 182 184 0 0
3.1308 -1.7967 -13.7839 0.426 -0.008 0.905 99 42 29 0 0
3.6322 -0.3266 -17.0632 0.437 0.520 0.734 99 98 99 0 0
3.5919 -0.1023 -16.9372 -0.105 0.425 0.899 100 98 99 0 0
3.4841 0.7847 -16.7146 -0.324 -0.047 0.945 171 170 170 0 0
3.1257 -0.6054 -14.0584 0.330 0.813 0.480 124 68 41 0 0
3.1397 -0.5291 -14.1640 -0.043 0.911 0.411 112 68 54 0 0
3.4147 -0.7143 -15.5564 -0.058 0.837 0.544 21 5 5 0 0
3.6263 -0.1023 -16.9331 -0.105 0.425 0.899 97 96 97 0 0
3.5637 0.4783 -16.8339 -0.365 0.534 0.762 147 145 148 0 0
3.5652 0.5071 -16.8534 -0.365 0.534 0.762 154 152 155 0 0
3.5623 0.5519 -16.8562 -0.471 0.329 0.818 160 160 160 0 0
3.2087 -1.9224 -13.7881 0.344 0.454 0.822 120 65 40 0 0
3.4468 -0.7430 -15.5325 -0.460 0.494 0.738 22 3 2 0 0
3.4501 -0.7211 -15.5588 -0.311 0.786 0.534 19 3 2 0 0
3.4665 -0.5767 -15.7050 -0.652 0.425 0.629 12 2 2 0 0
3.6067 -0.1439 -16.6256 -0.082 0.886 -0.457 87 85 88 0 0
3.6237 -0.1730 -16.7034 0.309 0.926 -0.216 90 88 90 0 0
3.6074 0.1663 -16.7559 -0.002 0.832 0.555 104 102 103 0 0
3.6157 0.2047 -16.8154 0.038 0.929 0.368 116 114 116 0 0
3.6331 0.2439 -16.9239 0.146 0.164 0.976 131 129 132 0 0
3.6308 0.2872 -16.9289 0.177 0.105 0.978 137 135 138 0 0
3.2492 -1.9192 -13.8241 0.168 0.423 0.890 111 50 29 0 0
3.4817 -0.7128 -15.5477 -0.112 0.798 0.592 24 6 3 0 0
3.4985 -0.6398 -15.6662 -0.299 0.080 0.951 25 11 8 0 0
3.4960 -0.5597 -15.6858 -0.526 0.335 0.781 19 7 7 0 0
3.4823 -0.3662 -15.6932 -0.767 -0.360 0.531 9 2 2 0 0
3.4737 -0.2978 -15.6762 -0.843 -0.296 0.450 9 3 3 0 0
3.4704 0.0245 -15.7911 0.387 0.003 0.922 42 14 9 0 0
3.6905 -0.1902 -16.8645 -0.169 0.445 0.880 83 81 82 0 0
