ply
format ascii 1.0
element vertex 853
property float x
property float y
property float z
property float nx
property float ny
property float nz
property uchar diffuse_red
property uchar diffuse_green
property uchar diffuse_blue
property uchar class
property uchar detection
end_header
-1.8808 5.8296 -17.0498 -0.480 0.751 0.453 207 207 209 0 0
-2.5181 3.7701 -12.4419 -0.207 0.593 0.778 126 49 29 0 0
-2.3951 4.0910 -12.4769 0.299 0.581 0.757 123 45 25 0 0
-2.3028 4.3303 -12.4812 0.335 0.745 0.577 121 44 25 0 0
-2.1766 4.7089 -13.2057 -0.132 0.953 0.273 87 44 37 0 0
-2.1750 4.7154 -13.2361 0.025 0.987 0.157 87 47 39 0 0
-2.1817 4.7068 -13.3597 -0.098 0.995 -0.033 88 50 39 0 0
-2.1534 4.8000 -13.6374 0.677 0.311 0.668 91 51 41 0 0
-2.1481 4.8153 -13.6584 0.495 0.250 0.832 90 50 40 0 0
-2.2114 4.7098 -14.4713 -0.094 0.926 0.365 51 12 7 0 0
-2.1823 4.8178 -14.9280 0.017 0.965 0.260 68 20 13 0 0
-2.0246 5.2391 -15.1110 -0.308 0.289 0.906 91 45 32 0 0
-1.9888 5.4068 -16.1557 -0.078 0.701 0.709 68 47 45 0 0
-1.9906 5.4151 -16.3354 0.678 0.472 0.563 78 48 45 0 0
-1.9600 5.4991 -16.4033 0.630 -0.340 0.698 130 123 120 0 0
-1.8901 5.7164 -16.9106 -0.438 0.710 0.551 197 199 198 0 0
-1.8837 5.7347 -16.9324 -0.409 0.767 0.495 199 201 201 0 0
-1.8774 5.7525 -16.9548 -0.409 0.767 0.495 202 202 204 0 0
-1.8712 5.7703 -16.9772 -0.409 0.767 0.495 204 204 206 0 0
-3.0239 2.3778 -12.3438 -0.399 0.440 0.804 120 51 36 0 0
-3.0118 2.4096 -12.3512 -0.287 0.273 0.918 121 52 37 0 0
-2.5663 3.5688 -12.3813 0.622 0.351 0.700 125 49 33 0 0
-2.5071 3.7265 -12.4404 0.420 0.360 0.833 128 51 33 0 0
-2.4854 3.7838 -12.4551 -0.306 0.761 0.572 128 51 31 0 0
-2.3717 4.0808 -12.4783 0.299 0.581 0.757 125 47 27 0 0
-2.2782 4.3236 -12.4792 0.199 0.811 0.550 122 45 26 0 0
-2.2738 4.3365 -12.5015 0.300 0.780 0.549 120 42 24 0 0
-2.2684 4.3519 -12.5210 0.184 0.855 0.485 119 42 24 0 0
-2.1578 4.6472 -12.6390 0.188 0.472 0.861 105 27 3 0 0
-2.1496 4.7072 -13.1980 0.546 0.835 0.073 90 47 38 0 0
-2.1531 4.7059 -13.3128 0.438 0.884 0.166 87 49 40 0 0
-2.1400 4.7496 -13.4537 0.717 0.668 0.200 88 48 40 0 0
-2.1429 4.7452 -13.4973 0.645 0.764 0.020 88 49 41 0 0
-2.1471 4.7376 -13.5447 0.463 0.886 0.021 89 50 42 0 0
-2.1476 4.7388 -13.5820 0.463 0.886 0.021 88 48 40 0 0
-2.1433 4.7518 -13.6058 0.635 0.762 0.126 89 47 40 0 0
-2.1328 4.7818 -13.6485 0.738 0.273 0.618 92 49 42 0 0
-2.1264 4.7997 -13.6666 0.495 0.250 0.832 94 51 44 0 0
-2.1256 4.8042 -13.7003 0.449 0.648 0.615 90 47 38 0 0
-2.2113 4.6295 -14.3931 -0.713 0.328 0.620 78 17 10 0 0
-1.9714 5.3153 -15.3046 -0.075 0.907 0.414 85 51 48 0 0
-1.9649 5.3336 -15.3238 0.138 0.964 0.229 66 39 38 0 0
-1.9601 5.3505 -15.3900 0.121 0.970 0.212 49 29 28 0 0
-1.9582 5.3579 -15.4247 -0.031 0.957 0.288 50 32 32 0 0
-1.9531 5.3871 -15.6565 0.032 0.989 0.147 51 42 40 0 0
-1.9464 5.4293 -16.0144 -0.123 0.851 0.510 56 46 46 0 0
-1.9411 5.4447 -16.0390 -0.123 0.851 0.510 63 49 49 0 0
-1.9615 5.4145 -16.3710 0.415 0.298 0.860 76 49 48 0 0
-1.8531 5.7277 -16.8277 -0.612 0.690 0.387 193 195 193 0 0
-2.4462 3.8136 -12.4524 -0.095 0.233 0.968 126 49 29 0 0
-2.3668 4.0209 -12.4589 0.154 0.861 0.484 132 55 35 0 0
-2.3419 4.0860 -12.4643 -0.216 0.709 0.671 127 49 29 0 0
-2.2587 4.3023 -12.4568 -0.039 0.696 0.716 125 49 28 0 0
-2.2529 4.3186 -12.4755 0.326 0.810 0.487 127 50 31 0 0
-2.2482 4.3322 -12.4969 0.471 0.664 0.581 120 43 25 0 0
-2.1163 4.7000 -12.8626 0.501 0.750 0.431 72 26 15 0 0
-2.1126 4.7113 -12.8868 0.501 0.750 0.431 81 38 28 0 0
-2.1088 4.7227 -12.9109 0.501 0.750 0.431 86 42 34 0 0
-2.1014 4.7431 -12.9252 0.522 0.414 0.746 87 44 37 0 0
-2.1266 4.7239 -13.6280 0.683 0.587 0.433 89 46 39 0 0
-2.1229 4.7354 -13.6536 0.528 0.672 0.519 88 45 38 0 0
-2.2073 4.5663 -14.4178 -0.217 0.939 -0.267 87 24 10 0 0
-2.1845 4.6313 -14.5043 -0.359 0.808 0.467 53 12 5 0 0
-2.1436 4.7633 -14.8887 0.446 0.676 0.587 55 17 10 0 0
-2.0128 5.1165 -15.0768 -0.204 -0.068 0.977 91 43 31 0 0
-1.9415 5.3165 -15.2907 -0.061 0.943 0.326 60 32 30 0 0
-1.9376 5.3285 -15.3187 0.138 0.964 0.229 47 22 22 0 0
-1.9352 5.3368 -15.3519 -0.031 0.957 0.288 49 29 30 0 0
-1.9266 5.3767 -15.6128 0.069 0.984 0.167 51 43 44 0 0
-1.9104 5.4517 -16.1103 0.193 0.707 0.681 66 49 45 0 0
-1.8197 5.7279 -16.7126 -0.345 0.937 0.063 189 188 191 0 0
-1.8168 5.7408 -16.7926 -0.254 0.070 0.965 193 195 194 0 0
-1.7921 5.8050 -16.7911 0.386 0.272 0.881 199 201 200 0 0
-2.5708 3.4108 -12.3739 0.177 0.304 0.936 123 50 33 0 0
-2.5555 3.4528 -12.4044 -0.246 0.083 0.966 125 49 33 0 0
-2.0928 4.6929 -12.8976 0.511 0.797 0.322 84 42 29 0 0
-2.1520 4.6743 -15.0343 0.511 0.857 -0.070 68 19 11 0 0
-1.9217 5.3171 -15.6846 0.774 0.630 -0.059 46 37 39 0 0
-1.9230 5.3168 -15.7310 0.789 0.614 -0.034 33 23 24 0 0
-1.8825 5.4463 -16.1049 0.552 0.602 0.577 64 48 49 0 0
-1.8946 5.4203 -16.1910 -0.017 0.845 0.535 65 46 42 0 0
-1.7857 5.7362 -16.6854 -0.320 0.940 0.119 188 188 190 0 0
-2.9262 2.4057 -12.3647 -0.149 -0.021 0.989 121 49 34 0 0
-2.5468 3.4004 -12.3751 0.177 0.304 0.936 123 49 32 0 0
-2.5302 3.4457 -12.4026 -0.096 0.093 0.991 128 52 36 0 0
-2.5088 3.5026 -12.4189 0.503 0.553 0.664 125 50 32 0 0
-2.3933 3.8066 -12.4418 -0.033 0.326 0.945 127 49 29 0 0
-2.2180 4.2680 -12.4743 0.084 0.497 0.864 125 48 28 0 0
-2.2015 4.3147 -12.5327 0.104 0.721 0.685 118 41 23 0 0
-2.1383 4.5920 -14.3647 -0.064 0.998 0.029 87 23 9 0 0
-1.8601 5.4411 -16.3387 -0.400 0.641 0.655 72 46 43 0 0
-2.7436 2.8100 -12.3845 -0.092 0.201 0.975 122 51 33 0 0
-2.5156 3.4117 -12.4263 0.510 0.139 0.849 126 50 34 0 0
-2.4381 3.6143 -12.4086 0.365 0.161 0.917 127 52 33 0 0
-2.3709 3.7931 -12.4463 -0.159 0.517 0.841 127 50 30 0 0
-2.3011 3.9745 -12.4083 0.169 0.654 0.737 125 47 27 0 0
-2.2958 3.9897 -12.4284 0.263 0.800 0.539 126 48 28 0 0
-2.0636 4.7399 -14.8410 0.299 0.788 0.539 62 16 9 0 0
-1.9760 4.9799 -15.0045 -0.312 0.936 0.162 88 40 28 0 0
-1.8591 5.3097 -15.3972 0.465 0.806 0.366 52 42 43 0 0
-1.8555 5.3210 -15.4266 0.465 0.806 0.366 51 44 44 0 0
-2.8486 2.4553 -12.3397 -0.445 0.385 0.808 121 49 34 0 0
-2.4067 3.6248 -12.4251 -0.032 0.409 0.912 121 45 27 0 0
-2.3413 3.7977 -12.4331 -0.105 0.520 0.848 126 48 28 0 0
-2.0409 4.7212 -14.8107 0.369 0.806 0.462 56 13 7 0 0
-2.0334 4.7419 -14.8270 0.326 0.805 0.496 66 16 8 0 0
-1.9514 4.9681 -15.0083 0.209 0.969 -0.132 88 39 26 0 0
-1.8488 5.2492 -15.2011 0.158 0.708 0.689 45 19 17 0 0
-1.8427 5.2663 -15.2219 0.219 0.853 0.473 42 19 18 0 0
-1.8393 5.2840 -15.3757 0.425 0.881 0.206 49 43 44 0 0
-1.8336 5.3003 -15.3980 0.608 0.772 0.185 46 40 40 0 0
-1.8003 5.4290 -16.1380 0.617 0.278 0.736 51 42 46 0 0
-1.7902 5.4560 -16.1457 0.114 0.927 0.357 61 47 47 0 0
-2.3759 3.6319 -12.4096 -0.236 0.550 0.801 124 47 29 0 0
-2.3679 3.6539 -12.4236 -0.272 0.603 0.750 126 49 31 0 0
-2.3236 3.7705 -12.4158 0.088 0.262 0.961 126 47 28 0 0
-2.3207 3.7797 -12.4420 0.231 0.391 0.891 127 48 28 0 0
-2.0237 4.5799 -12.7283 0.294 0.570 0.767 53 10 4 0 0
-1.9911 4.7134 -13.6284 0.169 0.505 0.847 103 57 37 0 0
-1.9824 4.7371 -13.6396 -0.159 0.666 0.729 88 40 26 0 0
-2.0097 4.6710 -13.7560 -0.138 0.877 0.460 79 34 27 0 0
-1.9995 4.6984 -13.7632 -0.202 0.555 0.807 76 36 28 0 0
-2.0342 4.6238 -14.0904 0.810 0.491 0.321 85 31 19 0 0
-2.0212 4.6744 -14.3962 0.480 0.865 -0.144 39 9 3 0 0
-2.0356 4.6571 -14.7950 0.208 0.729 0.652 31 7 1 0 0
-2.0104 4.7238 -14.7960 -0.025 0.458 0.889 62 15 6 0 0
-2.0079 4.7323 -14.8278 0.333 0.838 0.432 69 17 5 0 0
-2.0567 4.6219 -15.1855 -0.557 0.568 0.606 82 29 13 0 0
-1.8225 5.2419 -15.1990 0.261 0.669 0.696 51 27 26 0 0
-1.8174 5.2566 -15.2231 0.300 0.803 0.516 56 33 33 0 0
-1.8139 5.2718 -15.3356 0.458 0.884 0.089 49 43 42 0 0
-1.7652 5.4435 -16.1508 0.474 0.526 0.706 56 46 48 0 0
-2.8030 2.4227 -12.3516 0.010 0.999 0.031 122 50 35 0 0
-2.3525 3.6205 -12.4120 0.129 0.121 0.984 125 48 28 0 0
-2.3391 3.6561 -12.4127 -0.156 0.702 0.695 126 48 28 0 0
-2.2538 3.8836 -12.4369 -0.266 0.481 0.835 129 51 31 0 0
-2.2458 3.9054 -12.4507 -0.109 0.795 0.596 124 46 26 0 0
-2.2376 3.9277 -12.4638 -0.273 0.922 0.274 125 47 27 0 0
-2.2348 3.9365 -12.4905 -0.273 0.922 0.274 128 50 30 0 0
-2.1647 4.1188 -12.4138 0.317 0.668 0.673 125 48 28 0 0
-2.1582 4.1367 -12.4310 0.406 0.594 0.695 125 48 28 0 0
-2.1446 4.1745 -12.4634 0.040 0.718 0.695 122 44 24 0 0
-2.0014 4.5675 -12.7323 0.082 0.544 0.835 54 9 3 0 0
-1.9987 4.5761 -12.7593 0.003 0.703 0.711 55 10 4 0 0
-2.0525 4.4600 -13.2932 0.969 0.229 -0.095 8 2 2 0 0
-2.0569 4.4507 -13.3414 0.980 0.189 -0.063 9 1 1 0 0
-1.9665 4.7048 -13.6282 0.169 0.505 0.847 103 55 32 0 0
-1.9559 4.7332 -13.6341 -0.148 0.606 0.782 84 35 15 0 0
-2.0314 4.5901 -14.7827 0.575 0.806 0.137 14 2 2 0 0
-1.8064 5.2786 -16.6247 -0.417 0.580 0.700 75 53 49 0 0
-1.7896 5.3384 -16.9318 -0.563 -0.249 0.788 171 170 170 0 0
-2.5187 3.1025 -12.3648 -0.270 0.597 0.756 123 50 31 0 0
-2.3238 3.6211 -12.3676 0.560 0.326 0.762 126 50 30 0 0
-2.3161 3.6423 -12.3823 0.560 0.326 0.762 125 48 28 0 0
-2.2845 3.7273 -12.4054 -0.027 0.449 0.893 124 46 26 0 0
-2.1459 4.0970 -12.4270 0.406 0.465 0.786 125 48 28 0 0
-2.1376 4.1197 -12.4394 0.440 0.557 0.705 124 47 27 0 0
-2.1284 4.1447 -12.4494 0.390 0.313 0.866 125 48 28 0 0
-2.0086 4.4970 -13.1674 0.810 0.572 -0.128 8 2 4 0 0
-2.0301 4.4443 -13.2630 0.942 0.297 -0.158 7 1 2 0 0
-1.9810 4.5922 -13.6319 0.389 0.559 0.733 64 24 17 0 0
-1.9291 4.7302 -13.6274 0.068 0.336 0.939 88 38 13 0 0
-2.0169 4.5641 -15.0617 0.388 0.920 0.053 75 22 9 0 0
-1.9929 4.6321 -15.1488 0.610 0.026 0.792 82 26 13 0 0
-1.9736 4.6822 -15.1277 0.777 0.509 0.372 82 26 13 0 0
-1.7833 5.1823 -14.9927 0.204 0.797 0.569 85 43 34 0 0
-2.2993 3.6125 -12.3672 0.091 0.440 0.893 129 52 32 0 0
-2.2934 3.6290 -12.3864 0.457 0.583 0.672 125 48 28 0 0
-2.1874 3.9136 -12.4250 -0.188 0.851 0.491 127 49 29 0 0
-2.1162 4.1046 -12.4458 0.049 0.418 0.907 124 47 27 0 0
-2.1076 4.1278 -12.4577 -0.176 0.508 0.843 125 48 28 0 0
-2.0992 4.1510 -12.4696 -0.165 0.520 0.838 127 49 29 0 0
-2.0918 4.1713 -12.4843 -0.071 0.746 0.662 124 46 26 0 0
-2.1048 4.1396 -12.5521 -0.017 0.728 0.686 120 42 22 0 0
-1.9487 4.5575 -12.5812 0.162 0.599 0.784 112 40 10 0 0
-1.9479 4.6383 -14.3663 0.145 0.988 -0.060 39 9 5 0 0
-1.9911 4.5539 -15.0631 0.313 0.950 -0.003 78 25 11 0 0
-1.9362 4.7017 -15.0908 -0.273 -0.350 0.896 82 26 13 0 0
-1.8297 4.9776 -14.9057 -0.214 0.483 0.849 85 30 15 0 0
-1.7600 5.1678 -15.0002 -0.075 0.802 0.592 83 46 40 0 0
-1.7531 5.1887 -15.0593 0.271 0.719 0.640 46 18 17 0 0
-2.3519 3.3957 -12.3198 -0.262 0.635 0.727 127 53 34 0 0
-2.2847 3.5784 -12.3914 0.543 0.298 0.785 126 49 29 0 0
-1.9271 4.6211 -14.4591 0.447 0.892 -0.058 49 15 10 0 0
-1.9627 4.5436 -14.8921 0.781 0.499 0.376 60 15 8 0 0
-1.8561 4.8316 -14.9547 -0.522 0.534 0.665 83 27 12 0 0
-1.7431 5.1371 -15.0294 0.124 0.812 0.570 84 50 46 0 0
-1.7374 5.1533 -15.0513 0.259 0.798 0.545 54 26 22 0 0
-1.7963 5.0322 -15.9382 0.850 0.461 0.254 48 41 41 0 0
-1.7929 5.0427 -15.9699 0.770 0.610 0.185 27 20 20 0 0
-1.7862 5.0615 -15.9901 0.774 0.534 0.341 26 14 14 0 0
-1.7827 5.0722 -16.0218 0.653 0.694 0.304 28 14 15 0 0
-1.6045 5.5816 -16.8134 0.379 0.844 -0.380 186 186 188 0 0
-1.5749 5.6658 -16.9327 -0.038 0.637 0.770 200 200 202 0 0
-1.5651 5.6926 -16.9408 -0.074 -0.066 0.995 202 202 204 0 0
-1.5524 5.7264 -16.9376 -0.074 -0.066 0.995 205 205 207 0 0
-2.6997 2.3896 -12.3825 0.013 0.378 0.926 123 51 37 0 0
-2.5118 2.8942 -12.3897 0.585 0.090 0.806 122 49 32 0 0
-2.4440 3.0752 -12.3645 0.459 0.435 0.775 126 54 39 0 0
-2.2793 3.5178 -12.3707 0.144 0.739 0.658 130 53 34 0 0
-2.2690 3.5457 -12.3791 0.363 0.636 0.681 125 47 27 0 0
-2.2631 3.5623 -12.3982 0.324 0.408 0.853 125 49 26 0 0
-2.0291 4.1963 -12.5475 0.158 0.546 0.823 119 42 25 0 0
-1.9005 4.5412 -12.5448 0.342 0.524 0.780 135 63 25 0 0
-1.9331 4.5436 -14.8807 0.530 0.701 0.476 64 16 10 0 0
-1.7179 5.1272 -15.0308 0.409 0.768 0.493 69 39 36 0 0
-1.7760 5.0070 -15.9606 0.850 0.461 0.254 24 15 16 0 0
-1.7712 5.0208 -15.9878 0.770 0.610 0.185 18 9 10 0 0
-1.7684 5.0297 -16.0221 0.694 0.720 0.003 20 10 11 0 0
-1.7701 5.0271 -16.0727 0.690 0.721 -0.069 20 10 11 0 0
-1.6934 5.2395 -16.2407 0.406 0.730 0.550 45 23 21 0 0
-1.4926 5.8058 -16.9480 -0.620 -0.094 0.779 207 207 209 0 0
-3.1141 1.1931 -12.3175 0.417 0.665 0.620 110 51 40 0 0
-2.2677 3.4741 -12.3687 0.596 0.317 0.738 125 50 30 0 0
-1.9881 4.2329 -12.5367 -0.101 0.616 0.781 122 49 31 0 0
-1.8966 4.4864 -12.7371 0.228 0.796 0.561 56 11 5 0 0
-1.8817 4.5886 -14.4769 0.588 0.805 0.082 52 12 6 0 0
-1.7826 4.8712 -14.9232 -0.615 0.542 0.573 84 27 13 0 0
-1.7673 4.9122 -14.9130 -0.115 0.078 0.990 85 28 13 0 0
-1.6988 5.1001 -15.0116 0.436 0.736 0.518 78 47 43 0 0
-1.7620 4.9543 -15.6983 0.439 0.422 0.793 17 7 8 0 0
-1.7554 4.9744 -15.7621 0.367 0.864 0.345 14 5 6 0 0
-1.7531 4.9881 -15.9743 0.703 0.506 0.500 23 13 15 0 0
-1.7496 4.9989 -16.0058 0.770 0.610 0.185 17 7 8 0 0
-1.5571 5.5502 -16.9344 -0.244 0.049 0.968 192 193 195 0 0
-1.5237 5.6405 -16.9437 -0.042 -0.251 0.967 200 200 202 0 0
-2.6160 2.4573 -12.3415 0.249 0.156 0.956 125 53 39 0 0
-1.8709 4.5361 -14.3648 0.609 0.440 0.660 61 12 8 0 0
-1.8654 4.5518 -14.3869 0.715 0.479 0.509 41 6 3 0 0
-1.8611 4.5642 -14.4130 0.758 0.561 0.334 38 8 2 0 0
-1.6745 5.0880 -15.0159 0.376 0.607 0.701 57 31 28 0 0
-1.6680 5.1062 -15.0352 0.376 0.607 0.701 34 13 12 0 0
-1.7431 4.9243 -15.6814 0.260 0.251 0.932 18 9 11 0 0
-1.7369 4.9419 -15.7029 0.395 0.441 0.806 15 6 8 0 0
-1.7360 4.9528 -15.9643 0.635 0.492 0.595 54 42 44 0 0
-1.7315 4.9660 -15.9925 0.781 0.531 0.329 43 31 33 0 0
-1.5065 5.6045 -16.9355 -0.267 -0.004 0.964 198 199 201 0 0
-1.4535 5.7484 -16.9601 0.237 0.833 0.501 206 206 208 0 0
-2.5491 2.5613 -12.3820 -0.205 0.139 0.969 123 51 36 0 0
-2.4490 2.8317 -12.3507 0.149 0.477 0.866 123 51 34 0 0
-2.3740 3.0347 -12.3413 0.137 0.270 0.953 129 56 39 0 0
-2.3375 3.1359 -12.4235 0.043 0.301 0.953 123 48 29 0 0
-2.0650 3.8753 -12.4546 0.595 0.297 0.747 134 56 36 0 0
-1.8475 4.4678 -12.5595 0.142 0.385 0.912 133 53 13 0 0
-1.8454 4.4783 -12.7273 0.175 0.576 0.799 54 9 4 0 0
-1.8483 4.4729 -12.8055 0.261 0.472 0.842 87 49 40 0 0
-1.8413 4.4923 -12.8210 0.297 0.512 0.806 89 57 49 0 0
-1.8445 4.5295 -14.3620 0.642 0.590 0.490 58 12 8 0 0
-1.6921 5.0033 -16.3997 0.460 0.739 0.491 29 13 11 0 0
-2.6394 2.2366 -12.3413 -0.275 0.516 0.811 120 51 35 0 0
-2.5708 2.4224 -12.3203 0.142 0.118 0.983 123 51 36 0 0
-2.3494 3.0247 -12.3420 0.137 0.270 0.953 128 55 38 0 0
-2.3394 3.0521 -12.3519 0.192 0.429 0.883 124 51 34 0 0
-2.0530 3.8332 -12.4521 0.568 0.475 0.672 128 50 29 0 0
-1.8238 4.4592 -12.5595 0.142 0.385 0.912 127 58 24 0 0
-1.8139 4.4861 -12.5668 0.434 0.703 0.563 87 30 8 0 0
-1.8216 4.4695 -12.7275 0.278 0.423 0.862 56 11 6 0 0
-1.8259 4.5025 -14.3837 0.651 0.634 0.418 52 10 6 0 0
-1.8217 4.5147 -14.4102 0.823 0.484 0.297 36 6 3 0 0
-1.8552 4.4385 -14.9667 0.571 0.511 0.643 69 18 9 0 0
-1.6256 5.0641 -15.0240 0.222 0.547 0.807 38 18 17 0 0
-1.6216 5.0757 -15.0520 0.488 0.819 0.303 45 26 26 0 0
-1.6955 4.9091 -16.3298 0.239 0.817 0.525 15 4 5 0 0
-2.3268 3.0095 -12.3475 0.239 0.386 0.891 125 52 35 0 0
-2.3149 3.0422 -12.3526 -0.239 0.652 0.719 126 53 36 0 0
-2.1813 3.4082 -12.4321 0.470 0.193 0.861 123 46 26 0 0
-1.8669 4.2687 -12.5707 0.256 0.466 0.847 152 79 64 0 0
-1.8482 4.3199 -12.5889 0.262 0.736 0.624 163 96 80 0 0
-1.8262 4.3843 -12.7727 0.049 0.459 0.887 51 9 6 0 0
-1.8166 4.4109 -12.7807 0.091 0.623 0.777 60 15 9 0 0
-1.8099 4.4296 -12.7970 0.049 0.459 0.887 79 35 28 0 0
-1.8033 4.4857 -14.3931 0.630 0.770 0.106 47 9 4 0 0
-1.6065 5.0369 -15.0048 0.535 0.639 0.553 36 12 8 0 0
-1.6015 5.0511 -15.0295 0.465 0.572 0.675 55 37 37 0 0
-1.6522 4.9224 -15.4214 0.677 0.674 -0.294 38 27 30 0 0
-1.6671 4.8841 -15.5179 0.630 0.739 -0.237 32 20 22 0 0
-1.6671 4.9033 -16.3248 0.299 0.825 0.479 21 8 8 0 0
-1.6640 4.9149 -16.4520 0.197 0.760 0.619 26 12 11 0 0
-1.6484 4.9570 -16.4396 0.027 0.704 0.709 31 16 13 0 0
-1.6252 5.0204 -16.4443 0.317 0.530 0.787 36 18 14 0 0
-1.4135 5.6093 -16.9351 -0.343 0.282 0.896 200 201 203 0 0
-1.3820 5.6967 -16.9991 -0.112 0.868 0.484 206 206 208 0 0
-2.8284 1.5602 -12.3318 0.266 0.099 0.959 114 50 38 0 0
-2.8159 1.5945 -12.3388 0.266 0.099 0.959 114 50 38 0 0
-2.5823 2.2331 -12.3278 0.168 -0.144 0.975 119 50 33 0 0
-2.3600 2.8416 -12.3516 -0.024 0.757 0.653 124 53 35 0 0
-2.1852 3.3207 -12.4008 -0.020 0.608 0.794 124 49 30 0 0
-2.1754 3.3476 -12.4105 -0.278 0.454 0.846 125 49 29 0 0
-2.0159 3.7847 -12.4472 0.419 0.380 0.824 126 48 26 0 0
-2.0080 3.8063 -12.4612 0.419 0.380 0.824 126 48 26 0 0
-1.9918 3.8507 -12.4527 -0.057 0.324 0.944 127 48 28 0 0
-1.9826 3.8758 -12.4631 0.107 0.301 0.948 128 49 29 0 0
-1.7763 4.4421 -12.5595 0.109 0.527 0.843 112 49 15 0 0
-1.7799 4.4333 -12.6042 0.697 0.716 0.037 64 15 3 0 0
-1.8003 4.3809 -12.7671 0.208 0.104 0.973 56 10 8 0 0
-1.7921 4.4034 -12.7794 0.179 0.575 0.798 63 18 13 0 0
-1.7803 4.4357 -12.7813 0.238 0.949 0.205 86 42 35 0 0
-1.6050 4.9584 -14.8379 0.555 0.394 0.732 108 59 45 0 0
-1.5868 5.0113 -14.9836 0.388 0.634 0.669 58 27 21 0 0
-1.5814 5.0265 -15.0069 0.395 0.677 0.622 35 13 10 0 0
-1.6056 4.9667 -15.3054 0.445 0.800 -0.404 49 42 44 0 0
-1.6270 4.9105 -15.4252 0.391 0.841 -0.375 26 16 18 0 0
-1.6375 4.9025 -16.4083 -0.097 0.717 0.690 31 16 15 0 0
-1.5989 5.0091 -16.4473 0.317 0.530 0.787 29 13 10 0 0
-1.3780 5.6247 -16.9975 0.181 0.624 0.761 204 204 206 0 0
-2.8044 1.5442 -12.3368 0.266 0.099 0.959 114 50 37 0 0
-2.4425 2.5370 -12.3349 -0.438 -0.081 0.895 125 53 38 0 0
-2.3340 2.8347 -12.3495 0.437 0.696 0.570 124 53 35 0 0
-2.1709 3.2829 -12.3927 -0.018 0.328 0.944 125 48 30 0 0
-2.0497 3.6162 -12.4266 0.013 0.301 0.953 126 48 26 0 0
-1.9952 3.7661 -12.4567 0.409 0.311 0.858 126 48 26 0 0
-1.9850 3.7943 -12.4643 0.217 0.152 0.964 125 47 25 0 0
-1.8747 4.0984 -12.5496 -0.074 0.689 0.721 123 45 28 0 0
-1.7526 4.4336 -12.5594 0.186 0.495 0.849 99 36 4 0 0
-1.8791 4.1075 -13.7300 -0.249 -0.117 0.962 16 5 5 0 0
-1.7691 4.4203 -14.3270 0.611 0.784 0.115 88 29 11 0 0
-1.6439 4.7724 -14.8099 -0.390 0.903 -0.182 83 27 14 0 0
-1.5526 5.0185 -14.5798 0.734 0.171 0.658 86 28 14 0 0
-1.5788 4.9500 -14.7522 0.563 0.814 0.142 92 31 17 0 0
-1.5763 4.9573 -14.7853 0.643 0.724 0.248 92 36 18 0 0
-1.5739 4.9645 -14.8185 0.402 0.821 0.406 120 74 64 0 0
-1.5671 4.9834 -14.8367 0.105 0.809 0.578 85 31 18 0 0
-1.5624 4.9968 -14.8619 0.282 0.754 0.593 89 37 25 0 0
-1.5614 5.0003 -14.9002 0.382 0.693 0.611 88 47 39 0 0
-1.5834 4.9474 -15.3191 0.445 0.800 -0.404 51 46 47 0 0
-1.6029 4.8961 -15.4324 0.391 0.841 -0.375 31 25 27 0 0
-1.6348 4.8137 -15.7242 0.621 0.727 0.293 49 49 51 0 0
-1.6281 4.8335 -15.7887 0.613 0.702 0.363 27 22 26 0 0
-1.6229 4.8480 -15.8146 0.656 0.550 0.517 16 13 15 0 0
-1.3285 5.6763 -16.9517 -0.434 0.121 0.893 204 204 206 0 0
-1.2946 5.7676 -16.8569 -0.161 0.716 0.679 205 205 207 0 0
-1.2913 5.7773 -16.8919 -0.087 0.956 0.279 206 206 208 0 0
-3.0485 0.7911 -12.4022 0.668 0.020 0.743 104 51 43 0 0
-2.7519 1.6075 -12.4177 0.430 0.444 0.786 116 50 38 0 0
-2.4749 2.3691 -12.3687 -0.407 -0.076 0.910 123 51 36 0 0
-2.3102 2.8221 -12.3524 0.437 0.696 0.570 124 53 35 0 0
-2.1709 3.2060 -12.3859 0.051 0.217 0.975 122 47 28 0 0
-1.9829 3.7242 -12.4538 0.122 0.521 0.845 129 51 29 0 0
-1.8583 4.0679 -12.5008 0.437 0.293 0.850 121 43 24 0 0
-1.8053 4.2146 -12.5641 0.426 0.318 0.847 151 80 68 0 0
-1.7677 4.3370 -13.8130 0.539 0.345 0.768 53 7 4 0 0
-1.7613 4.3549 -13.8318 0.515 0.609 0.604 67 14 3 0 0
-1.5571 4.9310 -14.7653 0.660 0.693 0.289 92 31 17 0 0
-1.5539 4.9402 -14.7959 0.615 0.739 0.276 100 45 30 0 0
-1.5376 4.9868 -14.9063 0.533 0.715 0.452 86 47 38 0 0
-1.5602 4.9308 -15.3292 0.507 0.767 -0.392 43 40 41 0 0
-1.5747 4.8924 -15.4252 0.426 0.835 -0.347 36 33 34 0 0
-1.6110 4.7973 -15.7341 0.621 0.727 0.293 35 33 34 0 0
-1.6074 4.8076 -15.7657 0.523 0.789 0.322 15 11 13 0 0
-1.6052 4.8142 -15.8024 0.567 0.673 0.475 13 9 10 0 0
-1.6001 4.8285 -15.8287 0.534 0.659 0.530 9 6 6 0 0
-1.5946 4.8440 -15.8535 0.534 0.659 0.530 9 8 6 0 0
-1.5951 4.8434 -15.9004 0.316 0.900 0.301 22 20 24 0 0
-1.4589 5.2336 -16.9213 -0.184 0.320 0.929 169 170 171 0 0
-2.7300 1.5852 -12.3925 0.069 0.496 0.865 116 50 38 0 0
-2.7211 1.6099 -12.4074 0.069 0.496 0.865 115 49 37 0 0
-2.3070 2.7528 -12.3714 -0.122 0.285 0.951 125 54 36 0 0
-2.2823 2.8211 -12.3800 0.291 0.256 0.922 123 52 34 0 0
-2.2725 2.8480 -12.3907 0.374 0.300 0.877 125 52 35 0 0
-1.9581 3.7167 -12.4525 0.210 0.221 0.952 128 50 28 0 0
-1.9422 3.7606 -12.4447 -0.163 0.826 0.539 127 49 27 0 0
-1.8536 4.0052 -12.4492 0.253 0.737 0.626 123 46 26 0 0
-1.8409 4.0411 -12.5190 0.183 0.546 0.817 121 43 24 0 0
-1.7753 4.2228 -12.5823 0.105 0.360 0.927 153 68 47 0 0
-1.7653 4.2507 -12.5892 0.292 0.435 0.852 160 88 68 0 0
-1.7521 4.2871 -12.5872 0.121 0.643 0.757 166 92 69 0 0
-1.7249 4.3619 -12.5806 0.444 0.725 0.527 110 36 3 0 0
-1.8491 4.0333 -13.7535 -0.177 0.793 0.583 16 6 7 0 0
-1.7421 4.3286 -13.7342 0.110 0.915 0.388 91 46 22 0 0
-1.5229 4.9461 -14.7767 0.005 0.267 0.964 121 72 62 0 0
-1.5185 4.9591 -14.8452 0.518 0.852 0.077 88 34 25 0 0
-1.5286 4.9363 -15.2656 0.471 0.806 -0.360 52 48 48 0 0
-1.5807 4.7990 -15.8106 0.534 0.684 0.497 22 16 17 0 0
-1.5739 4.8182 -15.8302 0.263 0.647 0.716 10 5 5 0 0
-1.5687 4.8329 -15.8561 0.245 0.423 0.872 9 5 6 0 0
-1.5684 4.8341 -15.9005 0.316 0.900 0.301 11 6 11 0 0
-1.5321 4.9405 -16.4098 0.040 0.772 0.634 16 7 8 0 0
-1.5106 5.0010 -16.5152 -0.245 0.517 0.820 15 6 8 0 0
-1.4508 5.1709 -16.9023 -0.419 0.775 0.474 161 162 164 0 0
-1.3043 5.5756 -16.9305 -0.229 0.306 0.924 201 202 204 0 0
-1.2632 5.6886 -16.9033 0.154 -0.242 0.958 204 204 206 0 0
-2.5247 2.0706 -12.3287 -0.602 0.208 0.771 119 50 35 0 0
-1.8282 4.0002 -12.4454 0.288 0.665 0.689 120 43 22 0 0
-1.7516 4.2137 -12.5828 0.085 0.373 0.924 154 69 47 0 0
-1.7427 4.2383 -12.5931 -0.002 0.422 0.906 178 107 85 0 0
-1.7275 4.2802 -12.5853 0.121 0.643 0.757 178 107 79 0 0
-1.6994 4.3684 -13.7178 0.235 0.918 0.319 55 9 1 0 0
-1.7120 4.3438 -14.8450 0.637 0.066 0.768 51 15 7 0 0
-1.4955 4.9426 -14.7699 0.555 0.782 0.284 125 78 70 0 0
-1.4861 4.9709 -15.0331 0.265 0.915 0.305 68 48 46 0 0
-1.5001 4.9339 -15.2129 0.487 0.806 -0.336 35 29 29 0 0
-1.4911 4.9703 -16.4978 -0.038 0.782 0.622 19 9 10 0 0
-1.4837 4.9909 -16.5163 0.058 0.762 0.645 18 9 9 0 0
-1.4175 5.1777 -16.8779 -0.394 0.751 0.530 162 163 163 0 0
-1.4239 5.1607 -16.9536 -0.187 0.519 0.834 165 165 166 0 0
-2.4913 2.0820 -12.3107 -0.623 0.147 0.768 120 51 35 0 0
-2.2939 2.6307 -12.3587 -0.236 0.346 0.908 123 52 34 0 0
-1.9502 3.5857 -12.4215 0.469 0.512 0.719 126 48 28 0 0
-1.8283 3.9247 -12.4767 0.401 0.753 0.521 126 50 27 0 0
-1.8165 3.9574 -12.4794 -0.091 0.612 0.786 122 44 23 0 0
-1.7446 4.1577 -12.5602 -0.258 0.363 0.896 200 142 131 0 0
-1.7326 4.1910 -12.5616 -0.039 0.306 0.951 158 79 59 0 0
-1.7302 4.1977 -12.5902 0.043 0.563 0.825 162 81 59 0 0
-1.7177 4.2325 -12.5900 -0.041 0.695 0.717 194 126 105 0 0
-1.7800 4.0667 -13.7743 0.061 0.388 0.920 23 6 6 0 0
-1.6738 4.3612 -13.7159 0.235 0.918 0.319 54 10 1 0 0
-1.6756 4.3599 -14.3152 -0.284 0.047 0.958 89 27 9 0 0
-1.6768 4.3567 -14.3598 0.685 0.728 -0.012 85 22 9 0 0
-1.6723 4.3696 -14.4264 0.795 0.561 0.232 46 7 2 0 0
-1.4603 4.9622 -15.0328 0.447 0.793 0.413 68 50 47 0 0
-1.5280 4.7823 -16.3693 0.292 0.783 0.550 18 11 12 0 0
-1.3895 5.1701 -16.8753 -0.141 0.816 0.560 163 163 163 0 0
-2.2577 2.6517 -12.3666 0.638 0.292 0.712 124 53 35 0 0
-2.1353 2.9929 -12.4087 -0.207 0.432 0.878 124 51 34 0 0
-1.9193 3.5950 -12.4391 0.537 0.500 0.679 126 48 28 0 0
-1.8329 3.8357 -12.4504 -0.102 0.146 0.984 124 46 24 0 0
-1.7291 4.1253 -12.5489 -0.242 0.385 0.891 167 103 94 0 0
-1.7135 4.1686 -12.5402 -0.235 0.501 0.833 166 96 86 0 0
-1.7083 4.1832 -12.5607 0.226 0.362 0.904 154 73 51 0 0
-1.7028 4.1987 -12.5803 0.191 0.650 0.736 157 79 58 0 0
-1.6889 4.2374 -12.5761 0.097 0.833 0.544 181 115 91 0 0
-1.6747 4.2813 -14.0737 -0.062 0.936 0.347 57 12 3 0 0
-1.6649 4.3099 -14.5284 0.085 0.893 0.443 50 14 8 0 0
-1.4413 4.9394 -16.7101 0.570 0.815 -0.102 41 35 34 0 0
-1.2411 5.4982 -16.9081 0.714 0.685 0.149 198 199 201 0 0
-2.9129 0.7403 -12.4728 -0.253 -0.055 0.966 110 52 40 0 0
-2.0554 3.1373 -12.4073 -0.156 0.198 0.968 126 51 32 0 0
-1.9219 3.5107 -12.4062 0.099 0.298 0.949 126 49 28 0 0
-1.9034 3.5622 -12.4269 0.186 0.630 0.754 127 49 29 0 0
-1.8968 3.5808 -12.4441 0.186 0.630 0.754 126 48 28 0 0
-1.7065 4.1128 -12.5173 -0.171 0.486 0.857 148 78 64 0 0
-1.6981 4.1362 -12.5289 -0.171 0.486 0.857 166 100 89 0 0
-1.6897 4.1597 -12.5404 0.138 0.565 0.814 162 83 66 0 0
-1.6829 4.1786 -12.5565 0.607 0.413 0.679 157 72 49 0 0
-1.6642 4.2309 -12.5739 0.178 0.737 0.652 177 108 79 0 0
-1.7391 4.0213 -13.6491 -0.852 0.109 0.512 16 5 5 0 0
-1.7263 4.0572 -13.6483 -0.889 0.235 0.394 19 7 5 0 0
-1.7200 4.0749 -13.7062 0.296 0.409 0.863 24 5 4 0 0
-1.6806 4.1850 -13.6226 0.373 0.908 0.192 25 4 4 0 0
-1.6376 4.3049 -14.5235 0.085 0.893 0.443 54 16 11 0 0
-1.6331 4.3175 -14.5498 0.085 0.893 0.443 59 13 5 0 0
-1.5024 4.6831 -14.7700 0.928 -0.164 0.336 83 27 14 0 0
-1.4983 4.6941 -15.9031 0.340 0.925 0.172 113 108 105 0 0
-1.4114 4.9370 -16.6999 0.003 0.983 0.185 41 35 34 0 0
-1.2150 5.4860 -16.9127 0.723 0.658 0.207 199 200 202 0 0
-1.2112 5.4967 -16.9463 0.694 0.510 0.508 200 201 203 0 0
-1.2168 5.4811 -17.0211 -0.066 0.977 0.202 203 203 205 0 0
-2.0328 3.1222 -12.3777 0.036 0.150 0.988 126 50 34 0 0
-2.0254 3.1430 -12.3935 -0.109 0.332 0.937 127 51 35 0 0
-2.0129 3.1780 -12.3960 0.092 0.744 0.662 126 50 34 0 0
-2.0071 3.1941 -12.4161 -0.032 0.860 0.509 129 53 36 0 0
-1.9172 3.4462 -12.4240 0.133 0.453 0.882 126 49 29 0 0
-1.9010 3.4916 -12.4510 -0.005 0.301 0.954 127 50 30 0 0
-1.8877 3.5288 -12.4857 -0.281 0.538 0.795 126 48 26 0 0
-1.7609 3.8843 -12.4554 0.429 0.299 0.852 127 50 27 0 0
-1.6752 4.1245 -12.5320 -0.001 0.580 0.815 174 108 97 0 0
-1.6660 4.1501 -12.5413 0.500 0.615 0.610 165 83 61 0 0
-1.6630 4.1586 -12.5681 0.723 0.392 0.570 158 74 47 0 0
-1.6979 4.0571 -13.7159 -0.017 0.482 0.876 24 5 3 0 0
-1.6527 4.1841 -13.6138 -0.247 0.243 0.938 26 5 4 0 0
-1.6185 4.2786 -14.0559 -0.131 0.848 0.514 70 24 11 0 0
-1.6143 4.2887 -14.5321 0.515 0.742 0.429 55 21 15 0 0
-1.6113 4.2971 -14.5635 0.550 0.770 0.323 59 9 2 0 0
-1.6133 4.2914 -14.6118 0.399 0.911 0.100 75 26 14 0 0
-1.6208 4.2686 -15.1066 0.809 0.490 -0.325 76 24 13 0 0
-1.4919 4.6312 -14.8240 0.937 -0.138 0.322 83 27 14 0 0
-1.4641 4.7066 -15.6006 0.597 0.802 0.025 49 47 49 0 0
-1.4637 4.7077 -15.6443 0.597 0.802 0.025 55 54 53 0 0
-1.4758 4.6719 -16.1531 0.616 0.780 0.109 40 34 34 0 0
-1.3834 4.9294 -16.6973 0.768 0.558 0.315 45 36 35 0 0
-1.2049 5.4292 -16.9364 0.510 0.828 0.234 197 198 200 0 0
-1.1898 5.4712 -17.0728 0.022 0.999 -0.048 205 205 207 0 0
-2.0585 2.9713 -12.3331 -0.321 0.726 0.608 124 51 34 0 0
-1.9988 3.1387 -12.3890 -0.109 0.332 0.937 127 51 35 0 0
-1.9870 3.1721 -12.3930 0.092 0.744 0.662 128 52 36 0 0
-1.9800 3.1915 -12.4100 -0.032 0.860 0.509 133 57 39 0 0
-1.9704 3.2185 -12.4199 0.266 0.287 0.920 129 52 33 0 0
-1.9170 3.3691 -12.3835 0.198 0.247 0.949 125 48 29 0 0
-1.7367 3.8758 -12.4551 0.475 0.522 0.708 126 49 28 0 0
-1.7288 3.8978 -12.4685 0.190 0.467 0.864 124 47 27 0 0
-1.6430 4.1386 -12.5797 0.723 0.392 0.570 155 70 44 0 0
-1.5929 4.2788 -12.7205 0.608 0.681 0.408 58 13 8 0 0
-1.5782 4.3063 -14.8771 0.838 0.122 0.532 66 17 10 0 0
-1.4102 4.7790 -14.8802 0.199 0.978 0.062 98 39 26 0 0
-1.3973 4.8153 -14.8763 0.527 0.759 0.384 91 36 23 0 0
-1.3965 4.8167 -15.0032 0.563 0.348 0.750 51 15 9 0 0
-1.4472 4.6686 -15.8666 0.346 0.933 -0.097 114 110 109 0 0
-1.4507 4.6566 -16.2083 0.808 0.544 0.226 32 22 21 0 0
-1.4518 4.6533 -16.2600 0.868 0.321 0.378 38 26 25 0 0
-1.3991 4.7965 -17.0266 0.362 0.864 -0.350 71 56 55 0 0
-1.1856 5.3979 -16.9205 0.636 0.748 0.191 195 196 198 0 0
-1.1793 5.4154 -16.9435 0.510 0.828 0.234 198 199 201 0 0
-3.0233 0.1661 -12.6431 -0.274 -0.418 0.866 210 209 210 0 0
-1.9563 3.1794 -12.4127 0.445 0.191 0.875 126 51 33 0 0
-1.8848 3.3813 -12.3984 0.159 0.853 0.497 124 47 27 0 0
-1.8793 3.3967 -12.4189 -0.104 0.503 0.858 124 47 27 0 0
-1.7078 3.8804 -12.4771 0.026 0.427 0.904 122 45 26 0 0
-1.6778 3.9653 -12.4279 0.480 0.097 0.872 122 45 25 0 0
-1.6656 3.9997 -12.4287 0.285 0.773 0.567 126 50 28 0 0
-1.6590 4.0182 -12.4453 0.349 0.778 0.523 137 62 39 0 0
-1.6544 4.0310 -12.4676 0.393 0.767 0.507 122 49 32 0 0
-1.6436 4.0613 -12.4724 0.139 0.445 0.884 126 53 39 0 0
-1.5724 4.2612 -12.5869 0.726 0.546 0.417 66 16 2 0 0
-1.5722 4.2608 -12.6944 0.155 0.888 0.433 55 10 5 0 0
-1.3732 4.8006 -15.0124 0.492 0.439 0.752 47 10 6 0 0
-1.3655 4.8222 -15.0276 0.655 0.417 0.631 68 35 31 0 0
-1.4173 4.6706 -15.5791 0.547 0.834 -0.073 32 29 30 0 0
-1.3359 4.8900 -16.6785 0.603 0.513 0.611 42 33 32 0 0
-1.3743 4.7787 -16.9889 0.267 0.759 0.594 56 38 35 0 0
-1.3404 4.8752 -16.8969 0.645 0.734 -0.213 81 69 67 0 0
-1.3845 4.7485 -17.1334 0.326 0.944 -0.039 113 109 107 0 0
-1.2458 5.1423 -16.8967 0.116 -0.315 0.942 167 167 167 0 0
-1.1757 5.3400 -16.8952 0.786 0.613 -0.086 189 190 192 0 0
-1.9343 3.1629 -12.3846 0.396 0.686 0.610 124 48 32 0 0
-1.8593 3.3751 -12.3958 0.159 0.853 0.497 123 46 28 0 0
-1.8532 3.3921 -12.4147 0.228 0.347 0.910 123 46 26 0 0
-1.8294 3.4598 -12.3854 0.094 0.424 0.901 124 47 27 0 0
-1.7026 3.8180 -12.4596 0.530 0.506 0.680 125 47 27 0 0
-1.6836 3.8716 -12.4770 -0.066 0.320 0.945 123 45 26 0 0
-1.6345 4.0111 -12.4437 0.001 0.525 0.851 125 52 31 0 0
-1.6306 4.0216 -12.4683 0.360 0.734 0.576 124 50 34 0 0
-1.5403 4.2747 -12.6709 -0.072 0.668 0.741 57 11 6 0 0
-1.5488 4.2500 -12.7324 0.508 0.693 0.511 66 23 17 0 0
-1.5570 4.2145 -13.7047 0.287 0.670 0.685 113 65 30 0 0
-1.5348 4.2726 -14.0716 0.439 0.718 0.541 95 47 28 0 0
-1.5496 4.2260 -14.4505 0.840 0.087 0.535 73 15 8 0 0
-1.3480 4.7898 -15.0148 0.603 0.578 0.549 45 10 7 0 0
-1.3423 4.8055 -15.0375 0.603 0.578 0.549 68 36 31 0 0
-1.3846 4.6729 -16.0664 -0.351 0.824 0.446 40 31 30 0 0
-1.4073 4.6057 -16.2998 0.714 0.331 0.616 30 18 18 0 0
-1.3142 4.8648 -16.6528 0.075 0.425 0.902 29 21 21 0 0
-1.3461 4.7704 -16.9872 0.605 0.723 0.333 60 42 39 0 0
-1.9105 3.1512 -12.3870 0.396 0.686 0.610 125 49 33 0 0
-1.9053 3.1654 -12.4088 0.150 0.336 0.930 125 49 32 0 0
-1.8338 3.3688 -12.3932 0.159 0.853 0.497 126 49 31 0 0
-1.8287 3.3830 -12.4147 -0.100 0.718 0.688 123 45 26 0 0
-1.5372 4.2081 -12.5883 0.283 0.472 0.835 94 36 11 0 0
-1.5263 4.2369 -12.7371 0.508 0.693 0.511 72 28 22 0 0
-1.5252 4.2239 -13.7618 0.199 0.562 0.803 51 8 3 0 0
-1.5221 4.2320 -13.7917 0.119 0.948 0.294 68 15 9 0 0
-1.5154 4.2465 -14.0913 0.694 0.478 0.538 92 43 22 0 0
-1.3063 4.8275 -14.9115 0.462 0.821 0.335 61 22 18 0 0
-1.3034 4.8352 -14.9445 0.468 0.865 0.179 44 10 8 0 0
-1.3793 4.6085 -15.6371 0.124 0.985 0.122 34 31 32 0 0
-1.3777 4.6028 -16.2909 -0.189 0.395 0.899 30 17 17 0 0
-1.3233 4.7491 -16.8066 0.243 0.896 0.372 33 24 25 0 0
-2.0056 2.8005 -12.3846 0.083 0.718 0.691 126 53 36 0 0
-1.9162 3.0558 -12.3618 -0.197 0.502 0.842 123 50 33 0 0
-1.8989 3.1045 -12.3868 -0.308 0.477 0.823 125 49 33 0 0
-1.8082 3.3627 -12.3904 -0.208 0.670 0.712 127 50 32 0 0
-1.8018 3.3807 -12.4084 -0.100 0.718 0.688 125 47 27 0 0
-1.7953 3.3988 -12.4263 -0.100 0.718 0.688 125 47 27 0 0
-1.6551 3.7977 -12.4622 -0.197 0.488 0.850 125 48 29 0 0
-1.6125 3.9195 -12.4473 0.602 0.290 0.744 121 44 24 0 0
-1.5386 4.1281 -12.5549 0.841 0.490 0.231 165 88 63 0 0
-1.5216 4.1761 -12.5767 0.268 0.479 0.836 128 69 30 0 0
-1.5160 4.1916 -12.5963 0.579 0.598 0.555 78 27 8 0 0
-1.5071 4.1953 -13.7450 0.016 0.940 0.342 66 17 7 0 0
-1.5024 4.2082 -13.7694 0.341 0.505 0.793 54 11 6 0 0
-1.4988 4.2179 -13.7975 0.148 0.851 0.504 68 16 6 0 0
-1.4932 4.2334 -13.8191 0.062 0.695 0.717 99 53 25 0 0
-1.4937 4.2265 -14.1041 0.792 0.550 0.265 90 38 19 0 0
-1.4573 4.3151 -14.9062 -0.602 0.787 -0.138 72 22 12 0 0
-1.3518 4.6017 -15.6339 0.218 0.959 0.179 31 28 29 0 0
-1.3558 4.5777 -16.3126 0.639 0.711 0.294 26 16 15 0 0
-1.3499 4.5903 -16.5334 0.045 0.608 0.793 25 12 10 0 0
-1.2947 4.7423 -16.8026 0.234 0.969 0.082 39 30 31 0 0
-1.2874 4.7629 -16.8220 0.686 0.716 0.130 49 38 37 0 0
-1.2263 4.9323 -17.0694 -0.115 0.141 0.983 164 164 165 0 0
-1.9714 2.8163 -12.4320 0.347 0.747 0.567 124 51 34 0 0
-1.7823 3.3578 -12.3865 -0.145 0.301 0.942 122 45 27 0 0
-1.7719 3.3873 -12.3936 -0.318 0.533 0.784 125 47 28 0 0
-1.7686 3.3962 -12.4202 -0.135 0.792 0.595 125 47 27 0 0
-1.6574 3.7140 -12.4302 -0.080 0.477 0.875 123 45 25 0 0
-1.6505 3.7331 -12.4466 0.041 0.529 0.848 125 49 26 0 0
-1.6433 3.7534 -12.4618 0.159 0.706 0.690 125 49 28 0 0
-1.6373 3.7703 -12.4805 0.159 0.706 0.690 124 47 28 0 0
-1.5714 3.9588 -12.4698 0.330 0.776 0.538 125 50 30 0 0
-1.5645 3.9783 -12.4855 0.261 0.548 0.794 130 57 40 0 0
-1.5510 4.0153 -12.5542 0.070 0.170 0.983 166 100 85 0 0
-1.5305 4.0735 -12.5661 0.040 0.232 0.972 157 76 52 0 0
-1.5203 4.1026 -12.5720 0.195 0.290 0.937 166 88 64 0 0
-1.4975 4.1676 -12.5765 0.194 0.344 0.919 127 70 29 0 0
-1.4805 4.1897 -13.7802 0.628 0.240 0.740 53 10 5 0 0
-1.4736 4.2089 -13.7976 0.607 0.607 0.513 71 20 7 0 0
-1.4613 4.2414 -13.9177 0.213 0.871 0.442 53 9 1 0 0
-1.4835 4.1753 -14.0329 0.530 0.543 0.651 54 10 1 0 0
-1.4424 4.2727 -14.9471 -0.392 0.863 -0.319 71 21 11 0 0
-1.3232 4.6016 -15.4876 -0.146 0.787 0.599 14 8 8 0 0
-1.3244 4.5949 -15.6307 0.218 0.959 0.179 27 23 25 0 0
-1.3095 4.6295 -15.9949 -0.160 0.924 0.347 42 33 32 0 0
-1.2677 4.7343 -16.6542 0.595 0.636 0.492 45 20 18 0 0
-1.2681 4.7307 -16.7567 0.230 0.961 0.153 28 18 19 0 0
-1.2663 4.7350 -16.7996 0.395 0.916 0.063 45 36 36 0 0
-1.2652 4.7370 -16.8457 0.554 0.832 0.012 50 38 37 0 0
-1.2669 4.7310 -16.9039 0.694 0.717 -0.070 53 36 35 0 0
-1.1826 4.9698 -16.9994 -0.232 -0.003 0.973 166 166 166 0 0
-1.9630 2.7622 -12.2975 -0.191 0.889 0.416 127 54 37 0 0
-1.8864 2.9798 -12.3797 -0.217 0.378 0.900 124 50 33 0 0
-1.7559 3.3543 -12.3813 -0.145 0.301 0.942 123 44 27 0 0
-1.7462 3.3818 -12.3903 -0.147 0.515 0.844 124 45 28 0 0
-1.7380 3.4050 -12.4033 -0.072 0.531 0.844 125 46 29 0 0
-1.7004 3.5119 -12.4415 0.273 0.405 0.873 126 48 28 0 0
-1.6022 3.7934 -12.4491 0.406 0.676 0.615 123 45 25 0 0
-1.5579 3.9190 -12.5007 -0.110 0.341 0.934 123 49 31 0 0
-1.5143 4.0426 -12.5532 0.195 -0.195 0.961 154 77 56 0 0
-1.5025 4.0765 -12.5542 0.226 0.040 0.973 162 85 61 0 0
-1.4804 4.1397 -12.5608 0.268 0.468 0.842 148 77 33 0 0
-1.4739 4.1580 -12.5775 0.289 0.474 0.832 120 62 21 0 0
-1.4567 4.2050 -12.6716 0.529 0.597 0.603 61 12 7 0 0
-1.5159 4.0100 -13.6596 0.186 0.807 0.561 27 4 4 0 0
-1.4507 4.1932 -13.8052 0.684 0.493 0.537 84 33 17 0 0
-1.4587 4.1645 -14.0350 0.273 0.703 0.657 59 13 3 0 0
-1.4562 4.1657 -14.2744 0.538 0.842 -0.027 78 25 13 0 0
-1.4899 4.0605 -14.6029 0.093 0.940 -0.327 53 7 3 0 0
-1.4045 4.2979 -14.9047 -0.312 0.885 -0.345 70 20 11 0 0
-1.2850 4.6282 -15.3963 0.623 0.781 -0.035 29 17 17 0 0
-1.2954 4.5962 -15.4825 0.272 0.761 0.589 16 8 6 0 0
-1.3129 4.5212 -16.4597 0.411 0.665 0.623 21 11 10 0 0
-1.2791 4.6153 -16.5678 0.217 0.872 0.440 35 17 14 0 0
-1.2758 4.6240 -16.6038 -0.244 0.533 0.810 61 35 34 0 0
-1.2539 4.6852 -16.6622 -0.153 0.822 0.549 51 24 23 0 0
-1.2397 4.7235 -16.7535 0.179 0.974 0.138 36 28 26 0 0
-1.2382 4.7267 -16.7978 0.263 0.959 0.101 48 39 37 0 0
-1.2399 4.7204 -16.8561 0.554 0.832 0.012 51 38 37 0 0
-1.2417 4.7111 -17.0181 -0.012 0.166 0.986 102 93 92 0 0
-1.2046 4.8152 -17.1151 0.474 0.745 0.470 159 159 159 0 0
-2.0406 2.4584 -12.2794 0.008 0.994 0.106 123 51 36 0 0
-2.0321 2.4823 -12.2933 0.010 0.974 0.226 123 51 36 0 0
-2.0297 2.4882 -12.3230 0.150 0.862 0.484 124 51 35 0 0
-1.8589 2.9785 -12.3724 -0.217 0.378 0.900 125 50 34 0 0
-1.7098 3.4069 -12.3929 -0.215 0.467 0.858 125 46 29 0 0
-1.6937 3.4524 -12.4197 0.708 0.481 0.517 126 48 28 0 0
-1.6039 3.7108 -12.4160 0.211 0.340 0.917 122 44 24 0 0
-1.5145 3.9641 -12.5527 -0.005 0.013 1.000 161 100 85 0 0
-1.4928 4.0263 -12.5608 0.195 -0.195 0.961 154 76 54 0 0
-1.4249 4.2170 -12.7216 -0.289 0.461 0.839 86 49 40 0 0
-1.4335 4.1605 -13.8320 0.561 0.775 0.292 97 49 27 0 0
-1.4331 4.1561 -14.0342 -0.016 0.694 0.720 68 23 10 0 0
-1.4657 4.0456 -14.6096 0.287 0.936 -0.204 51 7 2 0 0
-1.2198 4.7454 -14.8855 0.861 0.197 0.469 87 47 39 0 0
-1.2790 4.5307 -16.4334 -0.173 0.802 0.572 19 9 8 0 0
-1.2819 4.5205 -16.4953 0.282 0.421 0.862 20 9 8 0 0
-1.2455 4.6226 -16.5925 -0.264 0.539 0.800 53 27 25 0 0
-1.2265 4.6647 -17.0220 0.631 0.775 0.026 80 68 66 0 0
-1.2136 4.7021 -17.0174 -0.030 0.100 0.995 110 104 103 0 0
-1.0063 5.3029 -16.8673 -0.224 -0.183 0.957 194 195 197 0 0
-0.9953 5.3346 -16.8686 -0.312 0.738 0.598 196 197 199 0 0
-2.0217 2.4298 -12.2962 0.095 0.263 0.960 123 51 36 0 0
-1.8847 2.8242 -12.3296 -0.319 0.657 0.683 126 53 36 0 0
-1.8754 2.8495 -12.3765 0.305 0.001 0.952 125 52 35 0 0
-1.8314 2.9770 -12.3654 -0.363 0.509 0.780 125 51 34 0 0
-1.7066 3.3355 -12.4170 0.316 0.165 0.934 124 45 28 0 0
-1.5783 3.7048 -12.4483 0.380 0.185 0.906 125 47 27 0 0
-1.4325 4.1222 -12.5608 0.303 0.415 0.858 130 58 21 0 0
-1.4279 4.1349 -12.5834 0.512 0.573 0.640 90 31 10 0 0
-1.4105 4.1819 -12.6774 0.386 0.866 0.318 68 17 9 0 0
-1.3997 4.2119 -12.7179 -0.167 0.289 0.943 89 53 44 0 0
-1.4106 4.1447 -13.8396 0.618 0.674 0.404 114 70 41 0 0
-1.4097 4.1407 -14.0416 -0.212 0.426 0.880 67 21 8 0 0
-1.4491 4.0079 -14.6432 0.217 0.968 0.123 49 8 2 0 0
-1.4580 3.9797 -14.7182 -0.625 0.673 0.395 42 8 3 0 0
-1.4412 4.0288 -14.7019 0.092 0.593 0.800 64 28 24 0 0
-1.4338 4.0495 -14.7191 0.199 0.470 0.860 53 13 5 0 0
-1.4314 4.0555 -14.7538 -0.400 0.031 0.916 92 45 31 0 0
-1.2472 4.5343 -16.4153 0.121 0.728 0.675 18 8 7 0 0
-1.2283 4.5850 -16.5357 0.001 0.557 0.830 37 15 12 0 0
-1.2116 4.6322 -16.5655 0.361 0.523 0.772 46 22 18 0 0
-1.1850 4.7044 -16.7050 0.043 0.957 0.287 31 23 21 0 0
-1.1831 4.7068 -16.7992 0.408 0.910 0.075 54 39 35 0 0
-1.1677 4.7438 -17.0421 0.236 0.538 0.809 144 145 147 0 0
-1.1315 4.8449 -17.1432 0.252 0.946 -0.202 167 167 169 0 0
-0.9891 5.2633 -16.9136 -0.286 -0.185 0.940 195 196 198 0 0
-0.9645 5.3362 -16.8519 -0.011 0.163 0.987 196 197 199 0 0
-0.9543 5.3656 -16.8567 -0.011 0.163 0.987 198 199 201 0 0
-1.9963 2.4204 -12.2961 0.095 0.263 0.960 123 51 36 0 0
-1.9785 2.4710 -12.3215 0.110 0.724 0.681 129 57 41 0 0
-1.9731 2.4859 -12.3433 -0.108 0.499 0.860 125 52 36 0 0
-1.8702 2.7810 -12.4303 0.308 0.609 0.731 125 51 34 0 0
-1.7641 3.0871 -12.4657 0.533 0.493 0.688 123 46 29 0 0
-1.5765 3.6313 -12.4409 -0.194 0.370 0.909 127 49 29 0 0
-1.5660 3.6613 -12.4469 -0.113 0.317 0.942 126 48 28 0 0
-1.5508 3.7057 -12.4388 0.089 0.179 0.980 125 47 27 0 0
-1.5469 3.7160 -12.4637 0.380 0.185 0.906 124 46 26 0 0
-1.4841 3.8982 -12.4600 -0.431 0.341 0.836 122 45 31 0 0
-1.4270 4.0607 -12.5438 0.222 0.290 0.931 162 85 57 0 0
-1.4178 4.0869 -12.5525 0.322 0.371 0.871 148 68 32 0 0
-1.4094 4.1109 -12.5635 0.303 0.415 0.858 123 52 13 0 0
-1.3878 4.1691 -12.6817 0.392 0.736 0.551 71 20 14 0 0
-1.3830 4.1823 -12.7038 -0.171 0.296 0.940 87 41 35 0 0
-1.3819 4.1388 -14.0333 -0.274 0.321 0.907 77 29 16 0 0
-1.4310 3.9755 -14.6289 0.258 0.952 0.165 67 12 5 0 0
-1.4208 4.0033 -14.6793 -0.235 0.773 0.590 45 10 5 0 0
-1.4103 4.0337 -14.6852 0.601 0.508 0.617 65 28 24 0 0
-1.4021 4.0568 -14.6994 0.623 0.249 0.742 56 16 9 0 0
-1.3980 4.0677 -14.7282 0.624 0.452 0.638 95 49 34 0 0
-1.3783 4.1241 -14.7445 0.615 0.230 0.754 11 2 2 0 0
-1.1585 4.7525 -14.9817 0.285 0.910 0.301 60 34 33 0 0
-1.2221 4.5175 -16.4254 0.263 0.775 0.575 17 7 6 0 0
-1.1673 4.6556 -17.0075 -0.075 0.279 0.958 102 96 95 0 0
-1.1413 4.7296 -17.0489 0.485 0.523 0.701 146 147 149 0 0
-1.1320 4.7560 -17.0601 0.395 0.751 0.529 153 154 155 0 0
-0.9404 5.3176 -16.8663 0.066 -0.098 0.993 196 197 199 0 0
-0.9273 5.3559 -16.8574 0.097 0.038 0.995 198 199 201 0 0
-1.8140 2.8652 -12.3456 0.284 0.103 0.953 126 50 34 0 0
-1.7804 2.9593 -12.4348 0.215 0.388 0.896 125 49 33 0 0
-1.6553 3.3224 -12.4473 -0.332 0.329 0.884 127 49 29 0 0
-1.6226 3.4168 -12.4630 -0.228 0.256 0.939 126 48 28 0 0
-1.5496 3.6301 -12.4334 0.109 0.472 0.875 128 50 30 0 0
-1.4673 3.8688 -12.4453 -0.282 0.307 0.909 123 44 28 0 0
-1.4149 4.0171 -12.5436 -0.150 -0.000 0.989 155 78 55 0 0
-1.3987 4.0648 -12.5308 0.437 0.662 0.610 163 86 57 0 0
-1.3927 4.0814 -12.5493 0.287 0.508 0.812 152 71 30 0 0
-1.3660 4.1536 -12.6887 0.025 0.432 0.902 75 26 21 0 0
-1.3790 4.0399 -14.6668 0.644 0.575 0.505 72 33 29 0 0
-1.3741 4.0531 -14.6928 0.777 0.506 0.374 63 22 15 0 0
-1.3694 4.0657 -14.7196 0.777 0.506 0.374 96 52 37 0 0
-1.3626 4.0846 -14.7389 0.722 0.413 0.556 53 24 17 0 0
-1.3563 4.1020 -14.7600 0.722 0.413 0.556 11 2 3 0 0
-1.3543 4.1015 -14.9295 0.770 0.603 0.209 59 16 8 0 0
-1.1324 4.7441 -14.9809 0.285 0.910 0.301 64 36 35 0 0
-1.2095 4.4961 -15.6101 0.857 0.508 0.087 21 15 17 0 0
-1.1954 4.5053 -16.4291 0.122 0.843 0.523 16 7 6 0 0
-1.1222 4.6947 -17.0361 0.485 0.523 0.701 141 142 146 0 0
-1.0971 4.7659 -17.0814 0.417 0.729 0.544 160 160 160 0 0
-1.0807 4.8146 -17.0596 -0.015 0.649 0.761 163 163 163 0 0
-1.0247 4.9790 -17.0152 0.222 0.960 -0.168 175 175 177 0 0
-0.9978 5.0598 -16.9441 -0.610 -0.344 0.714 180 180 182 0 0
-1.9855 2.2824 -12.3647 -0.003 0.217 0.976 125 53 38 0 0
-1.7971 2.8316 -12.3676 -0.355 0.626 0.694 125 49 33 0 0
-1.7876 2.8589 -12.3779 0.565 0.449 0.692 125 49 33 0 0
-1.7539 2.9548 -12.4304 -0.170 0.262 0.950 124 48 32 0 0
-1.4935 3.7115 -12.4860 0.208 0.197 0.958 125 47 27 0 0
-1.3758 4.0558 -12.4608 -0.321 0.145 0.936 148 72 49 0 0
-1.3896 4.0122 -12.5398 -0.150 -0.000 0.989 156 81 57 0 0
-1.3758 4.0528 -12.5341 0.437 0.662 0.610 164 87 54 0 0
-1.3511 4.1263 -12.4950 0.610 0.456 0.648 147 68 21 0 0
-1.3995 3.9369 -13.6517 -0.299 0.805 0.512 24 6 4 0 0
-1.3292 4.0883 -14.9343 0.346 0.930 0.126 59 16 8 0 0
-1.1079 4.7312 -14.9859 0.662 0.344 0.666 54 28 26 0 0
-1.1752 4.5100 -15.5798 0.342 0.912 -0.228 35 29 31 0 0
-1.1772 4.5020 -15.6351 0.439 0.866 -0.239 31 25 27 0 0
-1.1181 4.6330 -16.6207 0.519 0.571 0.636 33 15 12 0 0
-1.1267 4.5934 -16.9706 0.622 0.756 -0.207 73 57 54 0 0
-1.9073 2.4284 -12.3340 0.533 0.597 0.600 125 53 38 0 0
-1.7680 2.8345 -12.3566 0.070 0.323 0.944 126 50 34 0 0
-1.7653 2.8413 -12.3854 0.520 0.503 0.690 126 50 34 0 0
-1.7475 2.8921 -12.4092 0.361 0.139 0.922 126 50 34 0 0
-1.5584 3.4431 -12.4558 0.084 0.351 0.932 127 49 29 0 0
-1.3529 4.0439 -12.4640 0.411 0.272 0.870 153 77 54 0 0
-1.3410 4.0788 -12.4640 0.494 0.684 0.538 161 87 63 0 0
-1.3520 4.0432 -12.5350 0.387 0.799 0.460 166 89 52 0 0
-1.3901 3.8789 -13.7050 -0.111 0.444 0.889 24 7 4 0 0
-1.3382 4.0297 -13.7330 0.545 0.544 0.638 111 58 23 0 0
-1.3043 4.1173 -13.9873 0.199 0.441 0.875 68 22 12 0 0
-1.3318 4.0171 -14.4244 0.878 0.477 0.029 100 45 24 0 0
-1.3389 3.9852 -14.6680 -0.451 0.244 0.859 57 17 12 0 0
-1.3350 3.9954 -14.6976 -0.258 0.780 0.569 76 37 31 0 0
-1.3288 4.0126 -14.7189 -0.118 0.842 0.526 73 33 22 0 0
-1.3049 4.0725 -14.9423 0.479 0.816 0.324 59 16 8 0 0
-1.0888 4.7014 -15.0127 0.613 0.679 0.405 55 29 28 0 0
-1.1516 4.4914 -15.5920 0.189 0.962 -0.199 46 41 43 0 0
-1.1530 4.4848 -15.6455 0.257 0.935 -0.243 29 22 24 0 0
-1.1579 4.4676 -15.7133 0.349 0.906 -0.241 61 49 49 0 0
-1.1384 4.4971 -16.3196 -0.349 0.709 0.613 14 6 4 0 0
-1.1304 4.5198 -16.3356 -0.179 0.666 0.724 15 7 5 0 0
-1.0965 4.6071 -16.5957 0.021 0.721 0.692 36 16 14 0 0
-1.0558 4.7063 -17.0412 0.413 0.522 0.747 154 155 158 0 0
-2.4679 0.6913 -12.4961 0.046 -0.069 0.997 114 52 41 0 0
-2.0195 2.0134 -12.3693 -0.047 -0.068 0.997 121 52 36 0 0
-1.7427 2.8263 -12.3556 0.070 0.323 0.944 126 50 34 0 0
-1.3260 4.0408 -12.5287 0.372 0.852 0.369 156 80 39 0 0
-1.3221 4.0508 -12.5538 0.309 0.590 0.745 127 55 11 0 0
-1.2800 4.1046 -13.9916 -0.245 0.740 0.627 72 27 14 0 0
-1.0977 4.5296 -16.2621 0.131 0.833 0.537 15 5 4 0 0
-1.0608 4.6235 -16.5593 -0.043 0.963 0.265 31 13 10 0 0
-1.0314 4.6882 -17.0039 0.168 0.588 0.792 151 150 156 0 0
-1.0213 4.7148 -17.0645 0.509 0.747 0.428 160 161 160 0 0
-1.0091 4.7506 -17.0619 0.160 0.200 0.967 163 163 164 0 0
-1.7092 2.8413 -12.3686 0.413 0.721 0.557 123 47 31 0 0
-1.7040 2.8554 -12.3907 0.413 0.721 0.557 123 47 31 0 0
-1.6881 2.9008 -12.4194 -0.117 0.204 0.972 126 49 33 0 0
-1.3038 4.0263 -12.5345 0.331 0.755 0.566 155 84 40 0 0
-1.2986 4.0404 -12.5555 0.320 0.701 0.638 128 69 24 0 0
-1.2504 4.0658 -14.8011 -0.086 0.961 0.262 13 1 2 0 0
-1.0702 4.5857 -15.0086 -0.390 0.424 0.817 86 52 45 0 0
-1.0817 4.5274 -15.4762 -0.240 0.954 -0.181 33 28 30 0 0
-1.0868 4.5090 -15.5448 -0.140 0.958 -0.251 45 42 43 0 0
-1.0945 4.4645 -15.9658 0.306 0.724 0.618 23 14 15 0 0
-1.0884 4.4810 -15.9896 0.250 0.830 0.498 18 9 10 0 0
-1.0758 4.4977 -16.3875 0.114 0.836 0.537 19 7 7 0 0
-1.0385 4.5727 -17.0583 0.256 0.517 0.817 138 138 138 0 0
-0.8823 5.0397 -16.9180 -0.694 0.324 0.643 186 186 187 0 0
-0.8127 5.2397 -17.0145 -0.269 0.957 0.108 202 203 205 0 0
-2.5837 0.1663 -12.5281 -0.094 -0.424 0.901 119 98 96 0 0
-2.3890 0.7443 -12.4737 -0.068 -0.096 0.993 115 51 41 0 0
-2.0190 1.8438 -12.3562 0.572 -0.076 0.817 122 55 39 0 0
-1.9928 1.9210 -12.3612 -0.251 0.077 0.965 121 51 35 0 0
-1.8297 2.4003 -12.4037 0.027 0.685 0.728 125 52 35 0 0
-1.6940 2.8017 -12.3960 0.290 0.612 0.736 123 47 31 0 0
-1.5987 3.0838 -12.3828 -0.092 0.391 0.916 125 48 31 0 0
-1.5875 3.1166 -12.3874 0.278 0.636 0.720 124 47 29 0 0
-1.5786 3.1424 -12.3984 0.217 0.241 0.946 123 46 27 0 0
-1.3511 3.8111 -12.4589 0.085 0.206 0.975 128 51 33 0 0
-1.3136 3.9199 -12.4915 0.429 -0.138 0.893 154 90 76 0 0
-1.2783 4.0221 -12.5300 0.338 0.875 0.346 152 89 44 0 0
-1.2746 3.9666 -13.7340 0.451 0.454 0.768 110 60 21 0 0
-1.0221 4.6313 -15.1977 0.338 0.755 0.562 49 38 39 0 0
-1.0535 4.5212 -15.5168 -0.140 0.958 -0.251 42 39 40 0 0
-1.0612 4.4723 -15.9888 0.250 0.830 0.498 19 10 11 0 0
-1.0321 4.5342 -16.4187 -0.013 0.750 0.661 40 20 19 0 0
-1.0399 4.4743 -17.0866 0.766 0.638 -0.072 115 107 108 0 0
-1.0114 4.5600 -17.0627 0.375 0.372 0.849 141 140 142 0 0
-0.7726 5.2716 -16.9515 -0.095 0.992 -0.078 203 204 206 0 0
-2.3680 0.7150 -12.4887 -0.181 0.444 0.878 114 51 40 0 0
-1.9501 1.9615 -12.3537 0.150 -0.010 0.989 118 49 33 0 0
-1.5704 3.0859 -12.3724 0.446 0.493 0.747 128 51 34 0 0
-1.5630 3.1068 -12.3880 0.279 0.617 0.735 128 51 32 0 0
-1.5534 3.1347 -12.3971 0.245 0.295 0.924 127 50 30 0 0
-1.2472 4.0224 -12.7340 0.724 0.478 0.498 83 35 28 0 0
-1.2502 3.9545 -13.7375 0.316 0.504 0.804 110 60 22 0 0
-1.1860 4.0744 -14.9375 -0.711 0.467 0.526 60 17 10 0 0
-1.0070 4.5814 -15.3379 -0.246 0.968 0.059 15 10 12 0 0
-1.0413 4.4426 -15.9701 0.381 0.660 0.647 20 11 12 0 0
-1.0348 4.4607 -15.9919 0.436 0.638 0.634 21 12 12 0 0
-1.0263 4.4851 -16.0051 0.108 0.748 0.654 18 9 9 0 0
-1.0007 4.5066 -16.9277 0.670 0.712 -0.210 96 83 80 0 0
-0.8126 5.0689 -16.8466 -0.074 0.788 0.611 186 187 188 0 0
-1.5450 3.0785 -12.3708 -0.420 0.453 0.786 124 47 29 0 0
-1.2379 3.9827 -12.5168 0.436 0.602 0.669 166 95 60 0 0
-1.2329 3.9964 -12.5383 0.562 0.641 0.523 149 94 47 0 0
-1.1726 4.0262 -14.9420 0.157 -0.196 0.968 48 14 6 0 0
-1.0251 4.4011 -15.9671 0.092 0.458 0.884 11 2 3 0 0
-1.0173 4.4231 -15.9837 0.148 0.510 0.848 17 8 9 0 0
-1.0101 4.4434 -16.0024 0.203 0.596 0.777 23 13 12 0 0
-1.0026 4.4646 -16.0201 0.321 0.488 0.812 21 11 10 0 0
-0.9799 4.4703 -17.0152 0.698 0.677 -0.234 113 107 105 0 0
-0.9541 4.5513 -16.9487 0.684 0.729 0.023 127 124 125 0 0
-0.9363 4.6059 -16.9195 0.641 0.587 0.495 139 137 138 0 0
-1.9044 1.9209 -12.4068 0.459 0.765 0.451 121 52 36 0 0
-1.8977 1.9396 -12.4260 0.293 0.612 0.735 121 52 36 0 0
-1.8936 1.9500 -12.4524 0.399 0.481 0.781 123 54 36 0 0
-1.2920 3.7418 -12.5010 -0.092 0.466 0.880 123 48 32 0 0
-0.9517 4.5778 -15.2314 -0.386 0.534 0.752 51 43 44 0 0
-0.9496 4.5754 -15.3659 0.562 0.807 -0.181 43 41 44 0 0
-0.9515 4.5661 -15.4221 0.590 0.794 -0.145 41 35 37 0 0
-0.9552 4.5508 -15.4864 0.640 0.744 -0.193 20 11 13 0 0
-0.9938 4.4051 -15.9492 0.092 0.756 0.648 11 3 4 0 0
-0.9854 4.4294 -15.9627 0.443 0.710 0.548 15 6 7 0 0
-0.9801 4.4433 -15.9900 0.353 0.730 0.585 22 12 11 0 0
-0.9125 4.5830 -16.9387 0.553 0.698 0.456 145 143 144 0 0
-0.7813 4.9764 -16.9071 0.439 0.775 0.454 186 186 188 0 0
-1.8763 1.9155 -12.4383 0.642 0.392 0.659 122 53 37 0 0
