ply
format ascii 1.0
element vertex 858
property float x
property float y
property float z
property float nx
property float ny
property float nz
property uchar diffuse_red
property uchar diffuse_green
property uchar diffuse_blue
property uchar class
property uchar detection
end_header
-1.1478 4.6914 -14.9283 0.924 0.119 0.365 91 50 43 0 0
-1.2267 4.6441 -15.3470 0.185 0.979 -0.090 48 27 24 0 0
-1.2720 4.6154 -15.5467 0.460 0.888 0.005 24 15 13 0 0
-1.2744 4.6153 -15.5952 0.347 0.920 0.182 37 29 29 0 0
-1.3043 4.5946 -15.6842 0.576 0.816 0.036 44 42 44 0 0
-1.3040 4.5966 -15.7291 0.553 0.827 0.102 47 46 47 0 0
-4.3993 1.9472 -12.5372 -0.124 -0.344 0.931 104 52 45 0 0
-1.9511 3.9141 -12.4165 0.023 0.162 0.986 125 50 29 0 0
-1.4547 4.3158 -12.4689 0.697 0.129 0.706 77 21 3 0 0
-1.4679 4.3625 -14.0122 0.134 0.927 0.349 76 25 12 0 0
-1.5604 4.3000 -14.3371 0.354 0.933 0.059 103 33 11 0 0
-1.5266 4.3490 -14.9239 -0.331 -0.269 0.904 81 26 12 0 0
-1.1365 4.6636 -14.9392 0.349 0.882 0.317 88 47 40 0 0
-1.1149 4.6815 -14.9516 0.165 0.847 0.505 80 43 36 0 0
-1.2405 4.6034 -15.5741 0.635 0.772 -0.011 26 16 17 0 0
-1.2616 4.5893 -15.6502 0.550 0.601 0.579 31 21 24 0 0
-1.2480 4.6012 -15.6755 0.550 0.601 0.579 37 31 33 0 0
-1.2344 4.6131 -15.7007 0.550 0.601 0.579 43 41 41 0 0
-1.2209 4.6249 -15.7262 0.407 0.560 0.722 47 44 45 0 0
-1.6941 4.0882 -12.4738 -0.139 0.722 0.678 120 41 24 0 0
-1.1060 4.6503 -14.9228 0.381 0.906 0.185 88 45 36 0 0
-1.0970 4.6587 -14.9531 0.259 0.890 0.374 87 50 41 0 0
-1.0778 4.6794 -15.0994 0.641 0.720 0.266 64 38 34 0 0
-1.0721 4.6852 -15.1349 0.215 0.721 0.659 59 38 34 0 0
-2.1863 3.6521 -12.3870 0.446 0.273 0.852 123 52 32 0 0
-2.1680 3.6675 -12.4033 0.357 0.309 0.881 125 51 32 0 0
-1.4164 4.2848 -12.6834 0.519 0.850 0.092 92 48 39 0 0
-1.5048 4.2724 -14.3963 0.047 0.171 0.984 76 15 7 0 0
-1.0698 4.6429 -14.9413 0.318 0.910 0.267 88 47 36 0 0
-1.0552 4.6554 -14.9638 -0.025 0.476 0.879 75 41 33 0 0
-4.2992 1.9043 -12.3876 -0.458 -0.184 0.870 100 57 50 0 0
-1.3850 4.2663 -12.4123 0.429 0.902 0.060 155 89 50 0 0
-1.6360 4.0849 -13.0770 0.205 0.858 -0.471 48 43 43 0 0
-1.0904 4.5835 -14.7825 0.070 0.435 0.898 82 25 12 0 0
-1.0326 4.6363 -14.9584 0.189 0.537 0.822 85 49 41 0 0
-1.0135 4.6522 -14.9744 0.118 0.613 0.781 54 21 13 0 0
-0.9719 4.6926 -15.1760 0.682 0.729 -0.052 26 13 14 0 0
-1.0600 4.6718 -16.7004 0.504 0.610 0.611 66 42 39 0 0
-2.3514 3.4473 -12.4214 0.314 0.562 0.765 124 52 34 0 0
-1.5095 4.2049 -14.7484 0.191 0.980 0.057 19 3 3 0 0
-1.0646 4.5669 -14.7727 -0.073 0.492 0.867 81 24 12 0 0
-0.9861 4.6367 -14.9622 0.095 0.491 0.866 72 36 26 0 0
-1.0948 4.5823 -16.0235 0.082 0.840 0.536 49 39 38 0 0
-1.0398 4.6532 -16.8477 0.752 0.463 0.470 94 83 77 0 0
-2.2829 3.4661 -12.4037 0.336 0.652 0.680 132 59 42 0 0
-2.2677 3.4791 -12.4237 0.336 0.652 0.680 125 52 35 0 0
-2.0841 3.6279 -12.4065 0.251 0.557 0.792 122 49 30 0 0
-1.5653 4.0511 -12.4431 0.617 0.381 0.689 122 45 30 0 0
-1.4648 4.1782 -13.9262 0.382 0.695 0.609 73 16 2 0 0
-1.4601 4.1831 -13.9604 0.091 0.772 0.629 61 13 4 0 0
-0.9465 4.6319 -14.9757 0.215 0.697 0.684 57 24 16 0 0
-0.9954 4.6037 -15.3559 0.493 0.760 -0.423 28 17 17 0 0
-1.0673 4.5653 -16.0117 0.235 0.768 0.596 33 22 21 0 0
-1.0026 4.6381 -16.6735 0.365 0.841 0.398 69 44 40 0 0
-1.0120 4.6354 -16.8358 0.981 0.119 0.151 93 83 76 0 0
-1.4765 4.1305 -13.8845 0.336 0.609 0.718 114 64 41 0 0
-1.4353 4.1649 -13.9120 0.633 0.480 0.607 77 19 2 0 0
-1.4969 4.1290 -14.4029 0.154 -0.210 0.966 101 36 6 0 0
-1.3619 4.2536 -14.8991 0.811 -0.224 0.541 71 20 11 0 0
-0.9643 4.5828 -15.0729 0.218 0.746 0.630 47 18 13 0 0
-0.9928 4.5699 -15.4254 0.484 0.767 -0.421 23 13 14 0 0
-1.0372 4.5503 -15.9960 0.567 0.520 0.638 35 20 19 0 0
-1.0254 4.5609 -16.0245 0.674 0.630 0.387 33 21 20 0 0
-0.9519 4.6243 -16.1453 0.276 0.642 0.715 45 17 15 0 0
-0.9957 4.6076 -16.7930 0.290 0.668 0.685 82 62 56 0 0
-1.0102 4.5979 -16.8658 0.904 0.420 -0.087 94 83 77 0 0
1.2005 6.3972 -16.7739 0.487 0.801 0.347 213 213 213 0 0
1.2097 6.4057 -16.8064 0.487 0.801 0.347 213 213 213 0 0
-1.5307 4.0090 -12.4437 0.573 0.631 0.523 124 48 32 0 0
-1.3704 4.1419 -12.5125 0.695 -0.247 0.675 135 60 13 0 0
-1.3575 4.1602 -12.7918 0.842 0.293 -0.454 61 40 37 0 0
-1.3436 4.2025 -13.8978 0.554 0.741 0.379 62 11 4 0 0
-1.3459 4.2018 -13.9413 0.242 0.773 0.587 72 18 8 0 0
-0.9446 4.5905 -16.1177 0.276 0.642 0.715 51 35 35 0 0
-0.9729 4.5861 -16.7891 0.861 0.502 -0.077 83 65 58 0 0
1.2451 6.3987 -16.8237 0.295 0.892 0.342 213 213 213 0 0
-1.7712 3.8041 -13.4647 0.494 0.668 -0.556 42 40 43 0 0
-1.3685 4.1577 -14.3655 0.142 0.683 0.717 98 24 11 0 0
-1.3587 4.1790 -14.8615 0.390 0.371 0.843 60 15 9 0 0
-1.0675 4.4191 -14.9279 -0.075 -0.055 0.996 75 22 11 0 0
-0.8945 4.5668 -15.1586 0.594 0.636 0.493 46 17 15 0 0
-0.9214 4.5702 -16.1125 0.384 0.454 0.804 51 38 38 0 0
-0.9059 4.5835 -16.1355 0.459 0.393 0.797 53 38 38 0 0
-1.0217 4.5131 -17.0509 0.327 -0.428 0.843 134 131 133 0 0
1.2607 6.3767 -16.8818 0.841 0.468 0.272 213 213 213 0 0
-1.4936 3.9688 -12.4413 0.678 0.070 0.732 125 49 32 0 0
-1.3333 4.1391 -13.9732 0.477 0.874 0.093 65 14 7 0 0
-1.3387 4.1572 -14.8604 0.332 0.420 0.844 56 14 8 0 0
-1.2940 4.1945 -14.8847 0.028 0.601 0.799 64 16 10 0 0
-0.9035 4.5459 -16.1155 0.488 0.276 0.828 49 35 34 0 0
-0.8848 4.5617 -16.1335 0.481 0.194 0.855 53 39 38 0 0
-0.7958 4.6371 -16.2300 0.487 0.551 0.678 47 35 34 0 0
-2.5004 3.1043 -12.3666 0.190 0.240 0.952 122 51 34 0 0
-2.4077 3.1808 -12.3782 0.077 0.585 0.807 125 53 37 0 0
-2.1282 3.4111 -12.4064 0.114 0.340 0.933 125 52 34 0 0
-2.0993 3.4351 -12.4113 0.288 0.475 0.831 125 51 32 0 0
-1.9898 3.5239 -12.3645 0.389 0.057 0.919 126 52 32 0 0
-1.2675 4.1665 -14.4057 -0.023 0.962 0.272 43 9 5 0 0
-1.3378 4.1202 -14.8860 0.274 0.795 0.542 51 12 6 0 0
-1.3067 4.1458 -14.8859 0.492 0.070 0.868 58 14 8 0 0
-1.2235 4.2135 -14.8561 0.282 -0.117 0.952 64 17 9 0 0
-0.8647 4.5085 -14.8641 0.526 0.791 0.313 84 27 13 0 0
-0.8704 4.5334 -16.0948 0.147 0.326 0.934 37 22 20 0 0
-0.8484 4.5518 -16.1075 0.190 0.486 0.853 48 33 32 0 0
-0.8121 4.5837 -16.1923 0.454 0.843 0.289 50 36 35 0 0
-4.4893 1.4355 -12.6301 -0.414 -0.236 0.879 138 123 119 0 0
-2.5340 3.0393 -12.3479 0.071 0.161 0.984 122 51 33 0 0
-2.5061 3.0624 -12.3552 0.212 0.345 0.914 122 50 35 0 0
-2.4852 3.0800 -12.3696 0.198 0.270 0.942 123 51 36 0 0
-2.4582 3.1024 -12.3777 0.284 0.540 0.792 124 52 37 0 0
-2.3357 3.2036 -12.3938 0.031 0.345 0.938 123 50 33 0 0
-2.1125 3.3877 -12.4088 0.052 0.592 0.804 123 50 32 0 0
-1.9759 3.4993 -12.3688 0.552 0.246 0.797 126 51 31 0 0
-1.4820 3.9075 -12.4319 0.178 0.433 0.884 119 41 23 0 0
-1.4610 3.9251 -12.4440 0.646 0.310 0.697 117 40 22 0 0
-1.2652 4.1313 -14.4282 0.261 0.827 0.497 47 11 7 0 0
-1.3007 4.1109 -14.8178 0.728 0.629 0.273 32 7 2 0 0
-1.3168 4.0992 -14.8835 0.494 0.725 0.480 45 12 6 0 0
-1.0626 4.3112 -15.0032 -0.122 -0.455 0.882 69 21 11 0 0
-0.8141 4.5216 -15.2578 0.504 0.428 0.750 39 19 17 0 0
-0.8336 4.5250 -16.1153 0.315 0.700 0.641 39 22 19 0 0
-0.7916 4.5613 -16.1914 0.363 0.907 0.211 50 37 36 0 0
-0.7852 4.5675 -16.2288 0.363 0.907 0.211 52 38 37 0 0
-2.1769 3.2977 -12.3887 -0.013 0.525 0.851 127 54 37 0 0
-2.0829 3.3755 -12.3961 0.094 0.421 0.902 127 54 35 0 0
-2.0145 3.4319 -12.3943 0.268 0.068 0.961 129 54 35 0 0
-1.4465 3.9017 -12.4475 0.546 0.592 0.594 121 43 25 0 0
-1.2356 4.1178 -14.4136 0.476 0.340 0.811 53 14 9 0 0
-1.2727 4.0974 -14.8923 0.038 0.047 0.998 50 13 7 0 0
-1.1223 4.2207 -14.8542 0.127 -0.003 0.992 64 17 9 0 0
-4.3849 1.4392 -12.5702 -0.475 -0.284 0.833 138 124 120 0 0
-2.3226 3.1391 -12.3091 0.434 0.031 0.900 124 51 36 0 0
-2.1702 3.2669 -12.4009 0.543 0.023 0.839 124 51 34 0 0
-2.0830 3.3386 -12.3793 0.236 0.174 0.956 127 55 38 0 0
-1.2472 4.0799 -14.8836 -0.027 0.410 0.912 46 13 8 0 0
-1.0685 4.2270 -14.8483 -0.158 0.180 0.971 63 16 6 0 0
-0.7608 4.4945 -15.5060 0.562 0.824 0.072 39 30 28 0 0
-2.0856 3.2997 -12.3652 0.304 0.337 0.891 125 50 36 0 0
-2.0027 3.3688 -12.3841 -0.053 0.005 0.999 126 49 32 0 0
-1.4573 3.8221 -12.4642 -0.019 0.670 0.742 121 42 24 0 0
-1.2410 4.0304 -14.0148 0.622 0.400 0.673 70 17 10 0 0
-1.2523 4.0363 -14.8307 0.606 0.661 0.443 20 4 1 0 0
-1.0245 4.2255 -14.8562 0.153 -0.276 0.949 64 15 8 0 0
-0.9918 4.2525 -14.8529 0.190 -0.285 0.939 64 15 8 0 0
-0.7388 4.4752 -15.5476 0.875 0.483 0.045 45 36 35 0 0
-0.7281 4.4933 -16.0425 -0.143 0.885 0.443 51 40 38 0 0
-2.0461 3.2962 -12.3782 0.201 0.177 0.963 127 51 36 0 0
-1.4337 3.8060 -12.4571 0.209 0.535 0.818 121 41 23 0 0
-1.1682 4.0293 -12.6221 0.720 0.359 0.595 82 18 6 0 0
-1.2196 4.0108 -14.0111 0.356 0.387 0.851 66 16 9 0 0
-1.1935 4.0326 -14.0174 0.482 0.857 0.185 97 43 30 0 0
-1.1714 4.0518 -14.0702 0.215 0.921 0.325 79 23 7 0 0
-1.2273 4.0185 -14.8227 0.561 0.736 0.379 17 2 1 0 0
-0.6708 4.5007 -15.9829 0.385 0.855 0.348 49 41 38 0 0
-2.3260 3.0261 -12.3338 0.201 -0.049 0.978 126 54 39 0 0
-1.9253 3.3607 -12.4114 0.024 0.668 0.744 127 49 29 0 0
-1.4248 3.7774 -12.4306 0.631 0.517 0.579 126 46 28 0 0
-1.4027 3.7960 -12.4415 0.561 0.146 0.815 120 39 21 0 0
-1.1592 4.0021 -12.6696 0.905 0.425 0.019 84 22 11 0 0
-1.2173 3.9744 -13.9509 0.829 0.372 0.419 69 13 7 0 0
-1.1999 3.9898 -14.0096 0.293 0.252 0.922 64 15 8 0 0
-1.1741 4.0114 -14.0164 0.520 0.381 0.764 91 39 26 0 0
-1.1424 4.0384 -14.0563 0.152 0.095 0.984 83 28 8 0 0
-1.9860 3.2733 -12.3882 0.212 0.237 0.948 126 50 34 0 0
-1.3890 3.7922 -13.8329 -0.623 0.552 0.555 55 10 4 0 0
-0.7226 4.3659 -15.0701 0.720 0.634 0.284 76 21 13 0 0
-0.6991 4.3909 -15.4390 0.526 0.842 0.120 51 27 24 0 0
-0.6356 4.4492 -15.8014 -0.008 0.693 0.721 55 41 41 0 0
-0.6375 4.4518 -16.0875 0.602 0.511 0.613 76 47 44 0 0
-0.6403 4.4503 -16.1397 0.883 0.207 0.421 80 52 48 0 0
-0.6402 4.4539 -16.3807 0.081 0.851 0.519 86 59 55 0 0
-1.9647 3.2544 -12.3846 0.283 0.083 0.956 128 52 36 0 0
-1.6090 3.5521 -12.4262 0.175 0.571 0.802 127 49 29 0 0
-1.0717 4.0381 -15.2121 -0.644 0.366 0.671 60 15 9 0 0
-0.6830 4.3617 -15.1282 0.537 0.841 0.072 78 25 12 0 0
-0.6853 4.3690 -15.8170 0.630 0.774 0.058 49 33 32 0 0
-0.6242 4.4238 -16.0980 0.736 0.470 0.487 79 48 46 0 0
-0.6774 4.3904 -16.9210 0.634 0.719 -0.286 155 155 156 0 0
-1.9669 3.2157 -12.3701 0.264 0.597 0.758 130 54 39 0 0
-1.9553 3.2257 -12.3940 0.157 0.696 0.700 129 53 37 0 0
-1.5617 3.5556 -12.4292 -0.145 0.712 0.687 130 52 32 0 0
-1.1966 3.8786 -13.8747 0.197 0.769 0.608 88 32 20 0 0
-1.1991 3.8770 -13.9187 0.222 0.847 0.483 111 65 35 0 0
-1.1531 3.9158 -13.9397 0.462 0.672 0.579 77 18 5 0 0
-1.1347 3.9319 -13.9972 0.059 0.736 0.675 64 14 6 0 0
-1.0684 3.9934 -14.4926 0.689 0.723 -0.042 52 9 4 0 0
-0.6549 4.3469 -15.1148 0.902 0.328 0.283 74 21 11 0 0
-0.6407 4.3623 -15.4087 0.505 0.863 0.025 85 56 46 0 0
-0.6402 4.3633 -15.4535 0.505 0.863 0.025 83 55 47 0 0
-1.9575 3.1866 -12.3429 -0.032 0.553 0.833 127 51 37 0 0
-1.4204 3.6381 -12.4337 0.469 -0.001 0.883 125 44 23 0 0
-1.3906 3.6631 -12.4359 0.414 0.165 0.895 125 43 22 0 0
-1.3488 3.6980 -12.4240 0.411 0.626 0.662 125 42 23 0 0
-1.3303 3.7137 -12.4391 0.235 0.493 0.838 124 41 23 0 0
-1.3125 3.7288 -12.4549 0.252 0.520 0.816 123 44 24 0 0
-1.1713 3.8628 -13.9066 0.222 0.847 0.483 110 64 36 0 0
-1.1311 3.8968 -13.9351 0.462 0.672 0.579 77 17 3 0 0
-1.1251 3.9022 -13.9681 -0.010 0.567 0.824 65 12 7 0 0
-1.1063 3.9181 -13.9842 -0.011 0.649 0.761 63 13 5 0 0
-1.1016 3.9343 -15.1333 0.330 0.316 0.890 51 12 7 0 0
-1.0820 3.9510 -15.1495 0.373 0.710 0.597 53 14 7 0 0
-1.0683 3.9627 -15.1743 0.450 0.693 0.563 55 15 7 0 0
-1.0576 3.9729 -15.2934 -0.615 0.306 0.726 56 16 8 0 0
-0.8471 4.1471 -15.0735 0.321 0.893 0.316 60 17 10 0 0
-0.8415 4.1522 -15.1096 0.787 0.562 0.254 60 17 10 0 0
-0.6230 4.3392 -15.4568 0.611 0.791 -0.028 85 53 45 0 0
-1.9175 3.1836 -12.3553 0.163 0.691 0.704 126 50 35 0 0
-1.8999 3.1986 -12.3724 0.089 0.671 0.736 126 50 34 0 0
-1.2909 3.7111 -12.4503 0.252 0.520 0.816 123 42 22 0 0
-1.1447 3.8472 -13.8551 0.344 0.736 0.583 86 30 22 0 0
-1.1311 3.8588 -13.8779 0.344 0.736 0.583 102 56 30 0 0
-1.0905 3.8931 -13.9059 0.513 0.356 0.781 80 19 4 0 0
-1.0741 3.9075 -13.9659 0.459 0.419 0.783 65 15 9 0 0
-1.0442 3.9381 -14.5546 0.622 0.578 0.528 56 8 4 0 0
-1.0679 3.9230 -15.0682 0.797 0.129 0.591 43 10 6 0 0
-1.0610 3.9292 -15.1026 0.507 0.713 0.484 49 12 5 0 0
-1.0449 3.9433 -15.1685 0.903 0.355 0.241 53 13 6 0 0
-0.9212 4.0481 -15.2562 0.366 -0.035 0.930 60 17 10 0 0
-0.7781 4.1684 -15.2683 0.658 -0.475 0.585 61 19 13 0 0
-0.5748 4.3389 -15.2308 0.771 0.637 -0.025 78 35 24 0 0
-0.5617 4.3598 -16.2858 0.844 0.518 0.140 85 72 70 0 0
-1.9949 3.0814 -12.3133 0.329 0.404 0.854 129 57 42 0 0
-1.9747 3.0986 -12.3278 0.443 0.601 0.665 126 54 39 0 0
-1.9530 3.1172 -12.3774 -0.022 0.225 0.974 125 52 37 0 0
-1.8773 3.1809 -12.3673 -0.015 0.666 0.746 127 52 34 0 0
-1.5133 3.4876 -12.3980 -0.042 0.435 0.899 127 48 26 0 0
-1.4321 3.5565 -12.4514 0.188 0.786 0.589 126 45 24 0 0
-1.0660 3.8666 -12.6845 0.325 0.823 0.465 81 19 9 0 0
-1.1078 3.8409 -13.8717 0.711 0.050 0.701 100 50 26 0 0
-1.0677 3.8749 -13.9002 0.597 -0.132 0.792 83 24 6 0 0
-1.0604 3.8813 -13.9314 0.692 0.400 0.600 69 13 5 0 0
-1.0475 3.8924 -13.9551 0.626 0.301 0.720 64 15 9 0 0
-1.1803 3.7854 -14.5557 -0.070 0.979 -0.190 103 29 19 0 0
-1.0274 3.9141 -14.5576 0.630 0.588 0.507 61 11 7 0 0
-1.0112 3.9279 -14.5779 0.327 0.943 0.071 51 9 3 0 0
-1.0363 3.9109 -15.0951 0.554 0.509 0.659 45 11 5 0 0
-1.0285 3.9177 -15.1284 0.438 0.775 0.455 48 12 6 0 0
-0.9562 3.9792 -15.2017 -0.414 0.120 0.902 53 13 7 0 0
-0.9065 4.0215 -15.2634 0.618 -0.358 0.700 57 16 10 0 0
-0.5492 4.3303 -16.2495 0.903 0.411 0.121 87 73 69 0 0
-0.6166 4.2773 -16.7049 -0.469 -0.273 0.840 110 105 101 0 0
-0.5607 4.3240 -16.6614 -0.549 -0.231 0.803 118 114 111 0 0
-1.0479 3.8461 -12.6839 0.263 0.885 0.385 81 20 9 0 0
-1.0993 3.8104 -13.8442 0.614 0.381 0.691 69 12 1 0 0
-1.0849 3.8227 -13.8659 0.703 0.354 0.617 103 48 26 0 0
-1.0686 3.8366 -13.8851 0.609 0.482 0.630 124 79 45 0 0
-1.0534 3.8496 -13.9058 0.574 0.564 0.594 86 29 8 0 0
-0.9938 3.9044 -14.5801 0.298 0.435 0.850 55 12 5 0 0
-1.0165 3.8886 -15.0945 0.554 0.509 0.659 38 9 4 0 0
-0.8201 4.0554 -15.2539 0.469 0.008 0.883 55 16 9 0 0
-0.7798 4.0893 -15.2387 0.166 0.716 0.678 55 16 10 0 0
-0.7766 4.0923 -15.2790 0.210 0.028 0.977 55 16 10 0 0
-0.7604 4.1061 -15.2999 0.486 -0.589 0.645 55 16 10 0 0
-0.5420 4.2906 -15.3299 0.855 0.517 0.042 74 29 18 0 0
-0.5498 4.2875 -15.8520 0.229 0.645 0.729 85 52 47 0 0
-0.5337 4.3015 -15.9208 0.529 0.311 0.789 85 52 47 0 0
-0.5037 4.3269 -15.9201 0.692 0.442 0.571 84 52 48 0 0
-0.5256 4.3102 -16.1950 0.955 0.246 0.166 89 76 72 0 0
-0.3290 4.4801 -16.8038 0.359 0.933 0.011 183 181 184 0 0
-2.3154 2.7367 -12.3305 0.113 0.306 0.945 123 52 34 0 0
-1.0184 3.8352 -12.6693 0.239 0.821 0.519 78 18 7 0 0
-1.6475 3.3096 -13.8825 -0.508 0.840 0.191 6 4 7 0 0
-1.0851 3.7850 -13.8499 0.370 0.699 0.612 68 12 3 0 0
-1.0418 3.8219 -13.9152 0.021 0.723 0.691 92 38 14 0 0
-0.9927 3.8671 -14.6054 0.933 0.357 -0.047 59 13 6 0 0
-1.0443 3.8258 -15.0293 0.544 0.831 -0.117 13 3 2 0 0
-0.9409 3.9145 -15.2817 0.746 0.587 -0.315 52 15 7 0 0
-0.9026 3.9468 -15.2701 0.139 -0.045 0.989 53 14 7 0 0
-0.8777 3.9679 -15.2784 0.192 -0.032 0.981 53 15 8 0 0
-0.8785 3.9675 -15.3249 0.316 -0.519 0.795 54 15 8 0 0
-0.8359 4.0034 -15.3066 0.596 -0.476 0.646 53 15 9 0 0
-0.8179 4.0187 -15.3250 0.730 -0.464 0.503 53 15 11 0 0
-0.5458 4.2495 -15.4573 0.941 0.324 0.098 73 35 27 0 0
-2.3336 2.6835 -12.2957 -0.015 0.591 0.807 123 52 34 0 0
-2.3189 2.6960 -12.3169 0.113 0.306 0.945 123 52 34 0 0
-2.2937 2.7174 -12.3269 0.113 0.306 0.945 122 51 33 0 0
-2.2670 2.7400 -12.3353 0.139 0.409 0.902 124 53 35 0 0
-1.7716 3.1599 -12.3464 0.079 0.650 0.756 128 52 30 0 0
-1.3503 3.5169 -12.3813 0.342 0.554 0.759 128 46 25 0 0
-1.0094 3.8066 -12.6051 0.671 0.562 0.485 65 13 4 0 0
-0.9980 3.8168 -12.7411 0.464 0.290 0.837 94 47 35 0 0
-0.9799 3.8322 -12.7565 0.464 0.290 0.837 89 50 40 0 0
-0.9618 3.8476 -12.7719 0.464 0.290 0.837 67 42 39 0 0
-1.0618 3.7671 -13.8437 0.370 0.699 0.612 63 12 4 0 0
-1.0478 3.7791 -13.8659 0.370 0.699 0.612 102 42 23 0 0
-1.0195 3.8032 -13.9102 0.366 0.720 0.590 100 44 20 0 0
-0.9548 3.8639 -15.3769 0.893 0.445 0.071 51 15 7 0 0
-0.9327 3.8826 -15.3896 0.648 0.761 0.002 52 15 8 0 0
-0.9552 3.8639 -15.4689 0.666 0.558 0.495 52 16 9 0 0
-0.9366 3.8797 -15.4871 0.632 0.745 0.216 52 16 9 0 0
-0.8864 3.9221 -15.4574 -0.222 0.224 0.949 51 15 9 0 0
-0.8538 3.9498 -15.4541 -0.486 0.113 0.867 51 16 10 0 0
-0.8041 3.9921 -15.5167 0.669 -0.548 0.503 49 17 12 0 0
-0.5268 4.2272 -15.5502 0.917 0.335 0.218 65 33 27 0 0
-0.5296 4.2250 -15.6010 0.708 0.688 0.161 77 44 38 0 0
-1.7447 3.1459 -12.3363 0.120 0.648 0.752 127 50 29 0 0
-0.9736 3.8014 -12.6576 0.673 0.631 0.387 76 16 6 0 0
-1.0385 3.7492 -13.7557 0.327 0.759 0.562 114 61 15 0 0
-1.0109 3.7728 -13.8415 0.567 0.607 0.557 91 29 12 0 0
-1.2012 3.6136 -14.7785 0.921 0.173 -0.349 109 40 21 0 0
-0.9499 3.8267 -14.6855 0.422 0.905 0.047 63 14 7 0 0
-1.0375 3.7541 -15.3463 0.536 0.843 -0.043 33 8 4 0 0
-1.0042 3.7824 -15.3426 0.933 0.134 0.334 38 10 6 0 0
-0.9919 3.7929 -15.3700 0.729 0.672 0.131 43 12 7 0 0
-1.0055 3.7816 -15.4817 0.872 0.047 0.488 48 14 8 0 0
-0.9918 3.7933 -15.5073 0.872 0.047 0.488 49 15 9 0 0
-0.9346 3.8417 -15.4677 0.955 0.129 0.268 49 15 9 0 0
-0.8857 3.8832 -15.4401 0.785 -0.541 0.301 50 16 10 0 0
-0.8644 3.9018 -15.6387 0.474 -0.410 0.779 45 15 10 0 0
-0.5140 4.1991 -15.5607 0.917 0.335 0.218 45 21 16 0 0
-0.5111 4.2017 -15.6025 0.791 0.592 0.153 50 24 20 0 0
-0.5085 4.2039 -15.6451 0.870 0.473 0.139 59 31 28 0 0
-2.2783 2.6551 -12.2758 0.378 0.400 0.835 123 52 34 0 0
-2.2681 2.6638 -12.3017 0.409 0.799 0.441 123 52 34 0 0
-2.2512 2.6782 -12.3205 0.318 0.708 0.631 124 53 35 0 0
-0.9536 3.7826 -12.6546 0.437 0.816 0.379 73 15 5 0 0
-0.9962 3.7496 -15.3599 0.906 0.341 0.250 31 9 5 0 0
-0.9893 3.7555 -15.3953 0.753 0.636 0.168 35 10 6 0 0
-0.9968 3.7492 -15.4523 0.670 0.577 0.467 39 11 6 0 0
-0.9874 3.7573 -15.4842 0.729 0.596 0.337 43 11 6 0 0
-0.9774 3.7658 -15.5153 0.804 0.435 0.406 45 13 8 0 0
-0.9626 3.7784 -15.5392 0.846 0.462 0.266 46 14 9 0 0
-0.4933 4.1778 -15.6519 0.870 0.473 0.139 52 35 33 0 0
-2.2549 2.6374 -12.2703 0.434 0.675 0.596 122 51 35 0 0
-2.2425 2.6480 -12.2939 0.288 0.619 0.731 124 52 36 0 0
-2.2149 2.6715 -12.3380 0.434 0.675 0.596 126 54 38 0 0
-1.4133 3.3548 -12.4422 0.272 0.690 0.671 126 44 23 0 0
-1.3053 3.4469 -12.4643 0.538 0.370 0.757 129 47 26 0 0
-0.9384 3.7594 -13.7939 0.501 0.118 0.857 88 27 10 0 0
-1.0085 3.6994 -15.4074 0.426 0.904 0.037 24 7 3 0 0
-2.1076 2.7254 -12.3529 0.025 0.411 0.911 127 55 40 0 0
-1.7658 3.0173 -12.3831 0.021 0.597 0.802 126 49 29 0 0
-1.1559 3.5382 -12.4201 -0.069 0.608 0.791 123 42 21 0 0
-1.1023 3.5839 -12.4674 0.261 0.206 0.943 129 54 31 0 0
-0.8952 3.7605 -12.6635 0.482 0.611 0.628 77 16 7 0 0
-0.9268 3.7318 -13.8032 0.156 0.704 0.693 82 23 7 0 0
-0.9765 3.6869 -15.4350 0.557 0.830 -0.023 21 6 3 0 0
-0.9776 3.6856 -15.6683 0.145 0.987 0.065 32 10 7 0 0
-0.9698 3.6922 -15.7032 0.136 0.989 0.063 33 12 9 0 0
-2.2841 2.5369 -12.2666 0.252 0.864 0.435 123 51 36 0 0
-2.2035 2.6058 -12.2912 0.664 0.169 0.728 125 53 38 0 0
-1.8866 2.8770 -12.3159 0.012 0.339 0.941 124 53 36 0 0
-1.8610 2.8989 -12.3245 -0.008 0.319 0.948 130 59 41 0 0
-1.8282 2.9269 -12.3251 -0.069 0.302 0.951 125 52 33 0 0
-1.8064 2.9455 -12.3378 0.022 0.335 0.942 127 52 31 0 0
-1.7390 3.0032 -12.3733 0.021 0.597 0.802 126 49 29 0 0
-1.6817 3.0523 -12.3460 0.275 0.930 0.242 127 50 29 0 0
-1.3695 3.3192 -12.4326 0.289 0.358 0.888 129 47 25 0 0
-1.1231 3.5301 -12.4391 0.291 0.454 0.842 123 41 20 0 0
-0.8937 3.7260 -12.6083 0.509 0.592 0.625 64 12 6 0 0
-0.8709 3.7454 -12.6552 0.566 0.200 0.799 76 17 9 0 0
-0.9676 3.6547 -15.4053 0.469 0.873 -0.133 13 3 2 0 0
-0.9502 3.6695 -15.4253 0.557 0.830 -0.023 15 5 3 0 0
-0.9496 3.6699 -15.4705 0.490 0.860 0.142 18 7 4 0 0
-1.8109 2.9046 -12.3259 -0.037 0.183 0.982 127 53 35 0 0
-1.7817 2.9296 -12.3304 0.071 0.262 0.962 126 52 31 0 0
-1.7557 2.9519 -12.3382 -0.082 0.367 0.927 127 52 33 0 0
-1.7258 2.9775 -12.3417 0.254 0.442 0.861 128 52 33 0 0
-1.7122 2.9891 -12.3635 0.021 0.597 0.802 126 49 29 0 0
-1.1035 3.5108 -12.4367 0.485 0.187 0.855 126 45 24 0 0
-0.8709 3.7095 -12.6394 0.624 0.572 0.532 64 13 7 0 0
-0.8113 3.7601 -12.7540 0.896 -0.406 0.178 66 42 39 0 0
-0.8489 3.7231 -13.8713 0.325 0.283 0.902 87 28 9 0 0
-0.9004 3.6770 -14.3194 -0.636 0.644 0.424 95 47 37 0 0
-0.8675 3.7023 -15.0145 0.553 0.788 -0.271 87 49 42 0 0
-1.7615 2.9098 -12.3279 0.119 0.225 0.967 125 52 33 0 0
-1.7047 2.9586 -12.3382 0.254 0.442 0.861 126 49 30 0 0
-1.6930 2.9685 -12.3621 0.225 0.350 0.909 126 49 29 0 0
-1.1563 3.4223 -13.6904 -0.047 0.978 -0.201 6 1 2 0 0
-0.8677 3.6692 -13.8807 0.554 0.689 0.466 119 77 46 0 0
-0.8267 3.7024 -14.2428 -0.651 0.580 0.490 95 50 38 0 0
-0.9278 3.6047 -16.1601 -0.296 0.144 0.944 34 24 23 0 0
-1.7416 2.8898 -12.3257 0.119 0.225 0.967 127 52 33 0 0
-0.8292 3.6733 -12.6314 0.611 0.403 0.681 66 14 6 0 0
-0.7866 3.7093 -12.7293 0.568 0.823 0.008 95 51 42 0 0
-0.8538 3.6436 -13.8457 0.413 0.805 0.426 103 49 32 0 0
-0.9177 3.5760 -15.6517 0.802 0.584 0.126 34 20 19 0 0
-2.1483 2.5013 -12.3475 0.836 0.300 0.460 127 55 40 0 0
-1.5993 2.9752 -12.3339 0.271 0.818 0.507 127 49 30 0 0
-0.8125 3.6516 -12.6324 0.763 0.530 0.369 66 13 6 0 0
-0.8113 3.6441 -13.6494 0.711 0.405 0.575 127 79 44 0 0
-0.8417 3.6060 -15.0624 -0.084 0.511 0.855 90 53 44 0 0
-0.8987 3.5507 -15.7947 0.734 0.633 0.246 32 20 19 0 0
-0.8779 3.5685 -15.8100 0.724 0.346 0.596 33 21 20 0 0
-0.8666 3.5780 -15.8400 0.446 0.726 0.523 33 21 21 0 0
-1.9735 2.6143 -12.3629 0.363 0.184 0.913 127 55 40 0 0
-1.7111 2.8415 -12.3319 0.509 0.335 0.793 127 51 32 0 0
-1.5755 2.9588 -12.3272 0.277 0.606 0.746 125 47 27 0 0
-0.8267 3.5936 -13.6134 0.826 0.401 0.395 60 9 4 0 0
-0.8516 3.5512 -15.7531 0.854 0.301 0.424 33 20 19 0 0
-0.8402 3.5607 -15.7828 0.854 0.301 0.424 33 22 21 0 0
-0.8357 3.5624 -16.0146 0.700 0.708 -0.092 30 23 21 0 0
-0.8090 3.5849 -16.0692 0.901 0.356 0.247 31 25 22 0 0
-1.6666 2.8425 -12.3393 0.492 0.011 0.871 127 50 32 0 0
-1.5919 2.9070 -12.3662 -0.029 0.246 0.969 122 44 23 0 0
-1.5627 2.9322 -12.3702 -0.099 0.261 0.960 125 46 25 0 0
-1.5127 2.9753 -12.3875 0.331 0.541 0.773 130 48 27 0 0
-0.9704 3.4444 -12.4569 0.382 0.455 0.805 129 49 28 0 0
-0.9533 3.4590 -12.4735 0.473 0.690 0.549 135 58 38 0 0
-0.8185 3.5546 -14.3802 -0.717 0.579 0.387 122 62 46 0 0
-0.8682 3.4967 -15.7148 0.564 0.823 0.069 33 20 19 0 0
-0.8155 3.5390 -16.0147 0.585 0.806 -0.092 26 21 19 0 0
-0.8260 3.5292 -16.0794 0.344 0.939 0.031 28 23 20 0 0
-0.8198 3.5341 -16.1181 0.602 0.784 0.148 30 24 22 0 0
-0.7765 3.5749 -12.5780 0.511 0.674 0.534 108 52 19 0 0
-0.9575 3.4046 -13.6329 0.718 0.535 0.445 26 12 11 0 0
-0.8033 3.5385 -13.6313 0.546 0.053 0.836 62 10 5 0 0
-0.7437 3.5861 -13.9628 0.702 0.043 0.711 66 14 8 0 0
-0.7496 3.5700 -14.8334 0.871 0.464 0.160 101 56 44 0 0
-0.7622 3.5583 -14.8965 0.596 0.800 0.065 98 55 46 0 0
-0.7814 3.5396 -15.0597 0.650 0.056 0.758 93 54 45 0 0
-0.8425 3.4784 -15.7061 0.648 0.755 0.098 44 21 17 0 0
-0.8370 3.4779 -16.1287 0.378 0.915 -0.139 26 22 21 0 0
-0.7296 3.5633 -16.7499 -0.600 0.366 0.711 107 106 107 0 0
-2.1440 2.3534 -12.2733 0.597 -0.436 0.673 123 52 34 0 0
-1.4771 2.9319 -12.3877 0.412 0.369 0.833 130 48 27 0 0
-1.3621 3.0317 -12.4040 0.213 0.258 0.942 130 48 27 0 0
-0.8931 3.4387 -12.4804 0.295 0.369 0.882 129 52 34 0 0
-0.7594 3.5536 -12.5785 0.648 0.494 0.579 112 57 23 0 0
-0.7477 3.5629 -12.6395 0.736 0.345 0.582 75 19 12 0 0
-0.9693 3.3564 -13.6322 0.452 0.631 0.630 5 0 1 0 0
-0.7133 3.5657 -14.5879 0.405 0.899 0.164 107 55 41 0 0
-0.7734 3.4936 -16.0121 0.536 0.835 -0.120 31 27 28 0 0
-0.8024 3.4671 -16.1063 0.496 0.852 -0.166 31 27 28 0 0
-0.8073 3.4620 -16.1628 0.561 0.819 -0.119 31 27 28 0 0
-0.9290 3.3458 -16.9085 -0.359 -0.015 0.933 83 78 77 0 0
-2.8769 1.6744 -12.3868 0.127 0.497 0.858 117 50 34 0 0
-0.7169 3.5537 -12.6230 0.277 0.601 0.750 76 21 13 0 0
-0.7201 3.5491 -12.7411 0.897 0.315 0.310 80 25 16 0 0
-0.9336 3.3491 -13.6504 0.452 0.631 0.630 26 12 11 0 0
-0.7274 3.5236 -13.9919 0.613 0.430 0.662 65 14 7 0 0
-0.6956 3.5501 -14.0739 0.613 0.765 0.197 102 44 28 0 0
-0.7461 3.4909 -15.0651 0.390 0.811 0.437 92 54 45 0 0
-1.0533 3.2265 -12.4550 0.312 0.557 0.769 132 52 27 0 0
-1.0364 3.2409 -12.4722 0.312 0.557 0.769 136 56 31 0 0
-1.0110 3.2630 -12.4791 0.737 0.169 0.655 132 52 29 0 0
-0.7704 3.4527 -13.7026 0.435 0.190 0.880 88 23 2 0 0
-0.6475 3.5593 -13.7410 0.767 0.220 0.603 73 17 6 0 0
-0.6385 3.5667 -13.7699 0.676 0.561 0.478 118 68 42 0 0
-0.6309 3.5729 -13.8008 0.794 0.585 0.168 120 73 39 0 0
-0.6517 3.5521 -13.9546 0.295 0.829 0.475 65 15 10 0 0
-0.6591 3.5354 -14.5648 0.682 0.722 0.115 110 55 42 0 0
-0.6547 3.5386 -14.6023 0.541 0.834 0.107 101 51 37 0 0
-1.1895 3.0712 -12.4139 0.542 0.344 0.766 128 46 22 0 0
-0.8395 3.3764 -12.4795 -0.045 0.625 0.780 123 44 27 0 0
-0.6191 3.5444 -13.8515 0.834 0.514 0.200 85 30 10 0 0
-0.7345 3.4312 -14.5263 0.985 -0.033 0.167 114 57 44 0 0
-0.6777 3.4800 -14.5757 0.600 -0.091 0.795 117 60 48 0 0
-0.7441 3.4053 -15.4897 0.925 0.091 0.368 84 45 40 0 0
-2.2735 2.0835 -12.4168 0.052 0.089 0.995 123 52 34 0 0
-2.2399 2.1129 -12.4184 0.140 0.092 0.986 123 52 35 0 0
-2.1072 2.2307 -12.3501 0.192 0.476 0.859 124 52 37 0 0
-2.0752 2.2586 -12.3530 0.252 0.335 0.908 125 53 37 0 0
-0.7128 3.4425 -12.9154 0.685 0.548 0.480 88 60 57 0 0
-0.8544 3.3070 -13.4968 -0.096 0.689 0.718 6 2 4 0 0
-0.8174 3.3396 -13.4884 0.539 0.705 0.461 5 2 4 0 0
-0.8067 3.3485 -13.5147 0.539 0.705 0.461 5 1 1 0 0
-0.7913 3.3616 -13.5349 0.234 0.684 0.690 28 13 10 0 0
-0.7049 3.4191 -14.4676 0.874 -0.187 0.448 112 52 42 0 0
-0.6915 3.4295 -14.5357 0.729 0.142 0.670 121 64 49 0 0
-0.6736 3.4449 -14.5536 0.769 0.102 0.632 108 55 41 0 0
-0.6585 3.4577 -14.5755 0.679 -0.045 0.733 118 62 50 0 0
-0.6725 3.4354 -15.0881 0.289 0.867 0.405 93 52 40 0 0
-3.1300 1.2909 -12.4552 0.028 0.229 0.973 114 52 39 0 0
-2.2668 2.0509 -12.3920 -0.253 0.447 0.858 123 52 34 0 0
-0.6561 3.4589 -12.7498 0.371 0.558 0.743 85 25 15 0 0
-0.6865 3.4281 -12.9434 0.381 0.904 0.195 64 42 40 0 0
-0.7009 3.3831 -14.4893 0.516 -0.275 0.811 111 51 40 0 0
-0.6627 3.4160 -14.5217 0.850 0.499 0.166 123 64 49 0 0
-0.6528 3.4241 -14.5511 0.936 0.285 0.206 103 50 36 0 0
-0.6576 3.4188 -14.6021 0.886 0.455 0.086 119 66 54 0 0
-0.6927 3.3784 -15.0566 0.228 0.495 0.839 107 58 47 0 0
-3.0789 1.2951 -12.4612 0.170 0.267 0.949 114 51 38 0 0
-2.1651 2.1009 -12.4154 -0.247 0.840 0.483 123 51 36 0 0
-1.8196 2.4060 -12.3745 -0.003 0.172 0.985 128 54 39 0 0
-1.5349 2.6563 -12.3911 0.304 0.464 0.832 126 49 30 0 0
-0.6601 3.4146 -12.9325 0.381 0.904 0.195 77 43 35 0 0
-0.6295 3.4065 -14.5013 0.339 0.926 0.166 122 61 47 0 0
-0.6231 3.4114 -14.5357 0.623 0.775 0.112 106 51 39 0 0
-0.6294 3.4047 -14.5889 0.392 0.920 0.021 114 64 54 0 0
-0.5925 3.4304 -14.8907 0.724 0.690 -0.021 110 61 47 0 0
-0.6254 3.3983 -15.0305 0.884 0.372 0.282 105 56 42 0 0
-0.6174 3.4046 -15.0640 0.884 0.372 0.282 101 53 40 0 0
-0.6166 3.4043 -15.1084 0.841 0.509 0.181 99 53 41 0 0
-0.6110 3.4084 -15.1457 0.841 0.509 0.181 99 52 42 0 0
-0.6355 3.3850 -15.2288 0.498 0.858 0.123 97 52 44 0 0
-0.6305 3.3885 -15.2674 0.516 0.852 0.088 95 53 44 0 0
-0.6543 3.3657 -15.3501 0.199 0.976 0.085 93 53 42 0 0
-0.6716 3.3436 -15.6586 0.850 0.386 0.359 85 45 39 0 0
-0.6605 3.3527 -15.6888 0.864 0.315 0.392 80 40 28 0 0
-0.8872 3.1308 -16.6888 0.528 0.834 -0.160 32 29 28 0 0
-3.0662 1.2656 -12.4678 -0.008 0.649 0.761 113 50 38 0 0
-3.0618 1.2686 -12.5015 0.377 0.607 0.699 115 50 38 0 0
-1.5124 2.6385 -12.3860 0.442 0.230 0.867 126 49 30 0 0
-1.2583 2.8626 -12.3918 0.318 0.230 0.920 130 48 27 0 0
-0.5887 3.4223 -13.7044 0.419 0.249 0.873 79 42 34 0 0
-0.6260 3.3710 -14.4800 0.594 0.677 0.435 106 50 39 0 0
-0.6153 3.3798 -14.5083 0.594 0.677 0.435 120 58 44 0 0
-0.6051 3.3881 -14.5373 0.546 0.797 0.259 114 57 48 0 0
-0.5977 3.3938 -14.5705 0.546 0.797 0.259 101 52 43 0 0
-0.6006 3.3901 -14.6189 0.275 0.861 0.428 119 65 54 0 0
-0.5638 3.4196 -14.7423 0.742 0.637 0.210 109 57 45 0 0
-0.6139 3.3606 -15.3650 0.204 0.976 -0.081 101 53 42 0 0
-0.6193 3.3545 -15.4200 0.203 0.975 -0.090 101 53 42 0 0
-0.6190 3.3537 -15.4663 0.398 0.903 -0.162 101 55 43 0 0
-0.8486 3.1251 -16.5590 0.487 0.872 -0.055 35 31 30 0 0
-0.8740 3.0994 -16.7015 0.233 0.967 -0.101 31 28 27 0 0
-1.5517 2.5652 -12.4141 0.192 0.326 0.926 126 49 31 0 0
-1.2395 2.8419 -12.3907 0.153 0.454 0.878 129 47 26 0 0
-0.9524 3.0948 -12.4243 0.311 0.109 0.944 131 49 28 0 0
-0.5720 3.4279 -12.5576 0.090 0.436 0.895 103 40 10 0 0
-0.5541 3.4423 -12.6109 0.761 0.300 0.575 69 12 8 0 0
-0.5683 3.4284 -12.6671 0.609 0.399 0.686 79 15 8 0 0
-0.4974 3.4559 -14.0637 0.734 0.672 0.099 116 60 43 0 0
-0.4925 3.4594 -14.0992 0.749 0.662 0.018 117 67 52 0 0
-0.5673 3.3648 -15.2309 0.580 0.807 -0.111 112 60 47 0 0
-0.5634 3.3672 -15.2712 0.802 0.583 -0.128 111 60 46 0 0
-0.5680 3.3618 -15.3247 0.802 0.583 -0.128 110 62 45 0 0
-0.5733 3.3558 -15.3795 0.787 0.591 -0.178 109 63 44 0 0
-0.6101 3.3170 -15.6251 0.623 0.768 0.145 84 44 39 0 0
-1.5304 2.5472 -12.3729 0.677 0.423 0.602 127 52 33 0 0
-1.5173 2.5582 -12.3955 0.581 0.498 0.643 127 51 33 0 0
-1.4292 2.6359 -12.4071 0.005 0.619 0.785 127 48 27 0 0
-1.2192 2.8225 -12.3880 0.401 0.647 0.649 133 51 30 0 0
-1.2009 2.8383 -12.4039 0.230 0.446 0.865 131 50 29 0 0
-0.5701 3.3935 -12.5396 0.027 0.645 0.764 131 52 12 0 0
-0.5515 3.4097 -12.5539 0.027 0.645 0.764 118 42 6 0 0
-0.5519 3.4063 -12.6688 0.609 0.399 0.686 76 14 10 0 0
-0.5431 3.3923 -13.4869 0.155 0.754 0.638 91 41 25 0 0
-0.5274 3.4057 -13.5064 0.219 0.874 0.433 93 42 27 0 0
-0.5640 3.3676 -13.7212 0.624 0.628 0.465 118 69 51 0 0
-0.4717 3.4394 -14.0962 0.822 0.568 0.037 121 72 54 0 0
-0.5460 3.3638 -14.4630 0.613 0.790 0.005 118 61 43 0 0
-0.5528 3.3540 -14.6050 0.621 0.707 0.339 110 63 46 0 0
-0.5438 3.3611 -14.6362 0.621 0.707 0.339 122 65 51 0 0
-0.5349 3.3682 -14.6674 0.621 0.707 0.339 117 58 49 0 0
-0.5271 3.3743 -14.7003 0.729 0.581 0.363 117 59 50 0 0
-0.5487 3.3397 -15.2789 0.865 0.497 -0.068 119 82 64 0 0
-0.5547 3.3330 -15.3346 0.766 0.640 -0.066 119 82 62 0 0
-0.5561 3.3304 -15.3835 0.735 0.667 -0.126 119 81 60 0 0
-0.5583 3.3271 -15.4338 0.766 0.640 -0.066 112 79 57 0 0
-0.6031 3.2818 -15.6454 0.411 0.904 0.118 85 43 36 0 0
-0.5834 3.2885 -16.0487 -0.052 0.818 0.572 38 34 33 0 0
-0.8041 3.0755 -16.7069 0.329 0.942 0.070 31 27 26 0 0
-3.2363 0.9932 -12.4292 -0.368 -0.197 0.909 109 51 40 0 0
-2.1090 1.9949 -12.3974 -0.036 0.195 0.980 124 52 37 0 0
-1.4272 2.6004 -12.3880 0.135 0.551 0.824 128 51 31 0 0
-1.3872 2.6351 -12.4170 0.044 0.687 0.726 125 47 25 0 0
-0.5845 3.3345 -12.8882 0.296 0.723 0.624 93 48 39 0 0
-0.5756 3.3416 -12.9158 0.018 0.711 0.703 91 50 41 0 0
-0.5576 3.3572 -12.9314 0.086 0.746 0.661 93 55 44 0 0
-0.5237 3.3875 -12.9261 0.516 0.572 0.638 97 57 42 0 0
-0.5246 3.3721 -13.4460 0.174 0.853 0.491 107 60 41 0 0
-0.5170 3.3780 -13.4763 0.155 0.754 0.638 111 64 46 0 0
-0.5000 3.3926 -13.4939 0.219 0.874 0.433 109 59 41 0 0
-0.4942 3.3887 -13.8164 0.724 0.608 0.326 111 61 40 0 0
-0.5311 3.3123 -15.3755 0.639 0.758 -0.132 87 55 51 0 0
-1.5130 2.4871 -12.3569 0.593 -0.136 0.794 127 52 33 0 0
-1.4788 2.5165 -12.3930 0.812 -0.040 0.583 129 55 36 0 0
-1.3824 2.6021 -12.3948 0.195 0.339 0.920 127 50 29 0 0
-0.9144 3.0170 -12.4428 -0.052 0.621 0.782 131 49 28 0 0
-0.6013 3.2958 -12.4339 -0.153 0.218 0.964 134 61 45 0 0
-0.5613 3.3307 -12.4592 -0.066 0.698 0.713 189 129 120 0 0
-0.5602 3.3193 -12.8799 0.283 0.697 0.659 97 52 44 0 0
-0.5489 3.3286 -12.9043 0.016 0.713 0.701 96 52 44 0 0
-0.5312 3.3439 -12.9203 0.016 0.713 0.701 99 56 46 0 0
-0.4977 3.3610 -13.3530 0.591 0.738 0.326 101 51 35 0 0
-0.5013 3.3565 -13.3984 0.746 0.592 0.305 104 53 35 0 0
-0.4893 3.3664 -13.4227 0.797 0.340 0.499 105 56 38 0 0
-0.5059 3.3474 -13.5680 0.660 0.739 0.137 108 63 46 0 0
-0.4804 3.3638 -13.7812 0.697 0.683 0.218 116 72 50 0 0
-0.4780 3.3647 -13.8198 0.801 0.555 0.226 117 77 53 0 0
-0.5072 3.2932 -15.3690 0.639 0.758 -0.132 76 45 46 0 0
-0.5586 3.2396 -15.6383 0.600 0.797 -0.068 60 17 9 0 0
-0.5540 3.2396 -15.7749 0.572 0.617 0.541 105 53 35 0 0
-0.4779 3.3397 -13.3914 0.783 0.475 0.401 106 64 47 0 0
-0.4708 3.3452 -13.4223 0.815 0.487 0.314 106 64 47 0 0
-0.4172 3.3707 -14.1415 0.847 0.531 -0.016 106 59 55 0 0
-0.4724 3.3110 -14.4828 0.868 0.435 0.240 111 65 54 0 0
-0.4674 3.3144 -14.5196 0.795 0.597 0.105 86 49 42 0 0
-0.4700 3.3091 -14.6121 0.594 0.803 0.042 108 62 54 0 0
-0.4443 3.3291 -14.7075 0.286 0.900 0.328 100 42 39 0 0
-0.4897 3.2667 -15.4195 0.296 0.951 -0.087 64 25 17 0 0
-0.5665 3.1872 -15.7784 0.601 0.706 0.375 84 29 15 0 0
-1.9968 1.9770 -12.4114 0.163 0.443 0.881 123 50 33 0 0
-1.9606 2.0094 -12.4095 0.577 0.717 0.390 123 50 33 0 0
-1.9565 2.0119 -12.4429 0.575 0.705 0.415 123 50 33 0 0
-1.8132 2.1439 -12.3221 0.060 0.544 0.837 125 52 35 0 0
-1.7680 2.1834 -12.3472 0.099 0.356 0.929 127 51 36 0 0
-1.5149 2.4078 -12.4006 0.050 0.664 0.746 127 52 33 0 0
-1.1865 2.7012 -12.3963 0.198 0.417 0.887 131 50 29 0 0
-0.5201 3.2810 -12.8742 0.644 0.027 0.765 96 51 40 0 0
-0.4518 3.3123 -13.7931 0.820 0.526 0.224 88 56 51 0 0
-0.4385 3.3221 -13.8584 0.771 0.507 0.386 83 50 43 0 0
-0.4588 3.2836 -14.4910 0.786 0.578 0.221 95 46 27 0 0
-0.4524 3.2881 -14.5257 0.786 0.578 0.221 98 49 31 0 0
-0.4475 3.2913 -14.5627 0.625 0.773 0.109 51 15 11 0 0
-0.4105 3.3190 -14.7305 0.528 0.834 0.162 102 35 26 0 0
-1.9428 1.9886 -12.3348 0.274 -0.190 0.943 121 49 34 0 0
-1.9674 1.9644 -12.3996 0.241 0.710 0.662 122 49 32 0 0
-1.1866 2.6640 -12.3800 0.129 0.446 0.886 133 52 31 0 0
-1.1439 2.7013 -12.4050 0.129 0.446 0.886 128 47 26 0 0
-0.7170 3.0817 -12.4549 0.292 0.143 0.946 124 43 24 0 0
-0.5127 3.2500 -12.8879 0.667 -0.151 0.729 97 52 40 0 0
-0.4935 3.2667 -12.9020 0.678 -0.191 0.709 104 62 50 0 0
-0.4337 3.2944 -13.6686 0.488 0.818 0.304 86 45 29 0 0
-0.3851 3.3216 -14.1494 0.876 0.480 -0.043 89 34 22 0 0
-0.4410 3.2600 -14.4929 0.837 0.510 0.200 116 67 42 0 0
-0.4336 3.2655 -14.5261 0.831 0.459 0.315 119 65 44 0 0
-0.4277 3.2696 -14.5617 0.765 0.607 0.217 108 63 51 0 0
-0.3999 3.2884 -14.7435 0.912 0.385 0.139 120 50 38 0 0
-0.5215 3.1449 -15.7710 0.601 0.706 0.375 75 26 12 0 0
-1.9657 1.9288 -12.3424 0.197 -0.191 0.961 122 49 33 0 0
-1.9312 1.9597 -12.3424 0.113 -0.053 0.992 121 48 31 0 0
-1.9410 1.9492 -12.3910 0.262 0.794 0.549 122 49 32 0 0
-1.0821 2.7182 -12.4284 0.084 0.381 0.921 127 45 24 0 0
-1.0498 2.7472 -12.4277 0.107 0.167 0.980 128 45 24 0 0
-1.0345 2.7602 -12.4472 0.335 0.142 0.932 132 47 27 0 0
-0.9424 2.8441 -12.4119 0.418 0.481 0.771 128 45 24 0 0
-0.7884 2.9808 -12.4513 0.386 0.302 0.872 132 52 30 0 0
-0.7677 2.9989 -12.4637 0.443 0.341 0.829 130 49 28 0 0
-0.4801 3.2575 -12.4453 0.548 0.263 0.794 172 117 108 0 0
-0.4243 3.3033 -12.5643 -0.010 0.356 0.935 91 30 7 0 0
-0.4673 3.2520 -12.9303 0.729 -0.143 0.669 77 38 26 0 0
-0.4382 3.2710 -13.1294 0.181 0.924 0.336 100 59 43 0 0
-0.4284 3.2789 -13.1562 0.181 0.924 0.336 106 64 47 0 0
-0.3917 3.2920 -13.7189 0.662 0.683 0.309 112 64 41 0 0
-0.3733 3.2915 -14.2028 0.686 0.721 -0.101 124 68 54 0 0
-0.3752 3.2836 -14.3799 0.399 0.911 0.101 110 60 40 0 0
-0.4248 3.2350 -14.4971 0.837 0.510 0.200 120 69 47 0 0
-0.4182 3.2397 -14.5316 0.848 0.387 0.364 114 61 44 0 0
-0.4092 3.2467 -14.5627 0.765 0.607 0.217 124 69 52 0 0
-0.3861 3.2607 -14.7518 0.921 0.333 0.202 118 55 44 0 0
-0.4993 3.1236 -15.7676 0.540 0.741 0.400 73 24 10 0 0
-1.9295 1.9214 -12.3609 0.694 0.557 0.456 122 49 32 0 0
-1.9190 1.9299 -12.3872 0.694 0.557 0.456 122 49 32 0 0
-1.6311 2.1907 -12.3308 -0.397 0.148 0.906 126 53 34 0 0
-1.0512 2.7088 -12.4130 0.494 -0.011 0.869 129 47 26 0 0
-0.4692 3.2261 -12.5680 0.088 0.744 0.663 166 91 63 0 0
-0.4005 3.2683 -13.1030 0.672 0.702 0.236 110 65 43 0 0
-0.3951 3.2720 -13.1357 0.598 0.757 0.263 113 67 43 0 0
-0.3895 3.2758 -13.1682 0.470 0.849 0.241 114 67 43 0 0
-0.3871 3.2766 -13.2051 0.520 0.840 0.157 110 61 38 0 0
-0.3520 3.2718 -14.1992 0.686 0.721 -0.101 113 61 48 0 0
-0.4085 3.2100 -14.5013 0.837 0.510 0.200 106 57 40 0 0
-0.4019 3.2147 -14.5358 0.804 0.461 0.376 104 55 42 0 0
-0.3934 3.2212 -14.5676 0.831 0.459 0.315 113 57 41 0 0
-0.3849 3.2276 -14.5995 0.831 0.459 0.315 112 66 43 0 0
-2.1392 1.6911 -12.4205 -0.010 0.408 0.913 123 51 36 0 0
-1.9177 1.8925 -12.3683 0.439 0.427 0.791 124 51 34 0 0
-1.8988 1.9089 -12.3853 0.460 0.306 0.834 125 52 35 0 0
-1.7292 2.0630 -12.3483 0.072 -0.227 0.971 126 53 36 0 0
-0.4084 3.2374 -12.7435 0.568 0.520 0.639 85 19 7 0 0
-0.3739 3.2537 -13.1314 0.598 0.757 0.263 105 58 37 0 0
-0.3835 3.2430 -13.1845 0.817 0.358 0.452 105 58 36 0 0
-0.3768 3.2478 -13.2157 0.684 0.569 0.456 107 59 36 0 0
-0.3664 3.2563 -13.2418 0.684 0.569 0.456 108 59 37 0 0
-0.3537 3.2668 -13.2649 0.713 0.487 0.504 109 60 38 0 0
-0.3438 3.2747 -13.2919 0.824 0.394 0.408 108 58 38 0 0
-0.3341 3.2824 -13.3191 0.824 0.394 0.408 105 55 37 0 0
-0.3243 3.2902 -13.3463 0.824 0.394 0.408 104 55 37 0 0
-0.3749 3.2357 -13.5806 0.682 0.724 0.107 108 61 41 0 0
-0.3734 3.1893 -14.8363 0.949 0.315 0.004 113 55 44 0 0
-0.3700 3.1908 -14.8767 0.934 0.272 0.231 107 53 43 0 0
-0.3630 3.1958 -14.9116 0.878 0.471 0.092 111 58 44 0 0
-0.3548 3.2020 -14.9447 0.859 0.466 0.213 115 62 45 0 0
-2.1163 1.6721 -12.4161 0.169 0.432 0.886 123 50 35 0 0
-1.6966 2.0527 -12.3702 0.116 -0.027 0.993 125 52 34 0 0
-0.7166 2.9332 -12.4664 0.333 0.329 0.884 123 42 21 0 0
-0.3917 3.2044 -13.0200 0.720 0.620 0.313 104 63 50 0 0
-0.3669 3.2234 -13.1063 0.712 0.602 0.362 94 52 40 0 0
-0.3793 3.2100 -13.1630 0.844 0.302 0.443 88 45 32 0 0
-0.3687 3.2186 -13.1889 0.791 0.155 0.591 88 45 31 0 0
-0.3580 3.2271 -13.2147 0.786 0.421 0.452 89 48 31 0 0
-0.3475 3.2356 -13.2407 0.741 0.504 0.444 87 46 30 0 0
-0.3339 3.2470 -13.2626 0.904 -0.020 0.428 82 42 26 0 0
-0.3424 3.2243 -13.6440 0.622 0.720 0.308 70 36 25 0 0
-0.3587 3.1623 -14.8434 0.199 0.975 0.104 112 55 43 0 0
-0.3604 3.1589 -14.8915 0.008 0.933 0.359 109 55 45 0 0
-0.3381 3.1785 -14.9032 0.829 0.556 -0.055 109 55 42 0 0
-0.3588 3.1531 -15.0729 0.886 0.227 0.404 117 58 44 0 0
-0.3677 3.1259 -15.5576 0.441 0.109 0.891 110 63 49 0 0
-0.3460 3.1451 -15.5707 0.441 0.109 0.891 88 49 39 0 0
-2.1109 1.6366 -12.4306 0.659 0.224 0.718 120 49 31 0 0
-2.0644 1.6792 -12.4180 -0.045 0.220 0.975 121 50 32 0 0
-1.6782 2.0303 -12.3703 -0.074 -0.025 0.997 124 51 33 0 0
-1.6344 2.0703 -12.3589 0.193 -0.063 0.979 126 53 34 0 0
-0.3676 3.1891 -13.0118 0.948 0.232 0.220 77 39 28 0 0
-0.2992 3.2144 -13.9036 0.525 0.733 0.432 70 19 9 0 0
-0.2763 3.2347 -13.9132 0.345 0.555 0.757 50 11 5 0 0
-0.2749 3.2343 -13.9538 0.521 0.651 0.553 50 11 3 0 0
-0.2668 3.2403 -13.9848 0.274 0.397 0.876 53 7 2 0 0
-0.3266 3.1501 -14.8695 0.008 0.933 0.359 112 58 46 0 0
-0.3279 3.1470 -14.9173 0.739 0.672 -0.056 107 54 40 0 0
-0.3397 3.1299 -15.0737 0.821 0.332 0.464 118 60 44 0 0
-0.3147 3.1523 -15.0811 0.885 -0.001 0.466 111 57 44 0 0
-0.3206 3.1446 -15.1368 0.843 0.045 0.535 106 54 40 0 0
-0.3402 3.1102 -15.5455 -0.038 0.455 0.889 113 67 52 0 0
-0.3233 3.1246 -15.5663 0.074 0.558 0.826 91 49 39 0 0
-1.6203 2.0440 -12.3637 0.141 0.110 0.984 127 53 34 0 0
-1.2750 2.3544 -12.4220 0.477 0.041 0.878 129 52 32 0 0
-1.0400 2.5661 -12.4479 0.191 0.453 0.871 131 49 28 0 0
-0.3526 3.1649 -13.0158 0.867 0.477 0.145 91 53 41 0 0
-0.2557 3.2148 -13.9102 0.500 0.559 0.662 45 9 6 0 0
-0.2388 3.2294 -13.9284 0.379 0.489 0.786 47 10 2 0 0
-0.2028 3.2606 -13.9615 0.381 0.768 0.514 84 24 8 0 0
-0.2802 3.1727 -14.3797 0.935 0.241 0.260 101 50 36 0 0
-0.3090 3.1160 -15.1028 0.169 0.911 0.377 112 57 44 0 0
-0.3141 3.0931 -15.5356 -0.038 0.455 0.889 107 61 45 0 0
-0.2903 3.1142 -15.5454 -0.038 0.455 0.889 93 52 40 0 0
-0.3032 3.0996 -15.6142 0.301 0.884 0.356 86 46 37 0 0
-1.5823 2.0388 -12.3794 0.300 0.543 0.784 126 51 32 0 0
-1.5622 2.0564 -12.3946 0.366 -0.019 0.930 126 51 32 0 0
-1.2288 2.3577 -12.4272 0.275 0.690 0.670 128 51 31 0 0
-0.9822 2.5810 -12.4381 0.333 0.456 0.825 130 48 27 0 0
-0.1672 3.2515 -14.0226 0.301 0.408 0.862 102 49 31 0 0
-0.2627 3.1173 -15.1075 0.370 0.863 0.343 112 57 45 0 0
-0.2504 3.1273 -15.1348 0.436 0.854 0.283 122 64 46 0 0
-0.3049 3.0595 -15.5528 0.443 0.670 0.596 105 59 43 0 0
-0.2761 3.0855 -15.5546 0.168 0.619 0.767 98 57 44 0 0
-0.2566 3.1025 -15.5712 0.135 0.430 0.893 86 47 38 0 0
-1.5733 2.0093 -12.3520 -0.061 -0.029 0.998 128 55 36 0 0
-1.5596 2.0206 -12.3746 0.197 0.598 0.777 126 51 32 0 0
-1.5393 2.0384 -12.3895 0.232 0.229 0.945 126 51 32 0 0
-1.2057 2.3405 -12.4214 0.406 0.570 0.714 128 51 31 0 0
-1.1499 2.3908 -12.4317 0.324 0.298 0.898 128 50 28 0 0
-0.7395 2.7624 -12.4687 0.447 0.220 0.867 131 50 29 0 0
-0.5820 2.9042 -12.5017 0.218 0.233 0.948 128 48 26 0 0
-0.2137 3.1739 -13.9461 0.777 0.488 0.397 52 14 4 0 0
-0.2488 3.0890 -15.1165 0.351 0.914 0.203 116 59 45 0 0
0.7432 3.9137 -16.8319 0.808 0.108 0.579 196 196 198 0 0
-1.5354 2.0040 -12.3679 0.197 0.598 0.777 126 51 32 0 0
-1.1627 2.3408 -12.4302 0.634 0.050 0.772 127 49 28 0 0
-1.1370 2.3638 -12.4379 0.395 0.072 0.916 128 49 27 0 0
-0.3046 3.1008 -12.9046 0.577 0.812 -0.088 99 57 43 0 0
-0.2579 3.1064 -13.6969 0.622 0.722 0.303 117 68 38 0 0
-0.1913 3.1577 -13.8978 0.251 0.796 0.552 58 10 3 0 0
-0.1943 3.0984 -15.1082 0.056 0.988 0.144 123 66 46 0 0
-0.2541 3.0149 -15.7290 0.838 0.544 0.042 92 38 20 0 0
-0.2453 3.0168 -15.8614 0.844 0.392 0.365 30 22 23 0 0
-0.2245 3.0350 -15.8765 0.358 0.023 0.933 39 35 36 0 0
0.7333 3.8657 -16.7829 0.796 -0.291 0.531 195 195 197 0 0
-1.4889 2.0071 -12.3739 -0.001 0.369 0.930 126 51 32 0 0
-1.1173 2.3435 -12.4360 0.222 0.410 0.885 129 50 28 0 0
-0.9370 2.5076 -12.4488 0.412 0.414 0.811 128 47 26 0 0
-0.9179 2.5242 -12.4639 0.341 0.488 0.803 127 46 25 0 0
-0.6056 2.8096 -12.4611 0.050 0.277 0.960 125 44 23 0 0
-0.2817 3.0901 -12.7797 0.819 0.573 0.002 89 22 7 0 0
-0.3235 3.0435 -12.9539 -0.207 0.893 0.400 95 55 39 0 0
-0.2334 2.9875 -15.8260 0.834 0.526 0.169 76 38 26 0 0
-0.2276 2.9909 -15.8656 0.834 0.526 0.169 35 24 24 0 0
-0.2146 3.0014 -15.8935 0.251 0.320 0.913 40 36 37 0 0
-0.1926 3.0209 -15.9065 0.251 0.320 0.913 39 35 36 0 0
-0.1702 3.0407 -15.9189 0.050 0.368 0.929 39 35 36 0 0
-0.0526 3.1481 -15.9202 -0.425 0.905 0.028 41 37 36 0 0
0.7189 3.8080 -16.8496 0.837 -0.436 0.332 195 195 197 0 0
0.7713 3.8582 -16.8018 0.413 -0.327 0.850 195 195 197 0 0
0.7566 3.8408 -16.8841 0.568 -0.522 0.636 197 197 199 0 0
0.7805 3.8623 -16.8915 0.657 -0.503 0.562 198 198 200 0 0
-1.4767 1.9788 -12.3810 0.456 0.325 0.828 126 51 32 0 0
-1.1198 2.3053 -12.3842 0.623 0.167 0.764 127 49 29 0 0
-0.5721 2.8018 -12.4797 0.270 0.226 0.936 132 51 31 0 0
-0.5490 2.8225 -12.4890 0.301 0.239 0.923 134 52 33 0 0
-0.3459 3.0079 -12.4986 -0.119 0.941 0.317 136 66 51 0 0
-0.2862 3.0413 -12.9279 -0.242 0.894 0.378 100 64 51 0 0
-0.2337 2.9607 -15.5185 0.824 0.560 0.079 109 60 46 0 0
-0.2302 2.9618 -15.5611 0.723 0.684 0.097 113 63 48 0 0
-0.2088 2.9807 -15.5747 0.547 0.678 0.492 110 62 50 0 0
-0.2296 2.9503 -15.8037 0.351 0.906 0.235 113 52 33 0 0
-0.2214 2.9560 -15.8394 0.359 0.889 0.284 89 47 33 0 0
-0.2122 2.9628 -15.8735 0.216 0.722 0.658 43 30 28 0 0
0.7556 3.7936 -16.9797 -0.331 0.629 0.703 199 199 201 0 0
-1.4488 1.9658 -12.3700 0.112 0.592 0.798 125 51 33 0 0
-1.4291 1.9831 -12.3856 0.112 0.592 0.798 128 51 31 0 0
-1.0979 2.2871 -12.3798 0.445 0.641 0.625 129 51 32 0 0
-0.6169 2.7250 -12.4433 0.521 0.227 0.823 132 50 29 0 0
-0.4199 2.9026 -12.5012 0.537 0.462 0.705 122 42 23 0 0
-0.3987 2.8640 -13.6378 0.936 -0.335 0.110 10 3 3 0 0
-0.3115 2.9481 -13.5577 0.456 0.434 0.777 13 4 5 0 0
-0.3046 2.9506 -13.6317 0.273 0.230 0.934 19 3 3 0 0
-0.2615 2.9890 -13.6547 0.763 0.268 0.588 21 4 2 0 0
-0.0789 3.1171 -14.4256 0.945 0.089 0.315 104 50 38 0 0
-0.2126 2.9412 -15.4685 0.031 0.873 0.486 113 65 50 0 0
-0.1975 2.9538 -15.4922 0.024 0.894 0.447 107 58 44 0 0
-0.1851 2.9638 -15.5203 -0.110 0.907 0.406 107 56 41 0 0
-0.1382 3.0033 -15.5891 -0.048 0.901 0.432 88 45 37 0 0
-1.0804 2.2646 -12.3806 0.320 0.493 0.809 127 50 31 0 0
-1.0208 2.3191 -12.3858 0.234 0.117 0.965 126 47 26 0 0
-0.2187 2.9757 -13.9175 0.385 0.754 0.533 73 15 5 0 0
-0.1733 3.0141 -13.9805 0.488 0.686 0.539 74 20 3 0 0
-0.1449 3.0401 -13.9820 0.284 0.356 0.890 63 14 4 0 0
-0.0299 3.1387 -14.1153 -0.301 0.420 0.856 100 58 47 0 0
-0.0638 3.0886 -14.4763 0.832 0.163 0.530 106 53 37 0 0
-0.1414 2.9594 -15.5785 0.275 0.762 0.586 88 47 38 0 0
-0.1240 2.9744 -15.5985 0.424 0.586 0.691 87 45 37 0 0
-1.0515 2.2534 -12.3678 0.690 0.116 0.715 128 50 31 0 0
-0.8750 2.4108 -12.4613 0.161 0.374 0.913 128 46 25 0 0
-0.3798 2.8650 -12.4951 0.538 0.172 0.825 124 44 25 0 0
-0.4081 2.7759 -13.6610 0.338 0.047 0.940 5 2 2 0 0
-0.3936 2.7881 -13.6829 0.685 0.456 0.568 4 1 0 0 0
-0.1263 3.0181 -13.9822 0.419 0.732 0.537 66 15 5 0 0
-0.0706 3.0644 -14.0733 0.625 0.294 0.723 111 54 34 0 0
-0.0540 3.0787 -14.0922 0.827 0.244 0.506 119 72 54 0 0
-0.0484 3.0819 -14.1274 0.623 -0.226 0.749 78 52 44 0 0
-0.0680 3.0431 -14.5121 0.773 0.480 0.414 106 53 37 0 0
-0.1360 2.9294 -15.4572 -0.282 0.680 0.677 107 58 43 0 0
-0.1131 2.9500 -15.4680 -0.126 0.884 0.450 110 60 45 0 0
-0.1150 2.9454 -15.5195 0.378 0.872 0.311 110 62 49 0 0
-0.1139 2.9439 -15.5661 0.686 0.525 0.504 89 48 40 0 0
-0.1012 2.9541 -15.5939 0.686 0.525 0.504 86 44 36 0 0
-1.0415 2.2235 -12.3774 0.486 0.377 0.788 130 53 33 0 0
-0.1330 2.9485 -14.4161 0.462 0.860 0.215 123 57 44 0 0
-0.1015 2.9753 -14.4577 0.706 0.431 0.562 117 56 41 0 0
-0.0503 3.0219 -14.4691 0.853 0.315 0.416 105 50 37 0 0
-0.0379 3.0319 -14.4951 0.589 0.339 0.734 103 51 35 0 0
-0.0305 3.0369 -14.5287 0.198 0.031 0.980 117 66 46 0 0
-0.0626 2.9764 -15.0854 -0.593 0.540 0.598 121 66 46 0 0
-0.0848 2.9354 -15.4543 0.280 0.947 0.156 108 58 43 0 0
-0.0742 2.9435 -15.4853 0.249 0.968 0.024 110 61 50 0 0
-0.0917 2.9230 -15.5625 0.873 0.352 0.339 89 48 41 0 0
-0.1641 2.9851 -12.5697 0.183 0.296 0.937 153 88 52 0 0
-0.1219 3.0139 -12.7482 0.756 0.500 0.423 93 32 21 0 0
-0.0345 3.0216 -14.0318 0.437 0.840 0.322 94 31 15 0 0
-0.1066 2.9413 -14.2714 0.513 0.788 0.341 93 58 47 0 0
-1.6870 1.5467 -12.4018 0.198 0.466 0.863 123 50 33 0 0
-0.9084 2.2673 -12.4143 0.281 0.269 0.921 129 51 29 0 0
-0.1662 2.9465 -12.5570 0.183 0.296 0.937 173 98 70 0 0
-0.1507 2.9598 -12.5754 0.573 0.572 0.587 175 108 75 0 0
-0.1382 2.9701 -12.5977 0.573 0.572 0.587 110 46 9 0 0
-0.3639 2.6879 -13.8480 0.054 -0.155 0.987 22 9 9 0 0
-0.0666 2.9633 -13.8476 0.421 0.539 0.729 88 31 12 0 0
-0.0503 2.9773 -13.8666 0.420 0.601 0.680 123 81 46 0 0
-0.0901 2.9139 -14.3196 0.304 0.508 0.806 67 38 34 0 0
0.0226 3.0048 -14.5509 0.860 0.241 0.450 79 50 42 0 0
-0.1169 2.8159 -15.5720 0.187 0.844 0.504 109 57 44 0 0
-0.1050 2.8253 -15.6011 -0.062 0.889 0.453 111 62 49 0 0
-1.7027 1.4920 -12.4021 -0.062 0.169 0.984 122 49 32 0 0
-1.6712 1.5211 -12.4051 -0.062 0.169 0.984 123 50 33 0 0
-1.1850 1.9692 -12.4597 0.409 0.146 0.901 129 54 35 0 0
-0.3771 2.7141 -12.5446 0.592 0.310 0.744 122 43 26 0 0
-0.1331 2.9387 -12.5755 0.324 0.832 0.450 168 103 70 0 0
-0.0168 2.9680 -13.8877 0.445 0.597 0.668 103 47 20 0 0
0.0379 2.9787 -14.5567 0.764 0.364 0.533 70 46 37 0 0
0.0552 2.9937 -14.5752 0.579 0.227 0.783 57 44 46 0 0
-0.4075 2.6512 -12.4904 0.195 0.649 0.735 131 50 29 0 0
-0.3002 2.7476 -12.5459 0.446 0.555 0.702 117 39 22 0 0
-0.0850 2.9388 -12.6915 0.454 0.797 0.398 74 13 4 0 0
0.0042 2.9485 -13.8842 0.445 0.597 0.668 102 49 19 0 0
0.0801 3.0128 -13.9877 -0.333 0.877 0.348 113 56 39 0 0
0.0650 2.9618 -14.5898 0.510 0.517 0.688 50 45 50 0 0
-0.0285 2.8043 -15.7375 0.588 0.805 0.084 79 29 15 0 0
-0.4712 2.5547 -12.4783 0.434 0.673 0.599 129 48 27 0 0
-0.2805 2.7284 -12.5433 0.446 0.555 0.702 120 41 25 0 0
-0.3140 2.6198 -13.7718 -0.460 0.639 0.617 5 2 3 0 0
-0.2876 2.6441 -13.7770 -0.434 0.642 0.632 6 2 3 0 0
0.0811 2.9363 -14.5945 0.488 0.521 0.701 46 46 52 0 0
0.0969 2.9497 -14.6155 0.488 0.521 0.701 54 45 46 0 0
-0.0024 2.7872 -15.7275 0.628 0.775 0.070 77 27 14 0 0
