ply
format ascii 1.0
element vertex 833
property float x
property float y
property float z
property float nx
property float ny
property float nz
property uchar diffuse_red
property uchar diffuse_green
property uchar diffuse_blue
property uchar class
property uchar detection
end_header
-1.4521 0.3099 -12.5388 0.318 -0.498 0.807 125 44 23 0 0
-0.7905 -0.0368 -12.6422 0.412 -0.518 0.749 123 42 21 0 0
-0.6468 -0.1111 -12.6559 0.654 -0.086 0.751 126 44 22 0 0
-0.3612 -0.2582 -12.6807 0.479 -0.155 0.864 143 64 46 0 0
0.0447 -0.4969 -12.9537 0.632 -0.227 0.741 66 12 4 0 0
1.2740 -1.2054 -13.6646 0.264 -0.104 0.959 108 35 18 0 0
1.8011 -1.4768 -13.7082 0.385 -0.108 0.916 150 77 27 0 0
2.0071 -1.5887 -13.7721 0.534 -0.471 0.702 171 89 40 0 0
3.4261 -2.3242 -13.9286 0.760 -0.080 0.645 113 38 14 0 0
3.2725 -2.3321 -14.6175 0.592 -0.246 0.767 48 46 51 0 0
3.2796 -2.3451 -14.6934 0.612 -0.732 0.299 47 45 50 0 0
3.8135 -2.7866 -16.0828 0.425 -0.395 0.814 41 41 41 0 0
4.1824 -3.0264 -16.5151 0.563 0.070 0.823 180 179 178 0 0
4.1980 -3.0370 -16.5369 0.789 -0.257 0.558 187 187 187 0 0
-0.5766 -0.1738 -12.6114 0.556 -0.222 0.801 124 42 20 0 0
-0.5590 -0.1853 -12.6318 0.636 -0.003 0.771 127 46 23 0 0
-0.3745 -0.2839 -12.6779 0.479 -0.155 0.864 140 63 43 0 0
-0.0281 -0.5047 -13.0492 0.981 -0.099 0.167 56 15 8 0 0
0.1212 -0.6329 -13.4733 0.210 0.307 0.928 9 7 8 0 0
1.2611 -1.2303 -13.6618 0.300 -0.143 0.943 119 38 16 0 0
1.2862 -1.2442 -13.6719 0.300 -0.143 0.943 122 43 17 0 0
1.7929 -1.5028 -13.6998 0.428 -0.033 0.903 166 108 65 0 0
2.1900 -1.7156 -13.8025 0.323 -0.313 0.893 136 62 20 0 0
3.2586 -2.3553 -14.6166 0.305 -0.497 0.812 49 45 51 0 0
3.2230 -2.3549 -14.7566 0.286 -0.292 0.913 47 45 50 0 0
3.3428 -2.4925 -15.3753 0.176 -0.519 0.837 17 18 22 0 0
3.7193 -2.7334 -15.7865 0.847 -0.526 -0.079 16 16 18 0 0
3.8043 -2.8121 -16.0731 0.824 -0.160 0.544 42 42 42 0 0
3.9727 -2.8967 -16.0722 0.329 -0.771 0.545 67 64 66 0 0
4.0071 -2.9682 -16.5051 0.704 -0.422 0.571 136 134 132 0 0
-1.4524 0.2413 -12.5463 0.307 -0.253 0.917 122 41 20 0 0
-1.4268 0.2266 -12.5606 0.447 -0.386 0.807 122 41 20 0 0
-0.5677 -0.2128 -12.6247 0.636 -0.003 0.771 122 40 18 0 0
-0.5469 -0.2255 -12.6419 0.636 -0.003 0.771 128 46 24 0 0
-0.5170 -0.2416 -12.6506 0.559 -0.084 0.825 129 47 25 0 0
-0.3781 -0.3086 -12.6289 0.414 -0.367 0.833 129 53 29 0 0
-0.3566 -0.3215 -12.6452 0.414 -0.367 0.833 130 53 33 0 0
-0.2775 -0.3702 -12.7172 0.407 -0.266 0.874 166 108 94 0 0
0.9661 -1.1247 -13.7477 0.509 0.194 0.838 128 47 13 0 0
1.0272 -1.1516 -13.7171 0.423 -0.482 0.767 119 37 13 0 0
3.0953 -2.2092 -13.8681 0.610 -0.468 0.639 95 54 35 0 0
3.1939 -2.2618 -13.8928 -0.048 -0.117 0.992 181 104 72 0 0
3.2490 -2.4464 -15.1368 0.692 -0.663 0.286 7 7 9 0 0
3.3771 -2.5368 -15.3438 0.559 -0.318 0.766 26 27 31 0 0
3.5335 -2.6359 -15.5069 0.475 -0.500 0.724 11 10 13 0 0
3.7365 -2.7844 -15.8754 0.742 -0.171 0.648 12 10 13 0 0
-2.2063 0.5939 -12.4775 0.661 -0.055 0.748 116 40 24 0 0
-1.8345 0.4054 -12.4950 0.701 -0.243 0.671 117 38 21 0 0
-1.6613 0.3142 -12.5300 0.256 -0.372 0.892 120 42 20 0 0
-0.5059 -0.2814 -12.6617 0.588 -0.342 0.733 124 43 21 0 0
-0.4840 -0.2944 -12.6779 0.536 -0.191 0.822 123 45 22 0 0
-0.2917 -0.3955 -12.7154 0.650 0.222 0.726 168 110 95 0 0
-0.0292 -0.5607 -12.9801 0.493 -0.509 0.706 71 15 3 0 0
1.0816 -1.2107 -13.7158 0.665 -0.219 0.714 121 39 14 0 0
2.2751 -1.8162 -13.7762 0.344 -0.511 0.787 119 49 29 0 0
2.3066 -1.8371 -13.8158 0.276 -0.302 0.913 168 90 38 0 0
2.3415 -1.8539 -13.8109 0.236 -0.194 0.952 172 104 68 0 0
3.1608 -2.2678 -13.8380 0.400 -0.337 0.853 144 85 48 0 0
3.3977 -2.3955 -13.9092 0.531 -0.427 0.733 102 20 1 0 0
3.1823 -2.3866 -14.6873 0.648 -0.740 0.182 47 47 49 0 0
3.2724 -2.5159 -15.3485 0.580 -0.267 0.770 22 22 23 0 0
-2.1835 0.5474 -12.4809 0.620 0.206 0.757 116 40 24 0 0
-1.6285 0.2693 -12.4865 0.713 0.110 0.692 119 41 20 0 0
-0.8231 -0.1492 -12.6116 0.189 -0.346 0.919 125 43 22 0 0
-0.3033 -0.4217 -12.7110 0.553 -0.028 0.833 167 107 94 0 0
1.1978 -1.3015 -13.7216 0.445 -0.576 0.686 133 48 24 0 0
3.3386 -2.3878 -13.8515 0.695 -0.304 0.652 121 59 45 0 0
3.1956 -2.4295 -14.7326 0.542 -0.394 0.742 45 44 46 0 0
3.4020 -2.6060 -15.3038 0.622 -0.552 0.556 39 40 45 0 0
-4.2212 1.5201 -12.5445 -0.106 -0.760 0.641 97 47 38 0 0
-1.4128 0.1161 -12.5775 0.652 -0.541 0.531 120 42 20 0 0
-1.4028 0.1075 -12.6057 0.863 -0.364 0.351 122 42 20 0 0
-0.8302 -0.1776 -12.6030 0.428 -0.278 0.860 125 44 23 0 0
-0.1962 -0.5112 -12.7397 0.561 -0.385 0.733 133 54 32 0 0
0.5874 -1.0244 -13.6858 0.753 -0.312 0.579 126 40 18 0 0
0.6100 -1.0375 -13.7003 0.562 0.012 0.827 127 44 22 0 0
1.6357 -1.5537 -13.7387 0.030 -0.563 0.826 134 51 24 0 0
1.7200 -1.5927 -13.7157 0.285 -0.631 0.721 127 44 20 0 0
2.7515 -2.1223 -13.8351 0.210 -0.297 0.932 173 94 43 0 0
3.2189 -2.5444 -15.2952 0.842 0.110 0.529 36 34 37 0 0
3.5193 -2.7514 -15.7379 0.543 -0.677 0.496 11 11 13 0 0
3.5552 -2.7922 -15.9147 0.710 0.575 0.406 5 5 7 0 0
4.1570 -3.1847 -16.6292 0.840 -0.478 0.257 201 201 201 0 0
-1.4386 0.0941 -12.5855 0.552 -0.664 0.504 121 43 21 0 0
-0.6573 -0.2928 -12.5742 0.496 -0.316 0.809 126 45 24 0 0
-0.2115 -0.5360 -12.7390 0.700 -0.353 0.620 145 66 39 0 0
0.5518 -1.0420 -13.7078 0.505 -0.281 0.816 124 39 17 0 0
0.5866 -1.0594 -13.7087 0.254 -0.204 0.946 127 43 22 0 0
1.2774 -1.4084 -13.7511 0.336 -0.286 0.897 127 42 16 0 0
1.4512 -1.4939 -13.7436 0.101 -0.365 0.925 127 41 15 0 0
1.6917 -1.6119 -13.7318 0.117 -0.409 0.905 129 42 15 0 0
2.5120 -2.0250 -13.7725 0.401 -0.103 0.910 135 55 22 0 0
2.6132 -2.0789 -13.7994 0.282 -0.113 0.953 124 45 11 0 0
3.0558 -2.3048 -13.8443 0.954 -0.144 0.264 78 32 17 0 0
3.2244 -2.3949 -13.8924 -0.197 -0.292 0.936 135 84 69 0 0
3.2674 -2.4136 -13.8722 0.029 -0.471 0.882 122 62 46 0 0
3.1566 -2.5363 -15.2334 0.352 -0.566 0.745 6 4 7 0 0
3.5704 -2.8246 -15.8650 0.949 0.282 0.141 5 5 7 0 0
4.1252 -3.1977 -16.6098 0.608 -0.486 0.628 199 199 199 0 0
-3.2633 0.9819 -12.4596 0.582 0.114 0.806 106 42 30 0 0
-2.4315 0.5695 -12.4589 0.334 -0.386 0.860 111 39 25 0 0
-2.4118 0.5570 -12.4796 0.775 -0.107 0.623 112 40 25 0 0
-2.4027 0.5486 -12.5092 0.860 -0.241 0.450 112 39 23 0 0
-1.4262 0.0528 -12.5967 0.579 -0.089 0.811 121 40 19 0 0
-0.6183 -0.3526 -12.6330 0.485 -0.446 0.752 130 49 28 0 0
-0.2039 -0.5789 -12.7903 0.662 -0.600 0.449 160 96 77 0 0
-0.1012 -0.6559 -12.9883 0.207 -0.064 0.976 65 14 6 0 0
1.2801 -1.4438 -13.7696 0.900 -0.171 0.400 130 46 20 0 0
2.0037 -1.7969 -13.7261 0.003 -0.163 0.987 133 49 23 0 0
2.5776 -2.0896 -13.7873 0.411 0.102 0.906 124 52 30 0 0
2.6010 -2.1024 -13.7965 0.411 0.102 0.906 124 48 15 0 0
2.6247 -2.1153 -13.8052 0.375 0.117 0.920 170 90 31 0 0
2.8037 -2.2043 -13.8067 0.642 -0.368 0.672 141 63 29 0 0
2.8295 -2.2178 -13.8121 0.502 -0.360 0.787 111 43 22 0 0
3.1000 -2.5124 -15.0296 0.802 -0.458 0.384 21 21 20 0 0
3.1095 -2.5210 -15.0596 0.802 -0.458 0.384 18 18 20 0 0
3.1388 -2.5473 -15.1486 0.799 -0.459 0.389 7 7 9 0 0
3.4072 -2.7207 -15.4541 0.103 0.503 0.858 51 46 51 0 0
3.4566 -2.7773 -15.6985 0.911 -0.410 0.052 15 16 18 0 0
3.9055 -3.0445 -16.0366 0.584 -0.462 0.667 70 65 62 0 0
-2.4851 0.5671 -12.4147 0.819 -0.157 0.552 110 40 25 0 0
-2.4704 0.5565 -12.4395 0.819 -0.157 0.552 110 39 24 0 0
-2.4248 0.5242 -12.5130 0.604 -0.541 0.585 111 40 23 0 0
-1.5732 0.1011 -12.5268 0.518 -0.297 0.802 117 39 18 0 0
-1.5535 0.0888 -12.5464 0.626 -0.575 0.527 118 40 20 0 0
0.9998 -1.3356 -13.7606 0.162 -0.216 0.963 120 37 16 0 0
1.2693 -1.4694 -13.7643 0.797 -0.360 0.485 127 43 18 0 0
2.7969 -2.2294 -13.7966 0.558 -0.647 0.520 138 60 25 0 0
3.2418 -2.4645 -13.9096 0.192 -0.632 0.750 125 54 31 0 0
3.0847 -2.5298 -14.9864 0.845 -0.398 0.357 32 32 34 0 0
3.3389 -2.7108 -15.4021 0.676 -0.421 0.605 51 55 59 0 0
3.4743 -2.7917 -15.5070 0.623 -0.399 0.672 34 34 34 0 0
3.4928 -2.8781 -16.0880 0.751 -0.243 0.615 17 16 21 0 0
3.5060 -2.8881 -16.1140 0.684 -0.360 0.635 16 17 19 0 0
3.8872 -3.0672 -16.0431 0.660 -0.269 0.702 71 64 63 0 0
-2.5261 0.5500 -12.4339 0.460 -0.700 0.546 109 41 26 0 0
-2.4851 0.5293 -12.4373 0.830 -0.325 0.454 110 41 26 0 0
-2.4716 0.5192 -12.4632 0.414 -0.586 0.696 110 40 24 0 0
-0.1405 -0.7024 -12.9957 0.642 -0.261 0.721 62 14 7 0 0
0.9797 -1.3584 -13.7658 0.207 -0.301 0.931 120 37 18 0 0
1.6581 -1.6973 -13.7975 0.809 -0.306 0.501 125 40 14 0 0
2.6836 -2.2540 -14.1756 -0.343 -0.906 0.247 161 78 47 0 0
3.3423 -2.7334 -15.3283 0.375 -0.537 0.756 45 45 50 0 0
3.4879 -2.8232 -15.4617 0.581 -0.170 0.796 34 34 33 0 0
3.4897 -2.9053 -16.0684 0.659 -0.284 0.697 15 14 19 0 0
3.5079 -2.9167 -16.0860 0.580 -0.220 0.784 17 18 20 0 0
3.8743 -3.0913 -16.0402 0.660 -0.269 0.702 66 60 60 0 0
-3.9225 1.2069 -12.4010 -0.377 -0.405 0.833 96 49 41 0 0
-3.2954 0.8927 -12.4423 0.329 -0.279 0.902 101 42 31 0 0
-0.6626 -0.4284 -12.6289 0.745 -0.312 0.589 129 51 29 0 0
-0.6451 -0.4398 -12.6493 0.597 -0.435 0.674 139 61 39 0 0
1.2073 -1.5017 -13.7613 0.356 -0.334 0.872 122 37 17 0 0
1.3326 -1.5703 -13.8123 0.040 0.338 0.940 125 41 17 0 0
1.6336 -1.7126 -13.7691 0.167 -0.131 0.977 128 45 20 0 0
3.4775 -2.8479 -15.4549 0.428 0.262 0.865 34 34 34 0 0
3.4782 -2.9368 -16.1108 0.487 -0.256 0.835 19 20 22 0 0
3.8599 -3.1151 -16.0398 0.661 -0.273 0.699 65 62 60 0 0
4.0449 -3.2884 -16.6489 0.515 -0.620 0.592 200 201 202 0 0
-3.9775 1.1937 -12.4284 -0.299 -0.529 0.794 97 52 45 0 0
-3.8971 1.1574 -12.4053 -0.279 -0.631 0.724 96 51 45 0 0
-2.5020 0.4701 -12.4225 0.303 -0.434 0.848 108 40 27 0 0
-2.0459 0.2377 -12.4847 0.854 -0.178 0.489 119 44 25 0 0
-2.0206 0.2131 -12.5742 0.730 -0.345 0.590 115 38 20 0 0
-0.6760 -0.4541 -12.6263 0.609 -0.140 0.780 128 50 28 0 0
-0.6628 -0.4639 -12.6507 0.685 -0.301 0.664 132 54 32 0 0
-0.5269 -0.5434 -12.7438 0.638 -0.074 0.767 138 68 49 0 0
-0.3963 -0.6055 -12.7296 0.530 -0.385 0.755 157 92 80 0 0
-0.1767 -0.7297 -12.8498 0.628 -0.436 0.644 94 17 3 0 0
-0.2208 -0.7397 -13.0819 0.220 0.287 0.932 57 24 18 0 0
1.1868 -1.5241 -13.7674 0.172 -0.572 0.802 120 36 16 0 0
1.2202 -1.5406 -13.7678 -0.045 -0.380 0.924 120 36 15 0 0
2.9982 -2.4491 -14.0295 0.220 0.563 0.796 134 62 41 0 0
3.0930 -2.6698 -15.3079 0.616 -0.433 0.658 31 29 32 0 0
3.4641 -2.9611 -16.1094 0.381 -0.208 0.901 24 25 27 0 0
-4.0361 1.1817 -12.4584 -0.299 -0.529 0.794 98 63 53 0 0
-3.9678 1.1502 -12.4446 -0.317 -0.579 0.751 96 58 49 0 0
-2.4993 0.4364 -12.4059 0.652 -0.478 0.589 107 39 25 0 0
-2.3298 0.3371 -12.5243 0.367 -0.541 0.757 111 39 24 0 0
-0.6722 -0.4911 -12.6444 0.342 -0.525 0.779 136 58 35 0 0
-0.1321 -0.8431 -13.2813 0.688 -0.358 0.631 94 89 83 0 0
-0.1236 -0.8513 -13.3110 0.584 -0.347 0.734 91 86 80 0 0
-0.3749 -0.8687 -14.3336 0.296 -0.429 0.854 131 59 37 0 0
0.4946 -1.2191 -13.7848 0.466 -0.269 0.843 116 35 15 0 0
1.1686 -1.5472 -13.7707 0.065 -0.519 0.852 125 43 22 0 0
1.2391 -1.5922 -13.8471 0.761 -0.457 0.460 122 40 19 0 0
1.5068 -1.7123 -13.7666 0.532 0.436 0.726 119 37 13 0 0
1.6217 -1.7713 -13.7868 0.464 0.303 0.833 122 40 16 0 0
1.6850 -1.8081 -13.8290 0.743 0.166 0.648 121 39 18 0 0
1.8957 -1.9085 -13.8081 0.241 -0.143 0.960 125 44 19 0 0
1.9220 -1.9223 -13.8152 0.188 -0.136 0.973 124 43 18 0 0
2.1642 -2.0428 -13.8290 -0.044 -0.332 0.942 127 47 23 0 0
2.5499 -2.2848 -14.2158 -0.048 -0.985 0.163 131 56 34 0 0
2.5531 -2.2915 -14.2529 -0.075 -0.965 0.252 143 60 27 0 0
3.0671 -2.5705 -14.4522 0.760 -0.650 -0.002 27 22 25 0 0
3.3221 -2.8929 -15.8905 0.015 -0.434 0.901 11 11 14 0 0
3.3309 -2.9017 -15.9234 0.418 -0.634 0.650 9 10 10 0 0
4.0127 -3.3359 -16.6538 0.756 -0.366 0.542 201 201 201 0 0
-4.3664 1.3004 -12.5023 -0.050 0.019 0.999 209 209 210 0 0
-3.9215 1.0874 -12.4706 -0.369 -0.559 0.743 97 54 47 0 0
-3.8596 1.0585 -12.4613 -0.360 -0.501 0.787 94 53 46 0 0
-2.0671 0.1710 -12.5475 0.708 -0.419 0.569 113 37 19 0 0
-1.9450 0.1156 -12.5172 0.500 -0.332 0.800 112 37 19 0 0
-1.2677 -0.2199 -12.5501 0.412 0.061 0.909 129 51 29 0 0
-0.6987 -0.5122 -12.6541 0.607 -0.329 0.724 124 46 24 0 0
-0.0732 -0.9421 -13.5526 0.767 -0.412 0.493 77 72 65 0 0
-0.3987 -0.8866 -14.3000 -0.313 -0.470 0.825 133 59 36 0 0
0.9264 -1.4530 -13.7161 0.006 -0.523 0.853 113 37 17 0 0
1.6323 -1.8088 -13.7953 -0.027 0.136 0.990 120 38 17 0 0
2.0153 -1.9964 -13.7994 0.042 -0.336 0.941 123 43 19 0 0
3.0720 -2.5932 -14.3822 0.958 -0.266 -0.112 19 15 20 0 0
3.0578 -2.6544 -14.8738 0.974 0.184 0.133 16 15 18 0 0
-4.2672 1.2009 -12.6037 -0.399 -0.448 0.800 194 187 185 0 0
-4.0565 1.1097 -12.5209 -0.369 -0.559 0.743 143 119 113 0 0
-3.9946 1.0809 -12.5119 -0.369 -0.559 0.743 117 84 79 0 0
-3.9257 1.0493 -12.4973 -0.360 -0.501 0.787 98 65 59 0 0
-3.8624 1.0200 -12.4868 -0.345 -0.428 0.835 94 55 49 0 0
-2.4050 0.3051 -12.5210 0.340 -0.658 0.671 106 37 24 0 0
-1.9621 0.0898 -12.5172 0.500 -0.332 0.800 112 36 20 0 0
-1.8475 0.0323 -12.5295 0.542 -0.405 0.736 113 37 20 0 0
-1.6259 -0.0746 -12.5214 0.252 -0.166 0.953 115 36 19 0 0
-1.2226 -0.2776 -12.5683 0.628 0.047 0.777 122 42 20 0 0
-0.2506 -0.8256 -13.1014 0.594 -0.261 0.761 22 9 6 0 0
-0.2025 -0.8476 -13.0911 0.736 -0.448 0.508 40 29 27 0 0
-0.4034 -0.9223 -14.3283 0.227 -0.892 0.390 139 71 55 0 0
0.9032 -1.4747 -13.7249 -0.009 -0.627 0.779 111 38 18 0 0
0.9120 -1.4832 -13.7544 0.848 -0.198 0.492 113 36 18 0 0
0.9398 -1.4978 -13.7622 0.287 0.064 0.956 113 36 18 0 0
0.9678 -1.5124 -13.7696 0.287 0.064 0.956 116 39 21 0 0
2.2066 -2.1283 -13.8573 -0.104 -0.502 0.859 122 43 21 0 0
2.5999 -2.3154 -13.8247 0.029 -0.562 0.827 127 50 28 0 0
3.7069 -3.1596 -16.0097 0.357 -0.401 0.844 27 25 30 0 0
3.9659 -3.3590 -16.5344 0.500 -0.538 0.679 191 191 191 0 0
3.9832 -3.3701 -16.5532 0.538 -0.369 0.758 195 195 196 0 0
-3.9847 1.0372 -12.5279 -0.342 -0.436 0.832 159 143 136 0 0
-3.9210 1.0078 -12.5173 -0.345 -0.428 0.835 130 104 99 0 0
-3.8566 0.9781 -12.5059 -0.345 -0.428 0.835 107 74 67 0 0
-2.3811 0.2585 -12.5236 0.023 -0.070 0.997 105 36 22 0 0
-1.9813 0.0649 -12.5190 0.713 -0.196 0.673 112 36 19 0 0
-1.8671 0.0076 -12.5318 0.451 -0.333 0.828 115 39 21 0 0
-0.6162 -0.6231 -12.6933 0.710 -0.413 0.570 135 60 39 0 0
-0.2382 -0.8442 -12.9598 0.765 -0.189 0.616 55 8 3 0 0
-0.1055 -0.9921 -13.5526 0.681 -0.491 0.543 94 87 82 0 0
0.8766 -1.4954 -13.7375 0.085 -0.061 0.995 112 40 20 0 0
0.9567 -1.5381 -13.7645 0.287 0.064 0.956 117 40 22 0 0
0.9769 -1.5559 -13.8207 -0.133 -0.254 0.958 117 39 19 0 0
3.0553 -2.7769 -15.3203 0.703 -0.656 0.275 13 3 4 0 0
3.3633 -2.9355 -15.3840 0.291 -0.312 0.904 7 6 7 0 0
3.9482 -3.3823 -16.5398 0.500 -0.538 0.679 193 193 193 0 0
3.8664 -3.3703 -16.7370 0.277 -0.856 0.437 196 196 196 0 0
3.9930 -3.4138 -16.6093 0.598 -0.559 0.575 201 201 201 0 0
4.0066 -3.4241 -16.6349 0.536 -0.480 0.694 203 203 203 0 0
-3.8487 0.9354 -12.5233 -0.327 -0.527 0.784 153 133 124 0 0
-3.7878 0.9072 -12.5143 -0.360 -0.575 0.735 128 97 86 0 0
-2.7287 0.4012 -12.4620 0.694 -0.210 0.689 100 38 26 0 0
-0.6602 -0.6328 -12.6827 0.532 -0.409 0.741 133 57 34 0 0
-0.3390 -0.8078 -12.8190 0.708 -0.182 0.682 134 60 45 0 0
-0.2869 -0.8416 -12.8798 0.697 -0.378 0.609 95 17 2 0 0
-0.2846 -0.8478 -12.9148 0.504 -0.606 0.615 85 15 1 0 0
-0.2489 -0.8707 -12.9545 0.627 -0.394 0.672 56 8 3 0 0
-0.1115 -1.0261 -13.5811 0.591 -0.332 0.735 87 83 78 0 0
0.3916 -1.3107 -13.8684 0.306 -0.827 0.472 116 39 18 0 0
0.9312 -1.5592 -13.7760 0.554 -0.017 0.832 115 40 22 0 0
0.9695 -1.5771 -13.7716 0.346 -0.016 0.938 117 41 22 0 0
0.9552 -1.5782 -13.8277 -0.129 -0.370 0.920 118 41 22 0 0
1.6893 -1.9400 -13.8699 0.541 -0.399 0.740 116 38 16 0 0
3.9116 -3.4013 -16.5789 0.326 -0.742 0.586 194 194 194 0 0
3.9294 -3.4125 -16.5971 0.443 -0.585 0.680 196 196 196 0 0
-1.4765 -0.2540 -12.5665 0.744 -0.434 0.509 111 34 18 0 0
1.1168 -1.6871 -13.8208 -0.082 -0.751 0.655 116 40 21 0 0
1.1342 -1.6983 -13.8402 0.359 -0.834 0.418 116 40 22 0 0
1.6648 -1.9550 -13.8415 0.956 0.016 0.292 119 41 19 0 0
1.6767 -1.9644 -13.8668 0.593 0.089 0.800 116 38 16 0 0
1.6844 -1.9725 -13.8974 0.446 0.102 0.889 115 37 15 0 0
2.8539 -2.5452 -13.9480 0.533 0.155 0.832 79 31 10 0 0
2.9810 -2.6106 -13.9756 0.832 -0.333 0.444 91 33 21 0 0
3.0662 -2.7173 -14.4341 0.801 -0.593 0.085 51 21 12 0 0
3.0653 -2.7231 -14.4775 0.842 -0.534 0.077 56 26 16 0 0
3.0656 -2.7292 -14.5194 0.890 -0.446 0.096 55 25 15 0 0
3.0649 -2.7351 -14.5630 0.952 -0.305 0.032 48 20 10 0 0
3.9325 -3.4477 -16.6150 0.645 -0.716 0.269 201 201 201 0 0
3.9655 -3.4624 -16.6057 0.627 -0.304 0.717 202 202 202 0 0
-4.1371 0.9799 -12.6767 -0.349 -0.433 0.831 211 210 213 0 0
-1.7498 -0.1456 -12.4970 0.420 0.065 0.905 109 36 19 0 0
-1.4657 -0.2944 -12.5789 0.403 0.111 0.909 111 34 18 0 0
-0.2703 -0.9235 -12.9441 0.779 -0.210 0.591 56 9 4 0 0
-0.2292 -0.9864 -13.2435 0.432 -0.599 0.674 94 86 78 0 0
1.0566 -1.6915 -13.8333 -0.082 -0.751 0.655 114 39 21 0 0
1.1147 -1.7212 -13.8450 0.345 -0.639 0.687 115 39 22 0 0
1.1916 -1.7624 -13.8741 0.003 0.180 0.984 115 37 21 0 0
1.4695 -1.8889 -13.8215 -0.028 -0.243 0.970 117 40 18 0 0
1.4772 -1.8970 -13.8520 -0.325 -0.550 0.770 116 39 18 0 0
1.6388 -1.9754 -13.8550 0.568 0.304 0.765 118 41 18 0 0
2.0402 -2.1775 -13.9145 0.016 -0.428 0.904 118 40 20 0 0
2.1018 -2.2075 -13.9162 -0.048 -0.183 0.982 117 39 20 0 0
2.1598 -2.2305 -13.8821 0.212 0.071 0.975 123 45 25 0 0
2.8470 -2.5700 -13.9381 0.240 -0.370 0.898 71 21 5 0 0
2.9660 -2.6447 -14.0582 0.346 -0.746 0.569 78 14 5 0 0
2.9782 -2.6540 -14.0821 0.231 -0.720 0.654 79 14 4 0 0
3.0402 -2.6950 -14.1592 0.531 -0.629 0.568 92 37 24 0 0
3.0764 -2.7409 -14.3568 0.601 -0.787 0.138 92 50 36 0 0
2.9475 -2.8841 -15.7827 0.959 -0.176 0.222 8 2 2 0 0
3.6254 -3.2910 -16.3379 -0.100 -0.586 0.804 84 79 73 0 0
3.5724 -3.2856 -16.4780 -0.090 -0.843 0.530 92 86 80 0 0
3.9247 -3.4806 -16.6526 0.393 -0.747 0.535 202 202 202 0 0
3.9345 -3.4900 -16.6852 0.459 -0.751 0.476 204 204 204 0 0
-3.7925 0.7902 -12.5882 -0.298 -0.321 0.899 207 207 209 0 0
-0.8881 -0.6129 -12.6292 0.585 -0.469 0.662 116 38 18 0 0
-0.2834 -0.9491 -12.9412 0.812 0.008 0.583 54 9 3 0 0
-0.2664 -1.0154 -13.3417 0.705 -0.584 0.402 100 88 80 0 0
-0.2509 -1.0261 -13.3644 0.613 -0.558 0.559 110 97 89 0 0
-0.1756 -1.0905 -13.5582 0.527 -0.350 0.775 82 68 62 0 0
1.4492 -1.9111 -13.8277 -0.028 -0.243 0.970 118 43 23 0 0
1.4886 -1.9290 -13.8200 0.244 -0.618 0.747 116 40 20 0 0
1.5064 -1.9402 -13.8383 0.585 -0.506 0.634 118 42 22 0 0
1.6541 -2.0141 -13.8577 0.084 0.538 0.839 119 43 20 0 0
1.9662 -2.1601 -13.8293 0.127 -0.507 0.852 120 44 21 0 0
1.9892 -2.1727 -13.8402 0.127 -0.507 0.852 119 43 20 0 0
2.0063 -2.1836 -13.8587 -0.196 -0.466 0.863 118 42 19 0 0
2.0751 -2.2157 -13.8514 -0.190 -0.020 0.981 121 43 23 0 0
2.1099 -2.2318 -13.8471 -0.124 -0.153 0.980 121 42 25 0 0
2.1425 -2.2472 -13.8454 -0.124 -0.153 0.980 119 41 23 0 0
2.1978 -2.2752 -13.8546 0.777 -0.236 0.583 119 42 24 0 0
2.8296 -2.5918 -13.9424 0.240 -0.370 0.898 76 30 13 0 0
2.9265 -2.9135 -15.8384 0.573 -0.719 0.394 7 3 4 0 0
3.0989 -3.0181 -15.9873 0.455 0.050 0.889 10 7 8 0 0
3.5959 -3.3046 -16.3143 0.749 -0.293 0.595 81 76 71 0 0
3.8805 -3.4909 -16.6554 0.545 -0.628 0.556 201 201 201 0 0
-3.7719 0.7430 -12.5958 -0.211 -0.277 0.937 210 209 213 0 0
-3.7170 0.7174 -12.5911 -0.225 -0.363 0.904 210 208 212 0 0
0.2455 -1.3723 -13.8794 -0.117 0.011 0.993 117 42 22 0 0
0.3596 -1.4203 -13.8334 0.623 -0.650 0.436 111 38 19 0 0
0.3356 -1.4184 -13.8997 -0.281 -0.410 0.868 108 34 18 0 0
1.3572 -1.9175 -13.9600 0.559 -0.813 0.160 118 42 23 0 0
2.4449 -2.4446 -13.9959 0.713 -0.699 -0.052 117 43 23 0 0
2.4541 -2.4591 -14.0648 0.821 -0.486 0.300 118 45 25 0 0
2.9799 -2.9822 -15.9176 0.642 0.085 0.762 10 8 9 0 0
3.5846 -3.3295 -16.3084 0.502 -0.105 0.858 87 82 78 0 0
3.4426 -3.3112 -16.6496 -0.282 -0.497 0.820 101 96 92 0 0
3.8614 -3.5142 -16.6629 0.545 -0.628 0.556 201 201 201 0 0
-3.8867 0.7564 -12.6322 -0.281 -0.308 0.909 212 212 214 0 0
-3.8063 0.7215 -12.6081 -0.227 -0.407 0.885 212 212 215 0 0
-3.7798 0.7063 -12.6253 -0.276 -0.611 0.742 212 212 215 0 0
-3.7326 0.6835 -12.6265 -0.276 -0.611 0.742 212 211 213 0 0
-3.7103 0.6699 -12.6469 -0.301 -0.676 0.673 210 212 213 0 0
-0.2646 -1.0596 -13.1924 0.792 -0.394 0.466 82 64 61 0 0
0.6811 -1.6449 -14.0939 0.245 0.300 0.922 110 39 25 0 0
0.7600 -1.6812 -14.0835 0.539 -0.374 0.755 113 42 27 0 0
3.7188 -3.4738 -16.6402 0.144 -0.567 0.811 182 182 180 0 0
3.7393 -3.4856 -16.6539 0.351 -0.501 0.791 189 189 187 0 0
3.8617 -3.5489 -16.6860 0.626 -0.492 0.605 203 203 203 0 0
-3.7855 0.6687 -12.6532 -0.077 -0.786 0.613 212 212 211 0 0
-3.7580 0.6532 -12.6696 -0.077 -0.786 0.613 212 212 212 0 0
-3.7107 0.6304 -12.6706 -0.137 -0.690 0.710 212 212 213 0 0
-3.6762 0.6124 -12.6815 -0.137 -0.690 0.710 211 211 213 0 0
-3.6405 0.5938 -12.6914 -0.141 -0.667 0.731 211 211 213 0 0
-1.2834 -0.5253 -12.6511 0.301 -0.296 0.907 113 37 18 0 0
2.9156 -2.9474 -15.4653 0.494 -0.622 0.607 13 4 4 0 0
2.9285 -2.9573 -15.4908 0.737 -0.536 0.411 10 3 2 0 0
3.0051 -3.0102 -15.6005 0.705 -0.261 0.659 6 2 3 0 0
3.0233 -3.0215 -15.6181 0.639 -0.612 0.466 6 2 3 0 0
3.0255 -3.0288 -15.6605 0.758 -0.608 0.236 7 3 4 0 0
3.4410 -3.2805 -16.0200 0.759 -0.361 0.541 58 60 63 0 0
3.6838 -3.4863 -16.6258 0.318 -0.679 0.662 177 177 175 0 0
3.6880 -3.4946 -16.6682 0.054 -0.164 0.985 184 183 181 0 0
3.7145 -3.5077 -16.6714 0.395 -0.482 0.782 191 191 189 0 0
3.7425 -3.5211 -16.6717 0.030 -0.017 0.999 194 195 193 0 0
-3.0167 0.2641 -12.6694 -0.416 -0.678 0.606 200 192 187 0 0
-0.3255 -1.1227 -13.3745 0.811 -0.147 0.566 90 64 59 0 0
1.2320 -1.9600 -14.0151 0.551 -0.126 0.825 101 47 37 0 0
1.2585 -1.9739 -14.0236 0.340 -0.606 0.719 98 46 34 0 0
1.2855 -1.9879 -14.0314 0.204 -0.749 0.630 99 46 34 0 0
1.5834 -2.1237 -13.9907 -0.011 -0.555 0.832 101 47 36 0 0
1.5939 -2.1328 -14.0179 0.200 -0.318 0.927 102 49 37 0 0
1.6190 -2.1461 -14.0272 0.386 -0.514 0.766 100 47 35 0 0
1.7943 -2.2270 -14.0105 0.094 -0.579 0.810 99 42 32 0 0
2.1701 -2.4007 -13.9753 -0.119 -0.294 0.948 101 47 36 0 0
2.2006 -2.4154 -13.9760 -0.128 -0.258 0.958 103 48 37 0 0
2.3463 -2.4864 -13.9876 0.373 -0.202 0.906 98 40 27 0 0
3.2474 -3.2136 -15.9819 0.097 0.258 0.961 62 62 67 0 0
3.6776 -3.5198 -16.6603 0.395 -0.482 0.782 186 185 183 0 0
3.6879 -3.5295 -16.6919 0.416 -0.341 0.843 192 192 190 0 0
-2.1613 -0.1747 -12.6520 -0.157 -0.570 0.807 116 45 27 0 0
-2.0877 -0.2114 -12.6633 -0.237 -0.600 0.764 114 44 27 0 0
-1.6385 -0.4216 -12.6429 0.067 -0.420 0.905 110 36 21 0 0
-1.4202 -0.5183 -12.5967 0.300 -0.045 0.953 109 34 19 0 0
-1.3904 -0.5340 -12.6069 0.300 -0.045 0.953 110 36 21 0 0
-0.8636 -0.8060 -12.7519 0.283 -0.270 0.920 118 41 19 0 0
-0.8323 -0.8276 -12.7966 0.797 -0.233 0.556 117 40 19 0 0
-0.2357 -1.2938 -14.0108 -0.009 -0.527 0.850 114 55 39 0 0
-0.2718 -1.2885 -14.0897 0.435 0.533 0.725 114 51 33 0 0
0.1534 -1.4936 -14.1107 -0.036 0.057 0.998 99 37 25 0 0
1.9613 -2.3511 -14.1034 -0.030 -0.858 0.513 122 83 70 0 0
2.1976 -2.4662 -14.1228 -0.114 -0.701 0.704 120 84 72 0 0
2.3108 -2.5344 -14.2185 0.170 -0.860 0.481 108 76 71 0 0
2.7851 -2.9364 -15.3922 0.606 -0.455 0.652 95 32 11 0 0
2.8466 -2.9856 -15.5248 0.506 -0.036 0.862 10 3 3 0 0
2.9113 -3.0357 -15.6536 0.941 -0.274 0.200 18 12 12 0 0
2.9208 -3.0449 -15.6848 0.804 -0.587 0.092 16 12 13 0 0
3.3441 -3.4010 -16.7147 -0.036 -0.429 0.903 129 124 121 0 0
3.8045 -3.6037 -16.6090 0.807 -0.366 0.463 202 202 202 0 0
3.8164 -3.6137 -16.6376 0.807 -0.366 0.463 203 203 203 0 0
3.8438 -3.6269 -16.6386 0.963 0.054 0.263 204 204 204 0 0
-2.4681 -0.0555 -12.5995 0.521 0.722 0.455 198 191 187 0 0
-2.3436 -0.1212 -12.6435 0.502 0.652 0.568 167 143 131 0 0
-2.3080 -0.1391 -12.6506 0.438 0.602 0.668 158 129 117 0 0
-2.2078 -0.1906 -12.6770 0.552 0.612 0.566 132 88 72 0 0
-2.0895 -0.2482 -12.6872 -0.022 -0.231 0.973 124 62 43 0 0
-1.9658 -0.3075 -12.6919 -0.171 -0.527 0.833 124 54 35 0 0
-0.9894 -0.7665 -12.6692 0.783 0.038 0.621 120 45 26 0 0
-0.2531 -1.3190 -14.0119 0.022 -0.526 0.850 109 49 32 0 0
-0.2217 -1.3409 -14.0586 0.473 0.587 0.658 107 42 27 0 0
1.9047 -2.3569 -14.1161 0.060 -0.854 0.517 111 72 65 0 0
1.9186 -2.3669 -14.1389 0.040 -0.868 0.494 113 74 67 0 0
2.1385 -2.4712 -14.1400 -0.231 -0.674 0.702 109 77 72 0 0
2.1647 -2.4846 -14.1464 -0.114 -0.701 0.704 112 79 71 0 0
2.2661 -2.5434 -14.2173 -0.058 -0.753 0.655 114 79 72 0 0
2.3045 -2.5663 -14.2484 -0.218 -0.565 0.796 112 78 71 0 0
2.7667 -2.9595 -15.3974 0.822 -0.247 0.513 92 32 13 0 0
2.7831 -2.9704 -15.4177 0.759 -0.354 0.546 65 21 11 0 0
2.7980 -2.9809 -15.4402 0.676 -0.387 0.627 29 6 4 0 0
2.8143 -2.9917 -15.4607 0.534 -0.070 0.843 15 3 3 0 0
2.9019 -3.0611 -15.6450 0.879 -0.436 0.196 55 50 51 0 0
3.0358 -3.1700 -15.9444 0.072 -0.369 0.927 31 29 31 0 0
3.3522 -3.4307 -16.6751 0.067 -0.451 0.890 134 130 127 0 0
3.6705 -3.5807 -16.6701 0.328 -0.525 0.785 194 194 192 0 0
3.7017 -3.5947 -16.6649 0.761 -0.373 0.530 197 199 196 0 0
3.8042 -3.6308 -16.5832 0.862 -0.172 0.477 202 202 202 0 0
-2.3341 -0.1565 -12.6209 0.580 0.701 0.415 205 201 200 0 0
-2.2895 -0.1775 -12.6204 0.508 0.710 0.488 203 197 198 0 0
-2.2648 -0.1916 -12.6365 0.455 0.668 0.589 200 193 193 0 0
-2.2304 -0.2091 -12.6444 0.472 0.689 0.550 195 187 186 0 0
-1.9552 -0.3484 -12.7051 0.018 -0.163 0.987 141 103 86 0 0
-1.9176 -0.3668 -12.7096 -0.172 -0.501 0.848 139 95 73 0 0
-1.8660 -0.3900 -12.7017 -0.295 -0.616 0.730 138 90 68 0 0
-1.8318 -0.4072 -12.7089 -0.276 -0.669 0.690 139 87 64 0 0
-1.7426 -0.4488 -12.7048 -0.294 -0.794 0.532 138 82 58 0 0
-0.4714 -1.1549 -13.3961 0.306 -0.943 0.126 106 88 84 0 0
-0.4368 -1.1718 -13.3997 0.422 -0.895 0.146 107 89 85 0 0
1.8477 -2.3626 -14.1290 -0.012 -0.805 0.593 126 94 88 0 0
1.8696 -2.3749 -14.1418 0.060 -0.854 0.517 128 94 88 0 0
1.8902 -2.3868 -14.1562 0.076 -0.862 0.502 125 93 85 0 0
1.9150 -2.3999 -14.1651 -0.011 -0.667 0.745 127 96 90 0 0
2.2621 -2.5760 -14.2441 0.626 -0.590 0.510 120 91 85 0 0
2.7932 -3.0073 -15.4251 0.355 -0.627 0.693 21 3 4 0 0
2.8106 -3.0184 -15.4440 0.355 -0.627 0.693 13 3 4 0 0
2.8834 -3.0774 -15.6048 0.760 -0.311 0.571 69 65 68 0 0
2.8667 -3.1015 -15.8139 0.616 -0.787 -0.013 30 27 28 0 0
2.8853 -3.1129 -15.8314 0.753 -0.658 0.015 25 22 25 0 0
3.4321 -3.3874 -15.9373 0.593 -0.610 0.525 64 64 66 0 0
3.3552 -3.4591 -16.6442 0.043 -0.042 0.998 141 135 135 0 0
3.6881 -3.6192 -16.6627 0.761 -0.373 0.530 199 199 199 0 0
3.6710 -3.6234 -16.7428 0.899 -0.306 0.314 202 202 202 0 0
-1.0528 -0.8290 -12.8456 -0.236 -0.664 0.709 126 77 57 0 0
-0.6992 -1.0074 -12.9215 0.135 -0.262 0.956 103 38 23 0 0
-0.6588 -1.0262 -12.9201 0.074 -0.448 0.891 91 31 19 0 0
-0.6204 -1.0501 -12.9578 0.664 0.149 0.733 73 25 16 0 0
-0.4535 -1.2507 -13.7507 0.950 -0.312 -0.016 139 121 118 0 0
1.8921 -2.4214 -14.1753 -0.134 -0.815 0.564 86 75 74 0 0
2.8570 -3.0918 -15.5769 0.684 0.009 0.730 36 34 35 0 0
2.8708 -3.1020 -15.6014 0.760 -0.311 0.571 70 69 71 0 0
2.8664 -3.1363 -15.8374 0.773 -0.635 -0.019 38 38 39 0 0
2.8482 -3.1392 -15.9119 0.669 -0.702 0.243 36 35 37 0 0
3.8195 -3.6956 -16.5533 0.592 -0.796 -0.127 205 205 205 0 0
-0.7192 -1.0310 -12.9252 0.135 -0.262 0.956 85 41 35 0 0
-0.6843 -1.0480 -12.9290 0.074 -0.448 0.891 77 35 31 0 0
-0.5708 -1.1426 -13.1950 0.861 0.507 -0.033 152 143 142 0 0
-0.5693 -1.1549 -13.2697 0.888 0.448 -0.107 171 165 166 0 0
-0.4526 -1.2815 -13.7328 0.983 -0.175 -0.049 177 175 177 0 0
-0.5216 -1.2662 -13.8437 0.417 -0.900 -0.129 176 175 176 0 0
0.1403 -1.6224 -14.1344 -0.340 -0.763 0.550 175 170 173 0 0
0.1753 -1.6391 -14.1359 -0.340 -0.763 0.550 176 171 173 0 0
0.2869 -1.6910 -14.1324 -0.065 -0.783 0.619 175 171 174 0 0
1.3120 -2.1816 -14.1894 -0.216 -0.385 0.897 33 30 32 0 0
1.5160 -2.2954 -14.3047 -0.573 -0.604 0.554 17 15 17 0 0
1.6124 -2.3283 -14.2251 -0.518 -0.416 0.748 35 34 36 0 0
2.8411 -3.1510 -15.8071 0.537 -0.841 0.067 45 45 45 0 0
3.4183 -3.4826 -16.1959 0.601 -0.770 0.215 120 118 115 0 0
3.5977 -3.6326 -16.6198 0.612 -0.466 0.639 192 191 191 0 0
3.6155 -3.6438 -16.6384 0.459 -0.359 0.813 196 196 197 0 0
-0.6257 -1.1200 -13.0065 0.825 0.119 0.553 153 141 138 0 0
-0.6096 -1.1310 -13.0283 0.825 0.119 0.553 157 149 147 0 0
-0.5756 -1.1535 -13.0704 0.820 0.333 0.465 176 172 173 0 0
2.6496 -3.0279 -15.3932 0.719 -0.317 0.618 85 16 5 0 0
2.6885 -3.0511 -15.4250 0.646 -0.473 0.599 66 22 13 0 0
2.6946 -3.0596 -15.4607 0.675 -0.578 0.458 29 6 3 0 0
2.6954 -3.0880 -15.6401 0.442 -0.341 0.830 11 2 3 0 0
2.8174 -3.1733 -15.8203 0.704 -0.704 0.094 45 45 46 0 0
2.8316 -3.2054 -15.9839 0.063 -0.668 0.742 44 44 45 0 0
3.5816 -3.6566 -16.6219 0.612 -0.466 0.639 194 193 195 0 0
3.6320 -3.6743 -16.5836 0.764 -0.395 0.510 197 197 199 0 0
3.6342 -3.6824 -16.6292 0.561 -0.423 0.712 199 199 200 0 0
2.6358 -3.0523 -15.3915 0.589 -0.567 0.576 87 19 4 0 0
2.6481 -3.0622 -15.4180 0.487 -0.318 0.813 86 27 9 0 0
2.6683 -3.0740 -15.4327 0.534 -0.708 0.462 55 14 4 0 0
2.6662 -3.1089 -15.6613 0.270 -0.282 0.921 11 2 3 0 0
2.7969 -3.2182 -15.9676 0.360 -0.580 0.731 47 47 47 0 0
2.8153 -3.2296 -15.9857 0.360 -0.580 0.731 46 46 47 0 0
3.5242 -3.6649 -16.6462 0.261 0.292 0.920 192 191 192 0 0
3.6234 -3.6920 -16.5236 0.816 -0.140 0.560 196 195 198 0 0
2.6320 -3.0860 -15.4196 0.455 -0.460 0.763 90 37 21 0 0
2.6487 -3.1111 -15.5294 0.635 -0.705 0.316 19 6 6 0 0
3.2057 -3.5437 -16.6214 -0.084 -0.565 0.821 154 152 153 0 0
3.4424 -3.6528 -16.6132 0.233 -0.645 0.728 184 183 181 0 0
3.6265 -3.7196 -16.4924 0.819 -0.127 0.560 197 197 199 0 0
3.6268 -3.7274 -16.5410 0.879 -0.212 0.428 200 200 202 0 0
2.6179 -3.1533 -15.6886 0.196 -0.017 0.980 13 4 5 0 0
2.7963 -3.2735 -15.9219 0.673 -0.332 0.661 45 45 45 0 0
1.6621 -2.7335 -15.6401 -0.195 -0.969 0.154 136 134 137 0 0
1.7233 -2.7699 -15.6903 -0.290 -0.937 0.196 133 133 134 0 0
1.5222 -2.7069 -15.6756 -0.021 -0.996 0.083 139 137 138 0 0
1.5367 -2.7249 -15.7457 -0.163 -0.980 0.115 141 137 141 0 0
2.2550 -3.0249 -15.5454 0.015 -0.958 0.285 16 4 5 0 0
-0.2903 -1.8609 -15.4170 -0.351 0.384 0.854 41 41 42 0 0
1.9216 -2.9325 -15.7294 -0.656 -0.448 0.607 91 80 78 0 0
2.8017 -3.3054 -15.5252 0.224 -0.651 0.725 63 61 64 0 0
-0.1835 -1.9711 -15.5789 0.355 0.145 0.924 17 17 18 0 0
0.3280 -2.2064 -15.5785 0.121 0.147 0.982 27 27 29 0 0
2.5584 -3.2434 -15.6419 0.504 0.337 0.796 21 18 20 0 0
2.6902 -3.3843 -16.1320 0.914 -0.280 -0.295 47 44 43 0 0
2.5500 -3.3866 -16.5405 0.487 -0.634 0.601 74 65 64 0 0
2.5457 -3.3936 -16.5955 0.070 -0.318 0.945 76 68 66 0 0
3.0426 -3.6343 -16.6683 0.592 -0.402 0.699 163 163 160 0 0
-0.4835 -1.8572 -15.5143 -0.039 -0.134 0.990 104 105 107 0 0
0.6824 -2.4068 -15.6017 0.597 -0.797 0.088 29 27 28 0 0
2.1624 -3.0954 -15.6575 0.684 -0.529 0.502 44 11 6 0 0
2.5127 -3.4074 -16.5745 0.244 -0.766 0.594 77 69 67 0 0
2.5295 -3.4187 -16.5964 0.201 -0.721 0.663 80 72 70 0 0
2.5438 -3.4295 -16.6222 0.168 -0.687 0.707 82 77 74 0 0
2.9629 -3.6309 -16.6768 0.647 -0.649 0.399 159 158 156 0 0
3.2556 -3.7656 -16.6791 0.461 -0.022 0.887 190 188 189 0 0
3.3998 -3.8157 -16.5816 -0.188 0.305 0.934 196 196 196 0 0
-0.5041 -1.8686 -15.4307 0.990 -0.133 0.045 184 184 186 0 0
-0.5031 -1.8761 -15.4733 0.990 -0.133 0.045 178 178 180 0 0
-0.5119 -1.8810 -15.5273 0.485 -0.040 0.873 107 108 110 0 0
2.1319 -3.0944 -15.5447 0.505 -0.697 0.508 55 17 11 0 0
2.1222 -3.1146 -15.6932 0.877 -0.254 0.408 51 12 9 0 0
3.1080 -3.7176 -16.6073 0.121 0.169 0.978 175 174 172 0 0
3.2650 -3.8027 -16.6869 0.355 -0.175 0.918 194 192 193 0 0
3.2878 -3.8148 -16.6974 0.705 -0.186 0.684 196 194 195 0 0
-0.5078 -1.9063 -15.4590 0.990 -0.133 0.045 181 181 183 0 0
-0.5242 -1.9092 -15.5218 0.485 -0.040 0.873 128 129 131 0 0
2.0132 -3.0739 -15.5574 -0.411 -0.107 0.905 64 25 17 0 0
2.0889 -3.1129 -15.5841 0.588 0.349 0.730 61 19 12 0 0
3.0486 -3.7342 -16.6806 0.661 -0.259 0.705 176 176 175 0 0
3.0686 -3.7460 -16.6963 0.628 -0.007 0.778 179 178 178 0 0
3.0852 -3.7571 -16.7178 0.903 -0.275 0.329 181 181 180 0 0
3.2477 -3.8268 -16.6905 0.262 -0.141 0.955 195 193 194 0 0
-0.5197 -1.9418 -15.4968 0.588 -0.254 0.768 162 162 164 0 0
0.1191 -2.2684 -15.7089 0.358 -0.602 0.714 15 15 18 0 0
0.3309 -2.3509 -15.6258 -0.227 0.004 0.974 47 48 52 0 0
0.5446 -2.4481 -15.6250 0.635 -0.527 0.565 15 15 18 0 0
0.5732 -2.4700 -15.6777 0.224 -0.515 0.827 13 14 16 0 0
1.4152 -2.8111 -15.4256 0.590 0.807 -0.012 49 19 15 0 0
1.5722 -2.8842 -15.4353 0.691 0.721 -0.045 19 6 6 0 0
1.9930 -3.0975 -15.5641 -0.410 -0.061 0.910 69 28 19 0 0
2.0461 -3.1166 -15.5338 0.122 -0.431 0.894 75 32 24 0 0
2.0738 -3.1301 -15.5392 0.032 -0.356 0.934 80 37 30 0 0
2.7307 -3.6140 -16.6385 0.246 -0.513 0.823 128 127 127 0 0
2.7552 -3.6267 -16.6475 0.378 -0.509 0.773 133 131 131 0 0
2.7799 -3.6394 -16.6562 0.137 -0.373 0.918 137 136 134 0 0
2.8132 -3.6537 -16.6510 0.330 -0.419 0.846 143 142 139 0 0
2.8353 -3.6659 -16.6638 0.321 -0.406 0.855 149 147 147 0 0
2.8655 -3.6796 -16.6635 0.113 0.029 0.993 155 153 154 0 0
2.8961 -3.6934 -16.6622 0.083 0.151 0.985 160 158 159 0 0
3.0619 -3.7722 -16.6821 0.886 -0.042 0.462 180 180 180 0 0
-0.5327 -1.9698 -15.4921 0.346 -0.483 0.804 180 180 182 0 0
0.1067 -2.2960 -15.7035 0.354 -0.007 0.935 25 26 28 0 0
0.5102 -2.4623 -15.6032 0.455 -0.606 0.652 17 17 17 0 0
1.8995 -3.0978 -15.6292 -0.489 0.332 0.807 55 21 15 0 0
2.0248 -3.1399 -15.5422 0.122 -0.431 0.894 74 32 25 0 0
2.0496 -3.1528 -15.5517 0.122 -0.431 0.894 77 35 28 0 0
2.7216 -3.6401 -16.6283 0.205 0.187 0.961 130 128 129 0 0
3.0657 -3.8002 -16.6507 -0.025 0.047 0.999 181 181 181 0 0
3.0478 -3.8054 -16.7292 0.645 -0.714 0.271 184 184 182 0 0
-0.5395 -2.0067 -15.5240 -0.031 -0.452 0.892 179 179 181 0 0
0.3426 -2.4218 -15.6145 0.324 0.115 0.939 54 55 57 0 0
1.5711 -2.9112 -15.2203 0.597 0.788 0.148 59 17 15 0 0
1.6983 -2.9768 -15.2670 0.612 0.789 -0.064 14 4 3 0 0
1.6768 -2.9869 -15.3836 0.697 0.696 -0.176 16 4 4 0 0
1.6645 -2.9916 -15.4443 0.730 0.647 -0.220 18 6 6 0 0
2.0800 -3.1796 -15.4428 0.935 -0.285 0.213 70 30 23 0 0
2.1422 -3.2230 -15.5321 0.347 0.303 0.888 78 39 33 0 0
3.0574 -3.8261 -16.6393 0.154 -0.120 0.981 181 181 181 0 0
-0.6246 -2.0088 -15.5584 -0.270 -0.313 0.911 187 187 189 0 0
-0.5720 -2.0297 -15.5417 -0.102 -0.525 0.845 187 187 189 0 0
0.0831 -2.3514 -15.6914 0.033 -0.714 0.699 168 169 171 0 0
0.4132 -2.4764 -15.5507 0.193 -0.598 0.777 115 115 117 0 0
1.5910 -2.9365 -15.1301 0.445 0.824 0.350 70 23 14 0 0
1.7153 -2.9938 -15.1368 -0.030 0.765 0.643 40 14 12 0 0
1.7381 -3.0063 -15.1493 0.247 0.879 0.409 19 4 3 0 0
1.7657 -3.0272 -15.1986 0.627 0.774 -0.088 13 3 2 0 0
1.7954 -3.0486 -15.2453 0.613 0.787 -0.069 15 4 4 0 0
1.7982 -3.0567 -15.2850 0.647 0.753 -0.116 16 5 4 0 0
1.7819 -3.0606 -15.3510 0.731 0.643 -0.226 19 6 5 0 0
2.1081 -3.2360 -15.5143 0.347 0.303 0.888 77 38 32 0 0
2.2363 -3.3083 -15.5985 0.513 -0.213 0.831 57 18 14 0 0
2.3024 -3.3602 -15.7273 -0.073 -0.075 0.995 36 13 13 0 0
2.8890 -3.7829 -16.6476 0.175 -0.564 0.807 168 166 167 0 0
-0.6064 -2.0523 -15.5615 -0.086 -0.476 0.875 187 187 189 0 0
-0.5924 -2.0634 -15.5894 -0.110 -0.741 0.663 186 186 188 0 0
-0.5645 -2.0780 -15.6011 -0.144 -0.730 0.668 186 186 188 0 0
-0.5352 -2.0930 -15.6111 -0.144 -0.730 0.668 184 184 186 0 0
-0.2670 -2.2280 -15.6937 -0.396 -0.098 0.913 186 186 188 0 0
-0.2429 -2.2416 -15.7094 -0.495 -0.337 0.801 186 186 188 0 0
0.0494 -2.3738 -15.7120 0.044 -0.674 0.738 180 180 182 0 0
0.3758 -2.4975 -15.5767 0.095 -0.672 0.735 175 176 177 0 0
1.7306 -3.0251 -15.0957 -0.130 0.618 0.775 59 23 16 0 0
1.8676 -3.1146 -15.2565 0.684 0.713 -0.153 18 5 4 0 0
1.8589 -3.1202 -15.3119 0.709 0.672 -0.213 21 6 5 0 0
2.0741 -3.2414 -15.4522 0.028 -0.677 0.735 64 27 21 0 0
2.1160 -3.2653 -15.4815 0.868 -0.047 0.494 76 37 32 0 0
2.1289 -3.2756 -15.5075 0.824 -0.083 0.561 76 37 30 0 0
2.1387 -3.2853 -15.5381 0.680 -0.111 0.725 74 36 29 0 0
2.3079 -3.3889 -15.6970 0.071 -0.633 0.770 35 13 12 0 0
2.8472 -3.7948 -16.6422 0.087 -0.482 0.872 165 161 162 0 0
2.9946 -3.8700 -16.6927 0.384 -0.887 0.257 181 181 181 0 0
3.1804 -3.9510 -16.6767 0.796 -0.596 -0.106 197 195 196 0 0
-0.6226 -2.0795 -15.5604 0.348 -0.547 0.761 189 189 191 0 0
-0.5613 -2.1330 -15.7099 -0.103 -0.756 0.647 187 187 189 0 0
-0.4101 -2.2010 -15.7100 0.260 -0.458 0.850 188 188 190 0 0
-0.1587 -2.3083 -15.6771 -0.221 -0.757 0.614 186 186 188 0 0
0.3456 -2.5204 -15.5937 0.095 -0.672 0.735 183 183 185 0 0
0.9797 -2.7962 -15.5408 0.684 0.159 0.712 178 177 181 0 0
2.1055 -3.2754 -15.3865 0.536 -0.775 0.335 59 22 18 0 0
2.1143 -3.2849 -15.4181 0.484 -0.789 0.379 64 26 21 0 0
2.8501 -3.8565 -16.8073 0.632 -0.383 0.674 177 176 176 0 0
-0.4823 -2.1990 -15.6862 0.167 -0.353 0.921 189 189 191 0 0
-0.4580 -2.2127 -15.7019 0.094 -0.508 0.856 189 189 191 0 0
-0.4123 -2.2315 -15.6925 0.218 -0.529 0.820 189 189 191 0 0
0.3015 -2.5556 -15.7162 -0.009 -0.899 0.438 185 185 187 0 0
0.3197 -2.5676 -15.7380 -0.007 -0.923 0.385 185 185 187 0 0
0.5572 -2.6685 -15.7066 -0.491 -0.112 0.864 184 184 186 0 0
0.9327 -2.8149 -15.5808 0.055 -0.528 0.847 182 181 186 0 0
3.1157 -3.9947 -16.7344 0.152 -0.973 0.172 198 197 196 0 0
-0.4341 -2.2650 -15.7423 0.217 -0.795 0.566 189 189 191 0 0
2.1439 -3.3151 -15.1595 0.495 0.863 0.098 40 11 6 0 0
2.2236 -3.3464 -15.1348 0.547 0.497 0.673 54 17 14 0 0
2.8750 -3.9239 -16.7651 0.421 0.025 0.907 180 178 179 0 0
2.9161 -3.9390 -16.7466 -0.044 -0.493 0.869 183 181 182 0 0
0.9343 -2.8580 -15.4496 0.554 0.696 0.457 187 187 189 0 0
0.8874 -2.8554 -15.5536 0.978 0.208 -0.028 187 187 189 0 0
2.0748 -3.2828 -14.9763 0.642 0.602 0.476 72 21 10 0 0
2.1816 -3.3422 -15.0431 0.602 0.658 0.453 47 12 6 0 0
2.4846 -3.5241 -15.3079 0.875 0.483 0.034 27 9 5 0 0
2.6697 -3.6683 -15.6572 0.804 0.595 0.022 15 4 5 0 0
3.1256 -4.0587 -16.7161 0.209 -0.532 0.820 201 200 198 0 0
2.5145 -3.5720 -15.3308 0.682 0.729 0.060 24 8 7 0 0
2.5280 -3.5824 -15.3551 0.654 0.753 0.071 21 7 8 0 0
2.6269 -3.7939 -16.2980 0.949 0.186 -0.256 73 52 45 0 0
2.5409 -3.7964 -16.5270 0.952 -0.101 -0.290 79 63 54 0 0
2.6036 -3.8493 -16.6680 0.351 -0.060 0.934 115 109 104 0 0
2.7830 -3.9296 -16.6706 0.568 -0.691 0.447 163 159 160 0 0
2.8724 -3.9780 -16.7195 0.865 0.217 0.452 178 177 176 0 0
2.9781 -4.0201 -16.6920 0.183 0.259 0.949 189 187 188 0 0
3.0539 -4.0489 -16.6641 0.086 -0.805 0.587 195 193 193 0 0
2.4901 -3.5552 -15.1267 0.850 0.370 0.374 56 14 8 0 0
2.7035 -3.7277 -15.5615 0.835 0.547 0.067 54 19 12 0 0
2.7625 -3.9364 -16.5826 0.660 -0.378 0.649 151 147 146 0 0
2.7784 -3.9475 -16.6052 0.660 -0.378 0.649 157 153 152 0 0
2.7686 -3.9546 -16.6691 0.828 -0.329 0.454 162 158 158 0 0
2.8564 -3.9940 -16.6721 0.761 -0.003 0.649 174 173 170 0 0
2.8696 -4.0047 -16.6991 0.938 0.168 0.302 178 177 175 0 0
3.0261 -4.0543 -16.5882 0.710 -0.396 0.582 189 187 188 0 0
3.0479 -4.0662 -16.6005 0.651 -0.008 0.759 191 189 190 0 0
2.5079 -3.8460 -16.5303 0.911 -0.208 -0.356 77 59 52 0 0
2.3958 -3.8365 -16.7537 0.411 -0.522 0.747 82 68 59 0 0
2.5918 -3.9024 -16.6378 0.912 -0.131 0.388 113 105 99 0 0
2.7414 -3.9603 -16.5918 0.319 -0.697 0.642 150 146 145 0 0
2.7611 -3.9806 -16.6566 0.467 -0.538 0.702 162 158 157 0 0
2.7762 -4.0003 -16.7288 0.774 -0.463 0.433 170 167 165 0 0
2.8520 -4.0292 -16.7029 0.916 0.342 0.207 177 176 174 0 0
3.0188 -4.0800 -16.5754 0.537 0.132 0.834 188 186 187 0 0
1.8206 -3.2488 -14.7300 0.292 0.670 0.682 109 53 38 0 0
2.4812 -3.5910 -15.0111 0.146 -0.845 0.514 91 38 22 0 0
2.5173 -3.6054 -15.0026 0.152 -0.810 0.566 90 35 20 0 0
2.6030 -3.6521 -15.0516 0.253 -0.549 0.797 84 31 17 0 0
2.4171 -3.8676 -16.6960 0.671 -0.501 0.546 80 66 58 0 0
2.5702 -3.9177 -16.5995 0.927 -0.171 0.334 102 93 88 0 0
2.5959 -3.9391 -16.6550 0.826 -0.452 0.335 124 116 113 0 0
2.5818 -3.9544 -16.7739 0.000 -0.821 0.571 142 138 136 0 0
2.6447 -3.9815 -16.7705 0.186 -0.658 0.730 155 151 150 0 0
2.8368 -4.0540 -16.7028 0.465 0.478 0.745 177 176 174 0 0
2.7399 -3.8802 -15.6414 0.797 -0.206 0.568 89 54 45 0 0
2.7592 -3.8998 -15.7021 0.900 -0.320 0.296 90 60 53 0 0
2.4395 -3.6390 -14.8797 0.827 0.503 0.252 92 37 21 0 0
2.4547 -3.6495 -14.9008 0.855 0.466 0.227 91 35 18 0 0
2.4739 -3.6686 -14.9589 0.903 0.272 0.332 90 34 17 0 0
2.6229 -3.7896 -15.2621 0.434 -0.354 0.828 84 28 17 0 0
2.7386 -3.9063 -15.6210 0.596 -0.036 0.802 87 53 45 0 0
2.7395 -3.9147 -15.6645 0.773 -0.425 0.472 89 57 51 0 0
2.5080 -4.0168 -16.7689 0.769 -0.632 -0.091 137 132 128 0 0
1.8965 -3.4097 -14.7591 0.961 0.046 0.273 106 50 34 0 0
1.9117 -3.4203 -14.7808 0.789 -0.510 0.343 106 51 35 0 0
2.6254 -3.8243 -15.2806 0.384 -0.697 0.606 80 27 13 0 0
2.7212 -3.9548 -15.7599 0.484 -0.715 0.505 92 64 60 0 0
2.5539 -4.0866 -16.8652 0.848 -0.410 0.335 162 158 159 0 0
2.8323 -4.1878 -16.7561 0.796 -0.575 -0.190 190 189 189 0 0
1.8978 -3.4523 -14.8212 0.218 -0.397 0.892 106 54 39 0 0
2.1796 -3.5588 -14.7350 -0.043 0.535 0.844 108 62 49 0 0
2.5169 -3.7520 -14.9841 0.931 -0.152 0.330 86 28 14 0 0
2.5299 -3.7621 -15.0083 0.856 -0.190 0.481 85 28 14 0 0
2.5431 -3.7724 -15.0323 0.766 -0.095 0.636 84 28 13 0 0
2.5664 -3.7843 -15.0418 0.723 0.096 0.684 83 28 14 0 0
2.6894 -3.9763 -15.7855 -0.031 -0.860 0.509 91 65 60 0 0
1.8878 -3.4772 -14.8145 0.514 -0.232 0.826 105 53 37 0 0
2.0718 -3.5500 -14.7772 0.339 0.336 0.879 118 79 69 0 0
2.3165 -3.6802 -14.9051 0.445 -0.457 0.770 96 39 26 0 0
2.3485 -3.7016 -14.9453 0.735 -0.254 0.629 88 31 16 0 0
2.4751 -3.7471 -14.8950 0.592 -0.038 0.805 86 29 12 0 0
2.6389 -3.9697 -15.7040 0.086 -0.577 0.812 83 52 44 0 0
2.6460 -3.9877 -15.7834 -0.260 -0.750 0.608 87 60 53 0 0
2.6631 -3.9987 -15.8028 -0.102 -0.861 0.498 90 65 60 0 0
2.3448 -4.0218 -16.6632 -0.332 0.022 0.943 84 71 61 0 0
2.8673 -4.2460 -16.6496 0.992 -0.091 0.084 192 190 191 0 0
1.8674 -3.5002 -14.8217 0.546 0.164 0.821 106 51 36 0 0
2.2844 -3.6849 -14.8447 0.964 0.066 -0.257 99 51 42 0 0
2.3360 -3.7256 -14.9422 0.549 -0.080 0.832 88 31 15 0 0
2.3575 -3.7373 -14.9547 0.485 -0.353 0.800 87 30 14 0 0
2.8593 -4.2625 -16.5899 0.973 -0.226 0.051 188 187 187 0 0
2.8621 -4.2719 -16.6334 0.988 -0.154 0.034 193 191 192 0 0
2.8674 -4.2817 -16.6729 0.983 -0.085 0.164 196 194 195 0 0
1.1028 -3.2654 -15.1635 -0.115 -0.215 0.970 191 188 188 0 0
1.9008 -3.5249 -14.7158 0.992 0.074 -0.106 104 47 30 0 0
2.3233 -3.7497 -14.9394 0.485 -0.353 0.800 88 30 15 0 0
2.8459 -4.2874 -16.5870 0.781 -0.618 -0.093 188 187 188 0 0
1.0810 -3.2892 -15.1713 -0.115 -0.215 0.970 188 184 185 0 0
1.8846 -3.5725 -14.8426 0.985 0.028 -0.172 114 69 60 0 0
2.2815 -3.7689 -14.9770 0.844 -0.219 0.489 89 30 15 0 0
2.8117 -4.3097 -16.6177 0.733 -0.679 0.045 188 186 187 0 0
1.0476 -3.3028 -15.1512 0.741 -0.307 0.598 199 200 203 0 0
1.0615 -3.3135 -15.1761 0.778 -0.369 0.508 185 180 181 0 0
2.3797 -4.0817 -16.2327 0.024 -0.989 0.144 96 75 71 0 0
2.6801 -4.3111 -16.7569 0.051 -0.152 0.987 187 183 183 0 0
1.0345 -3.3282 -15.1479 0.741 -0.307 0.598 200 199 201 0 0
1.0485 -3.3390 -15.1728 0.789 -0.309 0.531 178 171 172 0 0
1.8247 -3.6072 -14.8405 0.539 -0.493 0.683 107 56 42 0 0
1.8131 -3.6133 -14.8979 0.535 -0.678 0.504 113 70 59 0 0
2.0873 -3.7002 -14.7399 0.973 -0.039 0.229 108 62 48 0 0
2.1916 -3.7740 -14.8912 0.504 -0.344 0.792 99 53 41 0 0
2.2107 -3.7852 -14.9071 0.526 -0.298 0.796 94 44 30 0 0
2.2261 -3.7959 -14.9281 0.525 -0.556 0.644 92 38 22 0 0
2.2411 -3.8064 -14.9496 0.752 -0.501 0.429 89 31 16 0 0
2.2563 -3.8170 -14.9709 0.632 -0.418 0.652 88 30 13 0 0
2.3689 -3.8595 -14.9411 0.834 -0.341 0.434 84 26 12 0 0
1.0445 -3.3661 -15.1579 0.165 0.118 0.979 172 166 166 0 0
1.0601 -3.3772 -15.1807 0.357 -0.121 0.926 133 113 110 0 0
2.1876 -3.7995 -14.8764 0.137 0.193 0.972 99 51 41 0 0
2.2344 -3.8397 -14.9808 0.532 -0.627 0.569 87 28 12 0 0
2.3505 -3.8825 -14.9463 0.724 -0.292 0.625 84 26 12 0 0
2.3700 -4.2249 -16.6706 0.271 0.072 0.960 138 132 129 0 0
2.5463 -4.3207 -16.7771 -0.038 -0.256 0.966 178 174 173 0 0
1.0414 -3.3933 -15.1419 0.323 0.169 0.931 173 166 165 0 0
1.3438 -3.4798 -14.9252 -0.550 -0.075 0.832 108 63 55 0 0
1.7762 -3.6440 -14.8231 -0.114 -0.508 0.854 104 49 34 0 0
1.7744 -3.6518 -14.8673 0.153 -0.686 0.711 108 58 45 0 0
1.7806 -3.6610 -14.9010 0.556 -0.759 0.340 117 74 64 0 0
2.1743 -3.8316 -14.9165 0.531 -0.654 0.539 94 40 29 0 0
2.1488 -4.1684 -16.7015 -0.011 -0.626 0.780 97 85 79 0 0
2.1027 -4.1718 -16.8199 0.233 -0.010 0.973 102 91 84 0 0
2.5263 -4.3452 -16.7843 -0.038 -0.256 0.966 179 174 174 0 0
2.6360 -4.3860 -16.7540 -0.242 0.271 0.932 189 186 185 0 0
1.0086 -3.4069 -15.1212 0.545 0.204 0.813 200 199 200 0 0
1.0294 -3.4189 -15.1372 0.326 0.249 0.912 169 161 160 0 0
1.7675 -3.6690 -14.8148 -0.296 -0.223 0.929 105 50 35 0 0
2.2382 -3.8923 -14.9345 0.907 -0.401 0.129 86 29 12 0 0
2.2920 -3.9088 -14.9022 0.962 0.111 0.248 86 29 12 0 0
2.1617 -4.1880 -16.6106 0.047 -0.825 0.563 99 87 82 0 0
2.1205 -4.1921 -16.7209 -0.011 -0.626 0.780 102 91 86 0 0
2.3773 -4.3077 -16.7545 0.693 -0.201 0.692 164 159 157 0 0
2.7974 -4.4868 -16.7583 -0.248 0.197 0.949 205 203 204 0 0
0.9637 -3.4184 -15.1155 0.190 0.292 0.937 201 201 202 0 0
1.0624 -3.4607 -15.1180 0.072 0.285 0.956 132 109 107 0 0
1.0971 -3.4750 -15.1163 0.072 0.285 0.956 120 87 82 0 0
1.2240 -3.5135 -15.0390 -0.270 -0.014 0.963 108 62 49 0 0
2.2207 -3.9156 -14.9383 0.821 -0.549 0.157 86 28 12 0 0
2.2955 -3.9352 -14.8769 0.818 -0.381 0.432 85 28 11 0 0
2.0441 -4.1725 -16.6231 0.749 -0.633 0.195 99 83 77 0 0
2.0205 -4.1789 -16.7062 0.551 -0.663 0.507 104 90 85 0 0
2.1411 -4.2219 -16.6657 -0.181 -0.694 0.697 110 101 96 0 0
2.4941 -4.3857 -16.7384 -0.010 -0.319 0.948 179 175 174 0 0
1.4529 -3.6125 -14.8933 -0.114 0.121 0.986 108 52 37 0 0
1.6768 -3.6825 -14.7694 0.217 -0.022 0.976 104 47 32 0 0
2.2324 -3.9432 -14.9018 0.586 -0.788 0.191 87 28 13 0 0
2.3056 -3.9707 -14.8847 0.666 0.734 0.134 85 26 10 0 0
2.6074 -4.2257 -15.5293 0.581 0.767 0.273 84 55 50 0 0
2.2271 -4.1951 -16.1855 0.838 -0.424 -0.344 90 67 61 0 0
2.4772 -4.4200 -16.7887 0.095 -0.369 0.924 181 180 178 0 0
1.3570 -3.6069 -14.9133 -0.247 0.284 0.927 108 55 41 0 0
1.6850 -3.7268 -14.8221 -0.197 -0.722 0.663 106 48 34 0 0
1.7125 -3.7395 -14.8277 -0.197 -0.722 0.663 105 50 37 0 0
1.8671 -3.7888 -14.7487 -0.278 0.196 0.940 127 90 81 0 0
1.9180 -3.8051 -14.7226 -0.303 0.239 0.922 122 82 75 0 0
2.0111 -3.8443 -14.7229 -0.140 -0.841 0.523 107 61 49 0 0
2.3234 -3.9990 -14.8396 0.603 0.762 0.234 85 26 10 0 0
2.3433 -4.0103 -14.8540 0.949 0.314 -0.031 85 26 11 0 0
2.2959 -4.3697 -16.7608 0.580 -0.514 0.631 167 164 163 0 0
2.3117 -4.3810 -16.7840 0.609 -0.587 0.534 172 167 167 0 0
0.9903 -3.5058 -15.0231 0.353 0.436 0.828 202 202 202 0 0
1.0073 -3.5171 -15.0439 -0.064 0.451 0.890 201 202 202 0 0
1.0494 -3.5326 -15.0330 -0.064 0.451 0.890 197 193 192 0 0
1.2313 -3.6048 -15.0126 0.158 0.754 0.638 109 57 43 0 0
1.5782 -3.7030 -14.7753 0.620 -0.597 0.508 106 50 35 0 0
1.5795 -3.7115 -14.8152 0.239 -0.759 0.606 105 49 34 0 0
1.7197 -3.7587 -14.7571 0.421 -0.375 0.826 106 49 32 0 0
1.6940 -3.7630 -14.8323 0.611 -0.595 0.523 108 52 39 0 0
1.6924 -3.7711 -14.8762 0.823 -0.547 0.153 109 60 49 0 0
2.0529 -3.9182 -14.8550 0.443 -0.871 0.214 104 59 53 0 0
2.0318 -3.9235 -14.9255 0.520 -0.366 0.772 97 48 40 0 0
2.1967 -3.9812 -14.8684 0.490 -0.843 0.223 88 29 15 0 0
2.2811 -4.0186 -14.8779 -0.140 -0.868 0.476 85 26 10 0 0
2.2794 -4.3948 -16.7623 0.609 -0.587 0.534 169 167 167 0 0
1.6610 -3.7843 -14.8557 0.706 0.086 0.703 108 54 40 0 0
2.4017 -4.2687 -15.7233 0.976 -0.180 0.124 81 51 46 0 0
2.2650 -4.2794 -16.0608 0.862 -0.387 -0.328 90 70 63 0 0
2.2099 -4.3758 -16.6551 -0.137 0.244 0.960 158 152 150 0 0
2.2407 -4.3888 -16.6553 -0.055 0.263 0.963 163 158 155 0 0
2.2840 -4.4030 -16.6361 -0.148 0.240 0.959 167 164 162 0 0
2.4573 -4.2746 -15.4871 0.751 0.473 0.462 80 43 37 0 0
2.4145 -4.2873 -15.6380 0.850 -0.527 -0.002 80 48 42 0 0
2.4090 -4.2956 -15.6904 0.904 -0.406 0.131 81 52 46 0 0
2.4115 -4.3049 -15.7313 0.894 -0.400 0.202 83 57 51 0 0
2.1777 -4.3328 -16.3522 0.967 0.153 -0.206 153 144 142 0 0
2.2664 -4.1361 -15.0482 0.063 -0.804 0.592 82 24 12 0 0
2.4394 -4.2804 -15.4041 0.961 0.067 0.267 77 40 33 0 0
2.4093 -4.3035 -15.5796 0.898 -0.434 -0.073 80 46 39 0 0
2.1336 -4.3451 -16.3489 0.947 -0.058 -0.317 142 131 128 0 0
2.1329 -4.4117 -16.6778 -0.032 0.410 0.911 166 161 161 0 0
1.7763 -3.9483 -14.9787 0.935 -0.311 0.170 113 69 59 0 0
2.2394 -4.1669 -15.1077 0.747 -0.641 0.177 81 25 10 0 0
2.4077 -4.2934 -15.3850 0.794 -0.443 0.417 76 38 28 0 0
2.3986 -4.3281 -15.5733 0.918 -0.376 -0.126 81 46 40 0 0
2.3909 -4.3362 -15.6287 0.875 -0.478 -0.076 82 51 43 0 0
2.2108 -4.3616 -16.1191 0.958 0.035 -0.284 100 80 73 0 0
