ply
format ascii 1.0
element vertex 706
property float x
property float y
property float z
property uchar diffuse_red
property uchar diffuse_green
property uchar diffuse_blue
end_header
0.9767447865106069 0.8771323875949206 -12.769134402105136 152 83 62
0.9999271954816891 0.870063401484316 -12.782669879685596 159 95 78
1.0091243988227685 0.866023417552084 -12.809073090641627 151 81 63
1.0238997153938296 0.8607736943825446 -12.830371089542517 142 62 38
1.037376084010587 0.8558035080399207 -12.85289484370833 114 35 13
1.0884390798484889 0.8427119213537075 -12.840505981524855 95 22 5
1.1192496804381848 0.8340022594966601 -12.846827265082304 84 20 6
1.135020299568673 0.8285406810754208 -12.867146270206216 68 14 7
1.1006090596676028 0.8338952570655234 -12.934531902173358 55 8 5
1.0334535174407735 0.8462862656381542 -13.0329908035078 51 8 3
0.9879851616160948 0.8476515794428086 -13.219233953924476 57 50 53
1.1446676777161047 0.7818905150586539 -13.616879943119237 12 6 6
1.1605050620219126 0.7763391324308968 -13.638420186176258 13 7 7
1.0916383883073983 0.7865302519996207 -13.782214155830115 10 6 7
1.1306032879665207 0.7760632232280091 -13.780883883016934 8 4 5
1.1961344229765576 0.7599842004160713 -13.752694636766611 8 4 5
1.254726212538082 0.745387157212908 -13.731247536739382 38 17 7
1.3090859363097227 0.7316969851070569 -13.713860088955933 143 94 62
1.3310302626618817 0.7248577860215071 -13.72918784761973 180 130 102
1.3832550697702848 0.7116359654319706 -13.713663296699371 165 107 87
1.4328939262001912 0.6989700921634874 -13.700588444339003 159 82 56
1.4845377652634077 0.6858926329686581 -13.685282951537776 155 67 37
1.5582501863534315 0.6681853373097955 -13.647120087444874 157 78 50
1.9066967262764702 0.5485849871943822 -14.077822071072509 155 85 52
1.960262520940459 0.5352489939990834 -14.058062880958477 144 87 47
2.0522957811054994 0.5139939306997732 -13.995888272962898 119 61 32
2.082985745314561 0.5054030863481853 -14.000742591201021 114 49 27
2.120745236029184 0.49536149378198835 -13.997723289803893 130 62 34
2.157333775116701 0.48556766735969115 -13.99588089636846 145 87 49
2.1878983803749925 0.4770180271815574 -14.000611313022365 138 87 49
2.2011944870809526 0.47201730156041544 -14.024485495595318 136 81 45
2.2142989862430067 0.46705373969525343 -14.048609788891262 122 58 22
2.2159101314044554 0.46444278839499664 -14.08563612847179 142 73 36
2.231165357660932 0.4590323706055377 -14.107458736037646 148 73 35
2.3756373837233227 0.427194841768735 -13.983840877568856 153 75 38
2.440319002549586 0.40944095157998683 -13.988078899265965 148 77 35
2.432313163383121 0.4087998180026602 -14.035879024266311 130 66 34
2.4219773204931743 0.4086231081607181 -14.086507738866619 125 65 44
2.4200355688512714 0.4067265516895917 -14.127741348546614 116 61 43
2.4083745238160885 0.4067984144922958 -14.180243920093403 80 28 16
2.4431436280915877 0.3974256240459926 -14.179616412290196 86 36 28
2.4705186753898127 0.3895597408564786 -14.187401671492966 110 65 55
2.493649495415503 0.38255776805388075 -14.200033986607103 113 72 57
2.4678893415193244 0.3854615432338533 -14.269284375878538 110 68 52
2.471689663717598 0.38236535879103895 -14.30448522086009 106 62 51
2.471713605915812 0.3800267059531446 -14.34418862156014 105 61 48
2.4512445284875426 0.38181979907457464 -14.407969894479823 131 87 66
2.4843193098567653 0.3727928702405441 -14.409260627650752 136 94 66
2.4613907853931165 0.3750609871662771 -14.476286417085642 132 83 55
2.4688021754803406 0.37120229058420784 -14.507831139136783 124 76 53
2.4694617804809775 0.36869725944835263 -14.547438306662428 117 75 53
2.4688677642595946 0.3664367519127365 -14.588658467834385 106 68 47
2.4722879882921234 0.3633622763512798 -14.625240964106652 84 42 29
2.478222502325629 0.35977709170582206 -14.658933779235479 95 50 35
2.48685710739041 0.3556454677247589 -14.68948915059589 97 52 31
2.5206245574680173 0.3464785764600684 -14.689971297867832 98 58 40
2.531344018985357 0.34192650305665206 -14.718078919814598 99 61 46
2.5351347470478807 0.3387550455489827 -14.754605432122643 84 42 29
2.534128991784736 0.33653440177494365 -14.797043951281768 67 22 12
2.544135981238777 0.3321099626294899 -14.826261276564871 62 17 4
2.550378283397013 0.32843138471839683 -14.860125964526581 66 22 9
2.5550535525238427 0.32505910659785386 -14.895995938956817 70 26 17
2.559354437500767 0.3217551072887608 -14.932428422346735 82 41 33
2.5390390211402307 0.3233316297041833 -14.99918867652195 93 51 36
2.545978079630409 0.3194866389075921 -15.032676243675223 102 56 34
2.5485223934695522 0.3165069675014134 -15.071680358884274 90 40 16
2.5468535161936616 0.3143538772272727 -15.116024037950801 90 38 17
2.548455514998534 0.3115452281866167 -15.156458164804208 89 39 19
2.5170807018102677 0.31524067828312097 -15.238099358424165 67 28 14
2.5082630970423168 0.3144649571402067 -15.291930780837951 42 12 4
2.4916224030027134 0.31521847415867965 -15.355771486499894 39 10 5
2.476906604151334 0.31557751030891135 -15.417459338874966 36 16 13
2.445448472433692 0.3192133293172572 -15.50049957826386 16 6 6
2.493614207085022 0.3071896116527526 -15.483279655843889 9 3 7
2.496614573821086 0.3040383864305103 -15.523103164395081 12 8 14
2.5532134644635667 0.28780990605044776 -15.53861187939217 7 6 9
2.5809277233858747 0.27981559579668347 -15.547020656450044 7 7 9
2.6160498763628066 0.2703779812902356 -15.54587012418215 8 8 10
2.607525357282791 0.2694615867454495 -15.600746064843456 10 10 12
2.5652332756464276 0.27250421006488224 -15.743800290522948 29 28 34
2.605783958060938 0.2620035466359789 -15.735736437932118 52 51 57
2.692254761214337 0.24259494726876718 -15.66775517611868 77 77 80
2.7797550190814118 0.22301650965669606 -15.597922264957283 59 59 61
2.8056836651849535 0.21539728242578393 -15.608172412024611 9 9 11
2.841631405592758 0.2058420261721141 -15.605220904971471 17 17 19
2.8738049944208512 0.19702360084413506 -15.607114099272298 45 44 46
2.8860366171434784 0.18683653139866596 -15.724186073207012 24 20 24
3.116465855475388 0.1398830645999969 -15.461874066487685 33 31 36
3.1320919063633204 0.13429898486347525 -15.484944629177392 71 70 76
3.108623205436011 0.1362157454475874 -15.56044073880407 88 89 94
3.1769353999638046 0.1205204036643035 -15.512906440873198 81 81 84
3.1532092892083687 0.12246787247312474 -15.589065732646144 63 62 67
3.2250473851314903 0.10612245134388898 -15.536353620575731 17 15 21
3.245873290443754 0.0995436041622495 -15.552402000237777 15 13 16
3.347113069361974 0.07762742411861057 -15.459065150306534 14 10 14
3.404652712715179 0.06407489942010258 -15.424683508561532 9 7 9
3.5681134246197335 0.02783069338995947 -15.288599187048554 40 17 15
3.635853844055343 0.012408537923742191 -15.239048450381341 95 47 38
4.260800578601076 -0.1381943840751083 -14.923624194104452 108 55 39
4.264527770713832 -0.14141268373823235 -14.961240886388566 108 55 39
4.3063448062807925 -0.15172676849366695 -14.944166205993058 108 55 39
4.356608010123058 -0.16359859850179315 -14.914696838618662 108 55 39
4.386929743796146 -0.1717531489869668 -14.913820149823703 110 58 45
4.527504170538128 -0.20786862773623294 -14.880988420313795 128 92 84
4.543671978073846 -0.21337805216007877 -14.900291997978101 126 92 83
4.582459957337575 -0.22305162506134857 -14.886268894329756 121 85 76
4.553732049648575 -0.22030573552515742 -14.971880505211374 118 81 71
4.580955522674932 -0.22785281819123826 -14.974936787096771 116 78 68
4.689869231596446 -0.2503659499529829 -14.856406438740093 114 76 65
4.96057086480408 -0.3199364938958196 -14.7935850681854 103 56 48
4.886882820498111 -0.30914695180109963 -14.949404888702247 97 46 35
4.885287648806747 -0.3114260015469068 -14.995553343840132 97 40 28
4.912452647994691 -0.318901411478836 -14.99765886101941 96 37 24
4.932364554189647 -0.3250658618721989 -15.010863535772728 91 33 19
4.951144633586142 -0.3310256827899756 -15.025799226075065 91 32 18
4.9718751919302475 -0.33733503092376305 -15.037698890660412 90 31 17
4.995530715899545 -0.34416691181629644 -15.045018055364437 89 30 16
5.015881116613324 -0.3504041370036346 -15.05744138573914 88 29 13
5.042899510871988 -0.35783113370609465 -15.0593981595539 87 28 12
5.069809195846621 -0.36523353733678343 -15.061437112540416 87 28 12
5.102508194601064 -0.3736617556996762 -15.054266619524537 87 28 12
5.1306054342077925 -0.38126329578964824 -15.054224287648609 86 29 12
5.131469529297745 -0.38402457485091146 -15.097251724868922 86 29 12
5.133988269553624 -0.3870887017933846 -15.137811453869261 85 28 11
5.143834060489469 -0.39145801644050837 -15.166833018858213 85 27 12
5.169737243159151 -0.3986685324864563 -15.17024249994623 84 25 11
5.197417290939989 -0.40618772702948136 -15.170720429989382 84 26 12
5.119524108562365 -0.40316084883475534 -15.478067795735264 84 24 11
5.117004531198886 -0.4054242174874667 -15.528208310598194 84 24 10
5.135264104055398 -0.4113280374386128 -15.544588760694118 84 26 12
5.1538681793569205 -0.417291784638981 -15.560402197204162 84 27 14
5.153607329736649 -0.4199723451451667 -15.607238427244091 85 30 18
5.161118504922857 -0.4267594355643143 -15.688176991463031 88 41 32
5.2052919476801955 -0.44545789503740196 -15.802982956507659 88 50 42
5.210811954034691 -0.449193906720861 -15.84115324519513 89 52 45
5.2059216101759365 -0.451151366809623 -15.89700875120607 89 54 48
5.211239449877915 -0.45487160133886206 -15.935841889571655 89 57 52
5.2109730912641625 -0.45764510709678974 -15.98428582041122 91 61 57
5.246283627589498 -0.4665018422772389 -15.972378338993447 94 65 60
5.239976905753924 -0.46825842384951155 -16.03133973142291 97 70 65
5.29956725459162 -0.48123540488882677 -15.977711691903455 98 75 69
5.124743576575804 -0.47796924326258594 -16.727573701725927 119 111 108
5.159685014951321 -0.4867993705881335 -16.716913789121627 126 121 118
5.200866946153896 -0.4966580563575038 -16.695012421025872 137 133 130
5.240492723445589 -0.5062434892192806 -16.67562881295528 145 141 138
5.283615427356923 -0.5163951255724106 -16.649772966444225 154 150 149
5.3025936704430565 -0.5225345294847537 -16.66685291444591 164 160 159
5.322028281231697 -0.528749188806886 -16.683111401396083 170 167 166
5.323254096372977 -0.5319618976368461 -16.732157518162516 175 173 171
5.32077215210484 -0.5345764912108879 -16.78810397163177 177 176 174
5.3532350748046 -0.5429421943748856 -16.780956881075547 179 179 177
5.387262967847704 -0.5545945342974399 -16.822551880535237 187 185 186
5.421895887330777 -0.5632969803115802 -16.811139735183023 188 186 187
5.464533778539325 -0.5732917763108556 -16.78484748552104 191 190 190
5.495042029434235 -0.5812996278608058 -16.780614022175342 193 193 193
5.580438055017863 -0.5981970233755365 -16.67483333344616 194 194 194
5.595092490389541 -0.6036049448320127 -16.699381469135158 197 197 197
5.598507378824602 -0.6072014582687002 -16.744875828902956 200 200 202
5.583018897447596 -0.6077640982981887 -16.825814470465527 203 203 205
-1.6114052421167218 1.5765316456121758 -12.283167940677874 121 48 32
-1.59764923718675 1.5693716817452201 -12.340828394834713 126 53 37
-1.5795119572436072 1.5632520259506328 -12.361375609354024 121 48 32
-1.5806608825982238 1.5614707079709378 -12.396309945174398 120 47 28
-1.571142863063181 1.5572854252962647 -12.42336192443329 119 46 27
-1.5059462270869721 1.540585392531433 -12.408713663558267 119 46 27
-1.4652204212220212 1.5293927959265032 -12.41227266532578 120 45 26
-1.3903790153992759 1.5105479628004954 -12.390016222092928 119 45 26
-1.361790993690378 1.5020932347982574 -12.402503912530868 122 47 27
-1.324580274396003 1.4917074894528228 -12.408415293896088 121 48 27
-1.286932395028427 1.4812282244552462 -12.41392008127715 123 48 26
-1.2442614888972363 1.4696286895764001 -12.415516816595751 123 50 28
-1.2140614297967316 1.4608260873197148 -12.426555610922655 121 49 28
-1.1711076395988531 1.4491734655530646 -12.427765125477922 125 51 32
-1.1615331253570051 1.4449884818579315 -12.454557656499603 129 53 35
-1.120529846630503 1.4337792624032029 -12.457144623988333 125 49 28
-1.0796400651160596 1.4226009217068192 -12.459726909957785 122 47 22
-1.045876192191879 1.4130182000287197 -12.46774726121938 123 46 23
-1.0335801375195306 1.4082266339552425 -12.492415773144561 125 47 24
-1.0122046112050924 1.4014093993261667 -12.510031944609182 126 47 23
-0.860232913087887 1.3655034497034462 -12.425410240605814 127 47 24
-0.8811035984121913 1.3681087364000362 -12.47588707576303 127 47 24
-0.8230494919693365 1.3531445353454554 -12.464409280817744 127 45 23
-0.7555661175639488 1.3360941725691733 -12.445314283292575 127 44 23
-0.7038983626192143 1.3225709442688365 -12.438527167630905 126 44 22
-0.6818701047629707 1.3156382389369707 -12.45513253147908 128 46 24
-0.6881378429476914 1.3149858081031762 -12.494262377656593 126 44 22
-0.65029596447358 1.3045431222243162 -12.498282280711827 129 45 22
-0.6196969217423494 1.2957107736932931 -12.50802099993332 129 44 20
-0.5748297821698269 1.2837207647636675 -12.506249300523663 131 45 22
-0.5384816158131187 1.2736235826249194 -12.511224763127448 131 46 23
-0.5002551991638269 1.263115434146839 -12.514606347754178 129 45 21
-0.45632753088011846 1.251351843924144 -12.513283387245972 131 47 23
-0.3960405401013958 1.2359801647197124 -12.498556159805837 131 47 23
-0.33527162189779425 1.2205133699797754 -12.483247366885124 130 47 23
-0.35387662253228047 1.2225746526132355 -12.532607903412938 130 46 22
-0.3546635969996732 1.2206955735804068 -12.56754524787462 129 46 22
-0.30366691644291244 1.2073974310062954 -12.560020275270858 128 45 21
-0.2559804430028443 1.194837226295851 -12.555076201138865 133 49 25
-0.21653247998351954 1.1840984222389415 -12.556809358008085 130 46 22
-0.18720989881832661 1.1755926282067248 -12.566841710856249 132 48 24
-0.1538724482788485 1.1662069814374283 -12.573490249575034 137 53 29
-0.12060152203254315 1.1568398746867925 -12.580128676664167 131 46 23
-0.07908644947594201 1.1456666563837075 -12.579809061536618 130 45 22
-0.03978426422967907 1.1349852658939459 -12.581239625974483 131 46 23
0.0049909871562565655 1.123109498643034 -12.577973216637915 130 46 22
0.059042899362524714 1.10920828295805 -12.566762645199681 129 45 22
0.08446889136411961 1.1015855386019333 -12.57959266603745 128 44 21
0.10856438799486767 1.0942557041998637 -12.593521771780589 133 49 27
0.14395378452121843 1.0844573850259247 -12.597822605825119 136 52 30
0.1705217330971509 1.0765916045218773 -12.609569508732356 134 49 28
0.21068691840670883 1.065758320416149 -12.609650710378247 130 45 23
0.24911997821832088 1.0553091709472127 -12.61111590415165 130 45 23
0.2501732452102834 1.053018370236658 -12.644643182261792 129 43 22
0.2971454802947511 1.0407137866407483 -12.638645523768052 130 44 23
0.33594664222974924 1.0301971136653634 -12.639580857938157 143 58 34
0.3642046782504229 1.021981069784002 -12.649567239493432 144 60 34
0.38382445759635964 1.0156466526712828 -12.667025151197171 138 54 28
0.46130046447389805 0.9967363615720526 -12.633995981954865 137 53 27
0.4884393993963716 0.9887775184980483 -12.644725898308147 137 51 28
0.5213931898406772 0.9795588503110355 -12.650312825893614 136 50 27
0.5463960362904023 0.9720690296400065 -12.662828016356897 134 49 27
0.5717271770193157 0.9645098182344842 -12.675023837386902 141 59 37
0.5744826682108872 0.9618427519035471 -12.707170335883124 142 64 41
0.615719010601163 0.9508409639779416 -12.705242129202503 142 67 49
0.6459671605517361 0.9422227841432873 -12.712983271955588 147 75 62
0.6931487339729614 0.9299476339512012 -12.705551020660149 157 92 75
0.7095451252491909 0.9243309533374984 -12.725536289711833 162 99 83
0.7339936444860156 0.9169753617486389 -12.738305686157794 162 103 88
0.7578261543682654 0.9097543068187846 -12.751601967717306 158 100 83
0.7817507905801859 0.90251487292241 -12.764790358184058 159 95 77
0.8429668085718935 0.8872445463830516 -12.744185526532423 157 80 64
0.8867304646623744 0.8757437353854152 -12.739211164687188 155 78 58
0.931069303782766 0.8641269033705861 -12.73358446916211 149 74 51
0.9475158836030442 0.858512880156451 -12.75329929217019 148 74 50
0.9776718231229014 0.849953672949755 -12.760470527643818 158 92 68
1.0008691128146747 0.8428914461194978 -12.773974395874072 156 94 76
1.0158235494811407 0.837598354472324 -12.795048226288287 138 69 49
1.007509640740408 0.8372905477140482 -12.837636612481454 127 45 19
1.0195713042261696 0.8326108051803476 -12.861492649562017 110 30 7
1.0479962845338031 0.8244273327705962 -12.870182955938496 91 18 4
1.0562174087579832 0.8205670719861833 -12.897646207331354 77 14 3
1.0930355839655048 0.8105930486148663 -12.898447190834766 64 12 4
1.083588431867538 0.8105029259098524 -12.942502994691447 54 8 4
1.0064018319836423 0.8248560733540127 -13.050362494982856 52 9 6
0.9820233823678768 0.8214718203335756 -13.216702495299321 56 50 52
0.9414720515670982 0.8014106559535272 -13.734497965575365 14 8 9
0.9841978132607769 0.7901693375646901 -13.729863093912254 12 6 6
1.080434950264042 0.767686469282586 -13.672018588773584 13 7 7
1.0644190629439478 0.7688087860455226 -13.725404518643598 16 9 9
1.04309126311355 0.7710339155812018 -13.784291294847154 16 12 13
1.0931229765424648 0.7582800484515189 -13.772019627927545 9 5 6
1.128938633656447 0.7485154568460983 -13.773837106439263 8 3 5
1.1913416746105563 0.7331898134048609 -13.748810049201133 10 4 5
1.2618588821030592 0.7161814433042564 -13.71534905419507 65 33 20
1.3126900715267293 0.7033055868665414 -13.701514542515639 176 126 100
1.4089267818004156 0.6809575128133731 -13.641420022378538 223 177 157
1.3998767135402064 0.6806073572688043 -13.688031585575207 156 81 62
1.441289807269241 0.6697254944221682 -13.6833037613149 161 78 53
1.4881266914562552 0.6577214177799979 -13.67289531288938 151 70 43
1.8538466992574305 0.5343131385652522 -14.08740260822827 149 70 34
1.9253026145005432 0.5173858531503133 -14.048359014245381 149 85 46
1.9918981319745273 0.5014704441096289 -14.01430186181318 138 85 49
2.068089796024103 0.483615452907312 -13.969427053647467 108 53 31
2.0969780966986997 0.47542188674044494 -13.976199186539706 122 62 43
2.1267753541985988 0.46704698890104646 -13.981906772705205 132 69 37
2.1581935148925337 0.45834647668522543 -13.985753646808229 141 72 32
2.2002822014141126 0.4474822284844313 -13.977688659755804 136 61 22
2.2063608250310454 0.4439379044407139 -14.009523588096766 137 65 32
2.2254598239115264 0.4377476344579554 -14.026918914870407 128 65 37
2.2370163432322894 0.43308587420499145 -14.052749711240114 115 53 23
2.2225738790676353 0.43368484482552594 -14.107792181793197 136 67 32
2.437778890166788 0.3855216723129453 -13.943141353494621 155 78 35
2.4197200180848233 0.3868592460667535 -14.002132743020404 150 73 35
2.413392900529489 0.3858164439705394 -14.048051764546223 142 73 38
2.4094243020858244 0.3842886136872421 -14.091451080010664 124 62 30
2.4115428846755 0.3815265750021284 -14.128052881848859 124 65 37
2.429003510698008 0.37567284253770494 -14.147205117172522 114 59 40
2.4506248598928435 0.36898269500699055 -14.161590919259641 85 32 19
2.4932915227685806 0.3580700023597805 -14.15173205075471 84 36 28
2.5153410762753943 0.3513003520164357 -14.165517423754267 104 64 51
2.4703010708190805 0.35796958825026226 -14.256959093699558 109 68 53
2.479457417341173 0.35376891502818464 -14.285897177639347 109 64 49
2.4844297234796473 0.3504006682055254 -14.31977335260389 107 60 43
2.488487397182551 0.34720942823097634 -14.35481188995232 108 56 32
2.495840673136102 0.34335471651274885 -14.386091242758098 126 74 45
2.504452920858731 0.3392443811214041 -14.415970731976586 123 75 47
2.5128600690297587 0.33517063931210234 -14.446162643946188 106 64 46
2.497228989734114 0.33587326021521813 -14.504827030621517 97 61 49
2.494709502449619 0.3339567370596299 -14.54819320853002 92 59 45
2.4962528385689966 0.33122498003114886 -14.58688003263848 66 29 17
2.522413654326485 0.3236052235751241 -14.596350474610983 67 25 14
2.531570592238105 0.319356079559737 -14.626095671225713 92 49 38
2.5416658802237997 0.3149171287831305 -14.654785522199987 94 53 43
2.5507389832017884 0.310676418972869 -14.68476740723675 91 50 35
2.555968431118597 0.3071903413252466 -14.719453948490278 111 67 45
2.5630534695238083 0.3033324376947084 -14.751994774444169 107 58 31
2.5705903578080394 0.29938040383166276 -14.784073043869316 104 54 25
2.5753554605423075 0.29596891881844023 -14.81960482523876 99 53 23
2.580955933006112 0.2923870663888086 -14.854220323582648 91 48 21
2.564560900510628 0.29311884239040387 -14.91583849240766 76 31 14
2.5742920115801162 0.28871035442041304 -14.945659677585073 106 61 40
2.5814316907635693 0.2848055366041642 -14.978738171203398 131 90 60
2.5812140573712155 0.28233556560857287 -15.020982915901282 126 87 57
2.579077986876687 0.2802322454113946 -15.065742897475271 99 51 28
2.5758476209750887 0.27833333156206863 -15.112016698040923 82 33 13
2.5698982523766167 0.2769550321507319 -15.161839309314932 74 34 22
2.5566518690755826 0.2769876598109011 -15.220956203579934 46 17 10
2.6053905301728335 0.264940246129836 -15.202706121496103 40 11 5
2.5862746434006363 0.26609899502398404 -15.269445861125579 43 12 8
2.5153794173471677 0.27729722928384515 -15.401676373876594 44 20 18
2.5549975148271473 0.2670162916773604 -15.394993905191967 23 11 11
2.5418813731535703 0.2669627765104605 -15.454963331799828 11 5 7
2.5233929626145857 0.2679345199465162 -15.522001108160968 10 6 10
2.525630633722735 0.2648821965108825 -15.562916168999568 6 4 7
2.52595021235652 0.2621924014873174 -15.60641378506559 6 5 7
2.6022189736118344 0.2422155477255028 -15.596640582429451 9 10 11
2.6270694947653777 0.2321546278061224 -15.65279586562156 28 27 32
2.6605437391952025 0.22307804230154504 -15.653664956169703 39 39 44
2.670898483485317 0.21844091812187427 -15.684496990378133 65 65 68
2.741798130302124 0.2022034647914699 -15.636434175577852 50 50 52
2.769944120733009 0.19416806200750591 -15.643907336057362 12 11 13
2.8020373380293133 0.1853823033604758 -15.646137908836025 25 24 27
2.8323175335294852 0.17694820895480912 -15.650659298351684 51 49 52
2.928964443442447 0.1505711912255474 -15.656026694637438 21 17 21
2.9931126749305186 0.13572633429705805 -15.615107012783033 35 33 37
3.1519678904962776 0.10293922564638369 -15.447376949956626 71 71 75
3.1580267806919204 0.0991626999482964 -15.483180030175475 82 84 89
3.158536444234974 0.09642977802200248 -15.526541998540571 78 78 82
3.2051530220991413 0.08497547406500217 -15.507941048411247 63 62 67
3.2133015593366574 0.08079391811072223 -15.541098944220172 19 16 22
3.22573222605065 0.07579987632152974 -15.56854381704897 14 12 16
3.3481555211655802 0.05009701502627539 -15.446551054443855 13 9 13
3.4147747784916636 0.03493508589382177 -15.399798980720552 7 7 8
3.493673127420953 0.01749049426816307 -15.335876875175899 10 3 5
3.588133236390304 -0.0028432755828950995 -15.25013227300753 58 31 27
3.6368333556759556 -0.014570596879436515 -15.226708167249056 95 43 32
3.656508035337078 -0.02085468421896608 -15.243077973469624 91 34 14
3.616652890093482 -0.016018954229905846 -15.341798358663837 96 35 16
4.071605321947761 -0.11111608093687453 -14.881421264972195 102 39 19
4.130541846405039 -0.12460380376705404 -14.841302287909908 104 39 21
4.14399151011453 -0.1296425023188481 -14.86490363422708 104 41 23
4.166322791924386 -0.13632712344403464 -14.875999558179773 105 45 27
4.212077662847293 -0.15245441591446074 -14.939348940081448 108 54 39
4.248247208330509 -0.16168282466722617 -14.93061477023587 108 55 39
4.25066759893643 -0.1646996839275583 -14.970114377121666 108 54 38
4.300518423918057 -0.17642917900386146 -14.94154378503433 107 54 39
4.30272140806641 -0.1794102256842569 -14.98142429302877 108 55 40
4.368082357173949 -0.193957819719494 -14.930076289260795 110 60 46
4.337991957736912 -0.19363344103862756 -15.06018485230464 114 72 66
4.3919186372343235 -0.20606564284127593 -15.024996281570463 123 85 79
4.42548990985987 -0.21477520111604398 -15.019296622272039 130 93 86
4.443829629471978 -0.22070909064242628 -15.035828543968861 126 91 82
4.5621472004816095 -0.24736691940952626 -14.948282192968485 118 80 71
4.586060245661093 -0.25428700103586044 -14.956187537594547 115 77 66
4.6842171641857755 -0.2746150583634712 -14.853696991671102 113 74 64
4.9124005444243855 -0.3336683137174157 -14.812526260888557 106 63 56
4.909340971034996 -0.3357085067075045 -14.860391085447741 102 55 46
4.87452255969784 -0.3321011547049484 -14.95694778714515 96 44 33
4.894104957183055 -0.3382013079897457 -14.970660343736647 95 38 26
4.853034118422798 -0.33352660103422593 -15.07754636594963 93 35 22
4.87196059685926 -0.3395253634283715 -15.092519310845804 90 32 18
4.911531403879563 -0.34917904020199697 -15.075570519252487 90 31 16
4.933942365195007 -0.3557868356880698 -15.085024079093893 89 30 16
4.974883270132533 -0.3656626953720905 -15.06561623200587 88 29 15
4.9952603701892055 -0.37190164138265946 -15.07806816938685 87 28 12
5.009980350281919 -0.3771438148414119 -15.09934733345414 86 28 12
5.019866384734987 -0.38153865192727343 -15.12824268225651 87 28 12
5.03377218891669 -0.3866429519982526 -15.150885532764434 87 28 12
5.020804590441517 -0.3870446052372485 -15.21600207919807 86 29 12
5.084755310873505 -0.42262482994554107 -15.522386984157421 81 23 11
5.1273830328356915 -0.4327249517936773 -15.499128309096053 81 23 10
5.105637362065288 -0.43452689264279276 -15.627175352838245 80 27 14
5.20167801231128 -0.45376058470167324 -15.515933532804997 80 31 18
5.211600859576144 -0.45822738958895104 -15.54586540451829 83 36 27
5.220689721231816 -0.46255682259792397 -15.577258564424952 85 41 33
5.224801544094275 -0.46604407617988497 -15.616998558034481 84 43 35
5.222179700357139 -0.46839515033376977 -15.668085568811652 85 45 38
5.2238611426004935 -0.47148923655822306 -15.712203605264985 85 47 38
5.233021723896746 -0.4758603384221094 -15.74396987827225 86 49 41
5.239409965942341 -0.47976829646645225 -15.780485322640502 87 51 45
5.211916486478892 -0.4779657867221434 -15.874202937742671 88 54 49
5.2319447890373745 -0.48993320885895497 -15.983928534259244 93 66 61
5.293521856666634 -0.5031326332667119 -15.927100043861246 95 71 65
5.081110363830616 -0.4945013105076552 -16.739606837598686 109 101 97
5.135687134604474 -0.5065209167946709 -16.69459722370393 118 110 107
5.1606958945081125 -0.5136703910304594 -16.70139978916705 125 120 117
5.202614692757403 -0.5235818648383181 -16.67818247676166 136 132 129
5.247161260608235 -0.533906865360386 -16.650038210576408 144 140 137
5.281419966110418 -0.542538646322106 -16.63994295414419 153 149 148
5.3465035405748145 -0.556171020548671 -16.574554150772087 162 158 157
5.402123973494947 -0.574322542830481 -16.627286588452726 175 175 173
5.420409938683503 -0.5803322764881209 -16.645327709608083 178 177 175
5.35612712318083 -0.5730608846498038 -16.813379498545828 182 181 180
5.368311461554494 -0.5781204598882321 -16.843028672588424 185 184 184
5.455290056499319 -0.5951635503857817 -16.736005299603278 187 186 186
5.431399609595773 -0.5944412664546994 -16.83154155085827 190 189 189
5.456449704672307 -0.6015528139839541 -16.83752432009949 192 192 192
5.578192649499871 -0.6240441757111566 -16.664943018325417 193 193 193
5.584198265675969 -0.6280893531769889 -16.7054742710437 197 197 197
5.572452381791652 -0.6293317539670813 -16.77913412096409 201 201 203
5.549455811638603 -0.6288178282875292 -16.874125265447823 202 202 204
5.7050440404757365 -0.6658313739830577 -16.79171866227759 210 210 210
-1.5957458951678918 1.5418267472568403 -12.298376543392514 122 49 30
-1.5830806113130915 1.5369295599358879 -12.322907912194815 123 50 31
-1.5652643579429801 1.5308803365263715 -12.34364550304239 121 48 29
-1.5821584799164228 1.5325755559032321 -12.39025423403669 120 47 28
-1.5631344701225842 1.5262511234324874 -12.410185757517553 119 46 27
-1.5606365197038583 1.5236095377268521 -12.442506745748684 118 45 26
-1.4992743987602974 1.507851770450698 -12.430668994902916 119 46 27
-1.3891978139677725 1.481260538429789 -12.381939782855033 119 46 27
-1.3669511198906408 1.4742331527101067 -12.399205589844431 119 46 27
-1.3357904753432361 1.465224333644804 -12.40970587920378 120 46 27
-1.3087757010367227 1.4571396748086574 -12.423310206186084 122 47 28
-1.2667819043833184 1.4457303227637386 -12.42546518571208 122 47 28
-1.2457650015792963 1.4389824801618696 -12.443563033161801 122 47 28
-1.1953584201448288 1.425715947846068 -12.439122095853428 123 48 29
-1.172216508370835 1.4185014341525155 -12.455513856400081 124 49 30
-1.1333863847794436 1.4078121551878078 -12.459793859816475 123 46 28
-1.0906891128171727 1.3962717183139761 -12.461000197647131 123 45 26
-1.060464272113677 1.387497165653873 -12.471780203106453 121 43 22
-1.0527455108828132 1.3837022135887442 -12.500021610216054 123 45 23
-1.0162607764780551 1.3735466867882522 -12.505878214671993 125 47 24
-0.9684856893003388 1.3609020384399577 -12.502828638890126 127 47 24
-0.9272234139309958 1.3497025071170776 -12.504764481178018 127 47 24
-0.8828612322196783 1.3378250041162165 -12.504165679363474 127 46 24
-0.7766504616436203 1.3123197552629362 -12.454653001472657 127 45 23
-0.7242260450466134 1.2986880237457559 -12.447313839687599 126 44 22
-0.6890598004674633 1.288865074767843 -12.453523366396752 127 45 23
-0.6362263951207083 1.2751590124451442 -12.44560185192298 127 45 23
-0.5955313521690417 1.264131297866267 -12.44721822133346 133 50 27
-0.5628111438734322 1.2548619315940084 -12.455122424338011 131 47 23
-0.5885888444719276 1.2584432198434774 -12.509926924723985 129 45 21
-0.5533461209342887 1.248619297361819 -12.515815561111236 128 44 20
-0.5197348750327144 1.2391575614774437 -12.522950094705124 131 47 23
-0.4776419054334271 1.2278405943045834 -12.523153101445082 139 55 31
-0.4128187797906566 1.2115508633222452 -12.504795620674145 132 48 24
-0.35594731759459286 1.1970146200422223 -12.492703630889693 129 47 23
-0.35577881845869275 1.1948937479200599 -12.526744860114055 128 46 22
-0.30258435868108524 1.1811745112446228 -12.517449125319956 127 45 21
-0.2582026782990523 1.169390305239098 -12.515234321681692 131 49 25
-0.2163436360582347 1.1581639956192897 -12.514980845367553 135 53 29
-0.18805240254313205 1.1499045316209657 -12.52582982372978 132 50 26
-0.15680371700457663 1.1410027168209793 -12.534187406112004 127 45 21
-0.1370563434763472 1.1346105106346198 -12.552044353268704 131 48 25
-0.09465170975157111 1.1232844806361637 -12.551023251170413 130 45 23
-0.07599667944775579 1.117133423767768 -12.569736518461504 130 45 24
-0.057538099376929 1.1110248536672194 -12.588618258053023 130 45 25
-0.001915921565555756 1.0968393945287955 -12.576275777894232 130 45 24
0.06433325833073589 1.08035656048809 -12.554804142824139 133 48 27
0.08304243264687106 1.074205190037795 -12.57328407238187 132 47 26
0.10302153854284501 1.0677782007352903 -12.59069080105036 131 47 24
0.15597306036255 1.054205039973889 -12.580069381308103 131 47 23
0.16357237018434034 1.0504646330842797 -12.607942350564421 130 46 22
0.20976332569960654 1.0383679372951595 -12.602883476375034 130 46 22
0.24608969929315005 1.0284128701250612 -12.606149949699631 132 48 24
0.2417482050680535 1.0272529602364309 -12.644295447454223 134 50 26
0.3100469654013027 1.0103961791617464 -12.619929232846204 136 52 26
0.3248254467155096 1.0051060936466483 -12.641596625793628 135 51 25
0.33715919064565547 1.0003419810327603 -12.66540578895254 142 58 32
0.375114014387834 0.9900533704390422 -12.666969937039635 139 55 29
0.462551625729537 0.9691122957731981 -12.625289990471126 136 52 26
0.47137778954281107 0.965112159014456 -12.6520189092322 137 52 28
0.5172970437201894 0.953130657866657 -12.646267508935562 137 53 29
0.543969809854242 0.9452940556893277 -12.657309975146802 138 55 33
0.5746955177554565 0.9365892745351518 -12.664739591580851 141 61 39
0.5805693580656781 0.933221963780545 -12.69409352901808 143 68 48
0.6023496120808316 0.926439080518811 -12.70940383388254 144 72 57
0.6451138995960948 0.9151597355341279 -12.706032956260668 146 79 64
0.6784412689722092 0.9059087726060464 -12.710961056567882 157 93 77
0.6982942060890798 0.8995458982997286 -12.727871984470337 160 98 82
0.721499508396179 0.8924663604513803 -12.74177086419866 164 104 88
0.7499522964642198 0.884266745087799 -12.750926717176245 160 100 82
0.781661897977032 0.875374612225648 -12.757095377992568 167 100 80
0.8245732654540481 0.8640961738894857 -12.75306180811592 156 80 60
0.8606992810662533 0.8542720840223788 -12.755062675352171 153 77 55
0.9091053058398009 0.8418369093496012 -12.74579862000165 149 73 49
0.941184058174521 0.8328873245523587 -12.751283574577055 151 77 52
0.9835042687317745 0.821763021162794 -12.747325899341531 163 101 78
0.9940379309376182 0.8174038020899321 -12.772423170949487 158 94 77
0.9969365407199167 0.8146638770814425 -12.804592245495778 139 66 45
0.9963540299852927 0.8126577967182425 -12.840058700051134 128 45 18
1.0063701382510564 0.8083973559069708 -12.865815555558438 112 31 9
1.0460111498161586 0.7978549685383656 -12.864114855183347 89 16 3
1.048223545095377 0.795246332108904 -12.897153203535801 71 10 1
1.0771906539192786 0.7869702052249374 -12.905298527360518 57 9 4
1.0562122432051018 0.7892591882907638 -12.96015872972353 53 8 5
0.9970180031260485 0.7996103683977598 -13.051118727155345 51 10 8
0.9609460922291193 0.798480551069918 -13.22852926644339 45 41 42
0.9753649679914806 0.7708732129470042 -13.617794989790362 11 5 7
0.9881121831984148 0.7659407489277419 -13.642544042907812 14 8 8
0.9689804964928586 0.7676515800162871 -13.698752225507747 12 7 7
1.0254135349413769 0.7536095639808578 -13.680485719024377 12 7 7
1.0390993942172413 0.7484767983911931 -13.704385505329286 14 8 8
1.0847203858889465 0.7367011602495919 -13.696571561389952 20 11 12
1.045463162544559 0.7425701364071822 -13.773228191359191 17 12 14
1.0624935281496573 0.7367333197695018 -13.793943692936054 5 5 3
1.1272746002216767 0.7209907955464985 -13.7667969673026 9 2 5
1.206189202567053 0.7023348297508956 -13.725180177704859 13 2 4
1.2608650102697911 0.6887189801881746 -13.707664152870679 86 43 22
1.310621687970519 0.6761332856701805 -13.694919666402164 171 106 76
1.3432568076289346 0.6670977645117813 -13.699363467364343 172 102 86
1.3802068391553712 0.6571756965972804 -13.699341796131666 160 78 56
1.4236620492737968 0.6459173859624769 -13.692582733178451 161 78 52
1.4749467826132632 0.633053256015889 -13.677674315803213 153 77 53
1.7036255894582464 0.5631290542271341 -13.817237310288423 161 88 66
1.863986747687953 0.5071770900449182 -14.028557711035965 160 82 46
1.909558573315583 0.49559926092738693 -14.017716152193888 156 88 47
1.9880988985009864 0.4773670098422127 -13.970798750141345 142 89 50
2.011102417395768 0.47037333811272153 -13.984178148810615 115 63 33
2.0777869227547487 0.4545679211966098 -13.949679106528851 111 56 34
2.097478664643413 0.44825320313203854 -13.966510241602222 127 65 43
2.1312968977530335 0.439093964793863 -13.967771971885847 137 71 39
2.1594211947008866 0.43108599428592 -13.975231610000435 129 54 21
2.1885276681066337 0.42288415834919246 -13.981544684179314 128 49 18
2.195547337951883 0.4191212736506309 -14.012339361053842 126 51 20
2.2095842233366927 0.41394606279685897 -14.035389155407177 125 55 25
2.2266028810794927 0.4081713559970992 -14.055137591685734 129 66 35
2.248964481967371 0.40132616135402155 -14.068909257149752 123 62 30
2.2581903469951428 0.39710966009005255 -14.097426156498631 130 63 26
2.244006039061282 0.3975671101542122 -14.152399398208683 157 83 41
2.3859374930457546 0.36684746677846425 -14.031071522752738 156 77 38
2.4291713030256163 0.35585913975907335 -14.020859760142834 151 74 36
2.4068912642577667 0.35793241086967487 -14.084990850511561 141 70 31
2.4271616976641983 0.3515207278792185 -14.100863377819636 127 63 28
2.4485355579809367 0.34489022296576466 -14.115464585450496 118 62 36
2.4713046019982103 0.3379836150836102 -14.12844885126978 118 63 45
2.4871954293240455 0.33244336352945214 -14.149319699439562 88 37 25
2.5433969053734673 0.3189116221727062 -14.123704356528222 82 34 29
2.5253816901684436 0.32009105558477113 -14.183710166935397 106 62 52
2.492629251518321 0.3241706860638185 -14.261062261779648 113 70 54
2.4971036517871514 0.32087294765588914 -14.295439096810679 114 67 50
2.5084305514766143 0.3162165841639233 -14.32191582641596 105 55 37
2.515972105439473 0.31230353875526196 -14.352874545450636 93 44 29
2.5182068150534747 0.30943117396643194 -14.390139889729799 92 46 29
2.521562589599185 0.3063312677820682 -14.426199230415872 97 55 43
2.5301510723597858 0.30219623612727475 -14.456187375718281 106 67 54
2.536818442702492 0.2984340934655647 -14.488521607669345 93 52 35
2.5464359779357792 0.29408807265252945 -14.517437558714782 97 51 31
2.5514409223269086 0.2906419158998361 -14.551911716693809 105 58 37
2.559235481955464 0.28664379771397597 -14.583151294005573 87 41 23
2.5662371266328377 0.282795937633626 -14.615419003825895 93 51 35
2.572784204378663 0.2790317239849347 -14.648317037182725 105 62 41
2.5780435786796945 0.27551338953558435 -14.682854294311728 130 84 56
2.588103768145128 0.27105349239403065 -14.711688177901673 133 89 56
2.5924979411042006 0.2676927272116192 -14.747452050591484 121 80 50
2.595518531858014 0.2645927139047428 -14.784989485802603 112 72 43
2.6015308230256 0.26090459264537746 -14.81899506525281 97 57 33
2.6051641888511385 0.2576723332889743 -14.856002398166304 76 34 20
2.600678666753047 0.25600684730635326 -14.903073983634382 68 23 12
2.600379042392767 0.25352064026406773 -14.945168772301493 92 50 35
2.6084205068835207 0.24941287351665853 -14.97711913476341 96 60 44
2.627670058828844 0.24313518989516192 -14.995290538762111 84 43 31
2.6329742983702618 0.23954805320346972 -15.03075857635087 55 13 2
2.639653011567277 0.23568981702355307 -15.064618831142617 53 13 5
2.6392994576112008 0.23317965220781245 -15.10734407584838 57 20 11
2.6302744637022144 0.2323280288096936 -15.161062279426117 54 16 8
2.622405803902401 0.23124164228710464 -15.213537574216144 49 11 7
2.61857677145879 0.22936809583492268 -15.261129909310881 43 11 9
2.6125760231853077 0.22790018387452937 -15.31163508619376 46 20 16
2.5960992104242218 0.22313588830177022 -15.462345121820775 6 4 7
2.551601797340905 0.22896340526922732 -15.56276244237208 6 4 6
2.527440326802454 0.23088811739821158 -15.637616858617935 6 5 7
2.5091609196914124 0.2316736411485778 -15.705246639679881 7 7 9
2.6796722856112742 0.19120784127973933 -15.617878762557002 40 41 46
2.5955056172218285 0.2044490406834205 -15.771433555474308 61 62 67
2.683133076423342 0.18515671243395349 -15.70187712275872 56 56 58
2.719708406265669 0.1755376461054825 -15.698536466264239 20 15 19
2.7560572292070207 0.1659691083121595 -15.695364779394566 45 41 45
2.801130629936254 0.15476467271460592 -15.680594717874815 53 51 54
2.9578449550290165 0.11718889553441447 -15.606598897966892 17 15 17
2.995068260322997 0.1075089605947015 -15.601402470219355 35 34 36
3.1260247505693703 0.08029013499720938 -15.470999285843089 72 72 76
3.1318438684071275 0.07652101263014655 -15.507184168968642 78 81 86
3.1405070298236817 0.0722142952608067 -15.539659121585714 72 72 77
3.170375868527638 0.06394787996755147 -15.54367344551725 55 54 59
3.189930864061708 0.05760736608669559 -15.561529952993528 19 17 22
3.2053416396175747 0.052037722681905096 -15.58499726023144 14 12 17
3.3579011241485084 0.020990290544107282 -15.42223347383733 11 8 11
3.4326268806497184 0.004446863868280193 -15.364419985295777 7 5 8
3.522566496637185 -0.014887838030472444 -15.285374465224491 10 4 4
3.6084650723576477 -0.033439949623145004 -15.211293072277968 75 45 39
3.639002589097238 -0.04172996026259601 -15.212749138425064 90 37 26
3.610802624818766 -0.03917592462013042 -15.295070119719206 92 35 17
3.6074801780624393 -0.04122954685497371 -15.34338450243506 95 35 17
3.6092449657767736 -0.04423046008986464 -15.384827907328308 99 37 17
3.8824828405149194 -0.09975455015593249 -15.09195850067864 101 39 18
4.049870674219594 -0.1330662558826321 -14.901017588721542 103 39 19
4.129671954528986 -0.15027311907127805 -14.831729343050437 104 40 21
4.136686622394306 -0.15414642830846992 -14.864357070703628 103 42 23
4.143716066888306 -0.15802815548579296 -14.897057772334886 103 45 26
4.156570205040809 -0.16297714690060894 -14.92160693454235 107 51 36
4.169254835427677 -0.16789806720783274 -14.946442323538411 109 53 38
4.180919093351615 -0.17263643598697276 -14.97277806692022 110 54 39
4.234610235239001 -0.18500483889948027 -14.939140296422813 109 53 37
4.291754239375172 -0.1979805068581002 -14.90025364064412 108 52 35
4.282737558656497 -0.19896417002558509 -14.956100748418592 107 54 39
4.321599660381343 -0.20861311503952917 -14.943177890103915 107 55 42
4.3371054703208936 -0.21403716756845848 -14.963838847269692 111 62 48
4.337063759772604 -0.2166615892515935 -15.00706442988793 113 67 57
4.375747555305257 -0.22626215902184077 -14.994133553294517 117 76 71
4.437782608911273 -0.2400463822702077 -14.94696469158332 127 89 86
4.470019051775931 -0.2484624586212394 -14.943005275482676 130 93 86
4.49048490391008 -0.2547629111501808 -14.956192832165666 125 87 79
4.518199764659369 -0.262358367993353 -14.958690420888958 119 81 72
4.565458725883767 -0.27343830196851604 -14.932252032858084 116 76 68
4.598405543405333 -0.2819507748072416 -14.926744679814544 114 74 66
4.687959875719818 -0.30053193324433325 -14.837037664927127 113 73 65
4.757889262312792 -0.32610600996883043 -14.948457390440971 113 77 69
4.904551905434424 -0.35988328628619737 -14.856437454437591 100 52 41
4.794883878613582 -0.34327792301350857 -15.06714053319744 96 43 29
4.88195447506494 -0.3612203245494843 -14.977897344096244 94 39 25
4.842290892434471 -0.35695092963749064 -15.082577764030392 92 35 21
4.872767102273989 -0.3649654796091564 -15.079786163512146 91 32 17
4.889491475623628 -0.3705747478073398 -15.098117515341599 90 29 14
4.9265583953585965 -0.3797262570160638 -15.084943443545587 92 29 14
4.9693383796529 -0.38985971150374077 -15.062710234751167 87 29 12
4.990888284031415 -0.39629489683901586 -15.073332703887276 85 28 11
5.003258747984454 -0.40113773623529925 -15.098271291181502 86 29 12
5.017772802131656 -0.40635443726357723 -15.119899826534155 86 29 12
5.03343152016746 -0.41177067708126636 -15.139759158085733 85 28 12
5.056918428486999 -0.4185373997655779 -15.147287357141678 85 26 12
5.1001017386604035 -0.42868975486160155 -15.12358765436722 85 26 12
5.107348955833522 -0.4326545309207057 -15.156691207209287 84 25 11
5.050525548186242 -0.44233619267720536 -15.565757641133171 79 22 11
5.110116383928809 -0.4552495025834986 -15.515071060661654 79 21 10
5.092495840336556 -0.4607563842388138 -15.682997523029535 79 34 22
5.163292170765749 -0.4755120458453095 -15.613171166708177 81 38 27
5.167649976822968 -0.4790854046668518 -15.652581864724482 82 41 32
5.206418882191069 -0.48843139303219396 -15.63510085058816 83 43 35
5.206089868644535 -0.49122753987679735 -15.682408257967024 83 43 37
5.208164620760082 -0.49443639133844375 -15.72589669946807 84 45 38
5.21081184057065 -0.49775071385283476 -15.768593451271656 84 48 40
5.189290191386181 -0.49705689117776264 -15.852007832104931 85 51 43
5.192434397904925 -0.5004810645650806 -15.894317186172238 86 54 48
5.199199845755507 -0.5045145911697682 -15.930670265996838 87 58 54
5.226267792845779 -0.5119112293824681 -15.93275649794774 89 62 58
5.231190449773409 -0.51564903033204 -15.972376211016709 93 67 62
5.205081460892543 -0.5142863957470434 -16.06502695270581 94 73 66
5.295304426992827 -0.5320678074006111 -15.959258640376078 95 76 69
5.129295558005197 -0.5290792594285945 -16.64144120653843 107 98 96
5.150877020798654 -0.5356535693480218 -16.654206389455165 117 109 106
5.186370271795489 -0.5444657697684248 -16.642398799851712 124 119 116
5.223280245503456 -0.5534942845149275 -16.627898834036063 135 130 127
5.262158585643144 -0.5628260289148028 -16.6097021993439 144 140 137
5.3009974241715065 -0.5721377035442043 -16.591350397370135 153 149 148
5.338662301989012 -0.5812481736089867 -16.574869519285436 161 157 156
5.367152912763783 -0.588884273104235 -16.57461682963645 167 165 163
5.425342186495209 -0.6074345112607245 -16.62255203904141 178 177 175
5.416518463260155 -0.6091613738230062 -16.68973810616261 181 180 178
5.440634915158863 -0.6160967527203265 -16.697259490411945 184 183 181
5.456200251437815 -0.6216842652068291 -16.72033908755737 187 186 184
5.479408360508726 -0.6284725668890427 -16.729449181748148 190 189 187
5.511175452919624 -0.6365968343932977 -16.722771233405272 192 190 190
5.506992239279508 -0.6390996845540866 -16.78224448601446 194 193 193
5.5707425178461385 -0.6521993302157456 -16.716293385640633 197 197 198
5.589304591278081 -0.6582448932143967 -16.73368593345735 201 201 203
5.66717156242445 -0.6798041153659107 -16.744298398056088 207 207 208
5.73449249133709 -0.696516060986649 -16.72186372621394 209 209 209
5.7546254484457995 -0.7027831051562732 -16.73596962526249 210 210 210
-1.5858899645466522 1.5063103358487095 -12.351826086425739 121 48 29
-1.588924140235191 1.5048681785009317 -12.388126404312224 121 48 29
-1.5601427160741883 1.496383323202926 -12.400769667587955 121 48 29
-1.5759148523457318 1.4977483856903002 -12.446742099626562 120 47 28
-1.5348485314251876 1.4865483654375051 -12.450182767143572 119 46 27
-1.4171295579926086 1.4584319219815327 -12.395799158598383 120 47 28
-1.3734547025050086 1.4466778259655 -12.396924149614895 118 45 26
-1.3145588915583275 1.431573951807682 -12.386416768673651 121 48 29
-1.312997162754841 1.4291144801272202 -12.419299162551011 123 48 29
-1.2840009744697785 1.4206083108931593 -12.431360343132162 122 47 28
-1.2905625233991413 1.419930239534733 -12.470552998151387 121 46 27
-1.2223356278077393 1.4027952817746066 -12.452552574095574 121 46 27
-1.1858121221934796 1.392642216619512 -12.458705034903858 123 48 29
-1.1447157831847043 1.3814891006252294 -12.461260938395363 124 47 29
-1.0966742879515374 1.368817026587948 -12.458355964462141 127 49 31
-1.078600769524214 1.3627275826152938 -12.478556861472617 123 45 26
-1.0628440564604915 1.3571455614702905 -12.500567833098387 122 44 23
-1.0275580266395563 1.3472830362102404 -12.507372887506046 124 46 23
-0.8679145769526446 1.3101925940879438 -12.4168808259151 127 47 24
-0.9141303414840349 1.318191985366579 -12.487175933950873 127 47 24
-0.8719758333711427 1.3068459917297506 -12.488278909589578 127 45 23
-0.8134141142169034 1.2919201872641604 -12.47634310389518 129 47 25
-0.7441055842217486 1.2746578726729032 -12.45573338999683 130 48 26
-0.6779851277358944 1.2581053705546288 -12.437428177947346 126 44 22
-0.6403777985452308 1.2477858219051947 -12.441592077557676 130 48 26
-0.6093580370631697 1.2389074057959195 -12.450929538653199 132 49 25
-0.5643161631965512 1.2269773610769765 -12.448998205606447 129 45 21
-0.5856162855030584 1.2294981832631833 -12.50017488216951 129 45 21
-0.552434445058938 1.2201535173372298 -12.507705822028552 127 43 19
-0.5193135408244443 1.2108259387501354 -12.51522411573982 128 44 20
-0.48542926275436216 1.20133632555815 -12.52206292330882 131 47 23
-0.45324968794504983 1.1922209462133058 -12.530219528372488 131 47 23
-0.37731013848328043 1.1736133373450246 -12.502705492088559 128 45 21
-0.36748685192193165 1.169359527477579 -12.528890188258679 129 47 23
-0.3370769683674082 1.1606415883028383 -12.538270852317776 130 48 24
-0.3030390231117934 1.1511410781305895 -12.544623054575993 132 50 26
-0.2439794099316268 1.1362296532819105 -12.53031037079754 131 49 25
-0.21367755686988144 1.1275492322887057 -12.539552252237229 131 49 25
-0.18107297208201611 1.1183742866124402 -12.54683696511442 128 46 22
-0.14942062982531024 1.1094088452355693 -12.554850414698155 128 46 21
-0.1226774372391759 1.1015065222097689 -12.566893768815875 131 47 23
-0.08759989604853669 1.0918087678638695 -12.571943395674062 133 48 26
-0.04049849198471467 1.0795240792673868 -12.566849906493744 132 47 26
-0.01103934886097413 1.0710474887606891 -12.576439960203563 134 49 28
0.030487146449873492 1.0599765496557274 -12.575818927752493 137 52 31
0.09067257017609176 1.044898918147664 -12.559332314172433 133 48 27
0.12155856677654331 1.0361310509492625 -12.567465665949058 132 47 24
