ply
format ascii 1.0
element vertex 700
property float x
property float y
property float z
property uchar diffuse_red
property uchar diffuse_green
property uchar diffuse_blue
end_header
0.6205798055789407 -1.808312311052381 -15.229076779688002 43 14 11
0.6245592180317288 -1.8068306054387175 -15.278493656888653 35 10 8
0.6447566447992434 -1.7873568963675943 -15.354099207316246 27 10 6
0.6464884923573662 -1.7883955624855314 -15.400281906001538 18 10 10
0.7324934711656885 -1.69895194189745 -15.626652530825645 3 3 5
0.6355613013275838 -1.812436378436157 -15.557332931189178 7 5 8
0.6472456583534658 -1.8024872426520862 -15.620368846326837 8 7 10
0.6546232448110154 -1.7973252634551473 -15.676586475695224 10 8 11
0.6173419917852883 -1.841640506880923 -15.65971368077396 14 13 16
0.6457303059945279 -1.8132259214648716 -15.750685258753778 15 15 17
0.6023151425474813 -1.864322672487372 -15.7235651802272 15 15 17
0.539924469317631 -1.9364007756916957 -15.664780952116747 15 15 17
0.5054748624280547 -1.9775357692123805 -15.651910961524091 15 15 17
0.5200725112333866 -1.9644092129399198 -15.720450637638212 14 14 16
0.4801422904543715 -2.0115938292021154 -15.698283816070614 13 13 15
0.4383029610471403 -2.060872415221847 -15.672682920756039 12 12 14
0.36632188967134294 -2.143443178684678 -15.596260867619252 10 10 12
0.3269113607163172 -2.189993508641429 -15.574086775983764 10 10 12
0.29988424287406357 -2.2228503598875067 -15.572561225543026 11 11 13
0.27609624072816397 -2.252122197621005 -15.576389423492099 14 12 15
0.25671338702653035 -2.2765249674757015 -15.587593860474108 14 12 15
0.27305220520390927 -2.261504473423839 -15.659497569994796 14 12 15
0.2670733785800983 -2.271123940974677 -15.69362057396558 28 26 28
0.2615690960095054 -2.2802249475121643 -15.728626989124386 21 19 19
0.23122192433413025 -2.316721852214915 -15.721107614070817 20 19 17
0.20683797859071706 -2.3466350953453627 -15.723684367846129 21 20 18
0.21213674804253557 -2.3438337182133147 -15.777342467898318 22 21 19
0.20334513661220344 -2.3565663523015736 -15.806816539975573 26 25 22
0.16323105103371915 -2.403796249903416 -15.782026703474578 29 27 25
2.3081722008662293 0.38704095635862856 -13.965403009069561 175 172 170
2.191989691678968 0.252111349649665 -13.859653402661769 112 87 82
2.0796121255220545 0.12155986800756224 -13.757979042245378 108 66 58
2.034836103653106 0.06797923742138057 -13.740928499339805 108 59 50
1.9980631139979623 0.02351792741513492 -13.733789631648097 110 55 46
1.9671116978666587 -0.014310943217626715 -13.733877918166332 111 54 43
1.9290280184913584 -0.06024270421428657 -13.724769748179552 112 53 41
1.9352159350474172 -0.055827334247633864 -13.771986305561036 111 53 41
1.8981705321856683 -0.10056647860791035 -13.764021195288542 111 53 41
1.8598448780755028 -0.14674966146115231 -13.75424861148964 111 53 39
1.8228795277509517 -0.19137556062123195 -13.74605209457582 109 51 36
1.780475655709031 -0.2421687427780359 -13.730672503788815 106 49 33
1.7574421381734133 -0.27094768780404266 -13.740152639182497 104 47 33
1.7367996397914531 -0.2970070973784571 -13.752668921766897 104 48 35
1.7108017427468738 -0.32914323367444176 -13.758167521727984 105 50 38
1.6132787451702075 -0.44245913362652534 -13.670252521128695 111 54 39
1.58112099300451 -0.4815565533080086 -13.667255288467054 121 57 38
1.5468196898947246 -0.5230770507830949 -13.661311219562009 131 61 40
1.511649757694252 -0.5655728375204454 -13.654073778419693 120 58 39
1.4736866118581893 -0.6112259030305109 -13.642993677774244 129 64 40
1.424710254139384 -0.6693544171878658 -13.617164503403561 148 73 46
1.3970309534525422 -0.7033231188998146 -13.619329645206346 167 103 76
1.3830687548701572 -0.7217384397442537 -13.63963920096306 133 82 65
1.3647430082686984 -0.7450979348527849 -13.654124125054711 131 81 70
1.338908244883258 -0.7769617796901329 -13.658528122313342 119 52 38
1.329854651105284 -0.7898128053260427 -13.685351795086934 132 56 36
1.3024699228507233 -0.8234237195944836 -13.687549703829035 140 58 33
1.3309904175014302 -0.7937359989402806 -13.765054829941779 132 53 32
1.2710272684400241 -0.8642217376471573 -13.72318692550603 124 51 36
1.2382429706263518 -0.9039279660453801 -13.71783606045144 115 45 30
1.2112769897184488 -0.9370418102141391 -13.720253729205666 119 48 31
1.1843809098454372 -0.9700697924912944 -13.722664764626316 117 46 28
1.1603140185353733 -0.9998915337903602 -13.72884341890213 118 45 26
1.1899996903483192 -0.9689340977048104 -13.808661767121993 117 42 21
1.151900427356741 -1.0146203943508691 -13.795584171859074 120 43 21
1.0903755268222874 -1.0867678382613795 -13.750012982443675 123 44 22
1.0515949354740393 -1.1331929153987126 -13.735527586074543 122 44 19
1.0183543364157166 -1.1733470163245174 -13.728529977425964 122 44 19
0.9931972895410501 -1.2043617697300188 -13.732620121031117 126 48 23
0.9810792369504577 -1.2206481932169657 -13.754800584482581 127 49 23
0.956308552973689 -1.2512179610041096 -13.759298228360056 126 48 24
0.9227081704745017 -1.2917468146538997 -13.751326573785716 123 47 23
0.8954298499496782 -1.3251318445394915 -13.752086033103499 125 50 26
0.8503582514360235 -1.3785815110813964 -13.727649691356493 125 49 24
0.8484561509733379 -1.3833279858297853 -13.763997552725787 125 47 26
0.8221718562898452 -1.4155722653357738 -13.765866928021012 140 65 45
0.7837817696472471 -1.461456328735446 -13.750423907836463 136 69 51
0.7692383466667625 -1.4804515489798744 -13.768777118922001 151 92 77
0.7975410760233519 -1.4670054137273105 -14.086023647031723 153 86 65
0.7379746615446949 -1.5366757638948494 -14.039194866424733 130 55 29
0.6534996327148952 -1.634334322066036 -13.955593230371104 113 33 10
0.6459485650900967 -1.6454641291045515 -13.984140974546747 112 28 9
0.622115142367909 -1.6748998337360188 -13.988807909238748 113 31 11
0.609441211208293 -1.691788464053909 -14.009831597434182 103 33 8
0.6068601716918622 -1.6973374487045323 -14.045771851179186 95 20 5
0.5935480255559771 -1.714946207466256 -14.065898466116842 106 25 1
0.5863332195543491 -1.7257075106968616 -14.095082677070966 115 34 5
0.5774145056989872 -1.7383850886429562 -14.121776947823662 110 32 2
0.5686135480589227 -1.750932807321825 -14.148681917425929 108 40 13
0.5625225380444716 -1.7604418510565054 -14.17968243888074 102 46 30
0.5686944478813309 -1.7561968829420938 -14.229162650097853 84 37 28
0.5692727584111492 -1.7582365732778573 -14.270377326705196 93 47 37
0.5614417840955994 -1.7697137111291426 -14.299004331132778 96 49 35
0.5650952415547623 -1.768318866854334 -14.34507117596116 96 48 34
0.5635327145428897 -1.7727795049987547 -14.38335681179918 96 47 33
0.5610838074220128 -1.778239875051284 -14.42039035466936 94 45 32
0.5539274976408799 -1.7889797332132558 -14.450325477773063 94 45 32
0.5538049854229636 -1.7918454386356553 -14.491083970479153 94 46 32
0.5417274864017121 -1.8081043231614489 -14.51359485409266 93 44 31
0.5371539626480235 -1.8159639594105377 -14.547671451356884 92 43 30
0.5352367817807653 -1.8208557823263476 -14.585923977135998 93 45 31
0.5315896482892977 -1.8276896010287569 -14.621594931857079 94 47 32
0.5410191092173058 -1.8199021416029906 -14.67765224701743 95 49 33
0.5415655824856755 -1.822061186935077 -14.720074216455124 94 47 31
0.5461550700793434 -1.819708207493429 -14.768927898608457 94 47 31
0.5688912005600706 -1.7970832465367828 -14.846345984396944 94 47 31
0.6059543923227468 -1.7584700153732653 -14.946567925521865 95 46 33
0.6115284757852915 -1.755062827404716 -14.997657311655615 80 32 21
0.6109664713520906 -1.7585196265920882 -15.039226612126413 67 20 10
0.6080178348839596 -1.7646487261974668 -15.077131370066898 62 18 8
0.5856517841726485 -1.792458555327654 -15.084308499479897 58 18 10
0.5697135786072671 -1.8130901120382203 -15.101639685502214 53 16 9
0.5548832225932294 -1.8324843124015597 -15.120718396969002 48 15 9
0.577985616001909 -1.809568932537128 -15.20049493718821 42 15 11
0.5964338671174518 -1.791864834906498 -15.27312621989833 33 11 8
0.6104751455295938 -1.7790924525471938 -15.338949555787572 27 10 7
0.6836174002635764 -1.7063230316516904 -15.588232073686093 3 4 4
0.7184229409108647 -1.6705031165073683 -15.688970855135619 4 4 6
0.6148075810477649 -1.7888146428329854 -15.564299438262097 6 6 8
0.6184595964815527 -1.7876850786408331 -15.61432085461827 8 8 10
0.5924781375442425 -1.8195388089933298 -15.615882884121554 9 9 11
0.6060837758843123 -1.807349115987889 -15.682461546767108 12 12 14
0.6136809260346299 -1.8018579617707804 -15.73937725779371 15 15 17
0.5755883770689105 -1.8471766871178934 -15.720906703688655 20 20 22
0.5331462754365477 -1.8973151039833276 -15.695000079319609 20 20 22
0.48665589885234395 -1.9519343961846367 -15.66209781538177 18 18 20
0.4447115712766605 -2.001483651231993 -15.636478179166481 17 17 19
0.45282360160142643 -1.9954251999380723 -15.694322700166683 17 17 19
0.41611947416262307 -2.0391372795489 -15.6772030827278 16 16 18
0.34513611280384904 -2.1208830886686334 -15.602218738680264 15 15 17
0.3096985795734355 -2.163150719139029 -15.58664998216103 14 14 16
0.2604803762249315 -2.2206919922481143 -15.547573080277346 15 15 17
0.2491757983908589 -2.236164564575387 -15.572458142384896 19 17 20
0.2221257033347257 -2.2690955464962537 -15.570589096244863 19 16 19
0.21094228843916074 -2.2844317284195848 -15.59564931977592 20 17 21
0.23081098872387518 -2.2653615168348242 -15.673828501475699 36 33 37
0.2245796937607456 -2.2752247350149446 -15.707571442479917 24 22 25
0.20885909091438704 -2.295601432255869 -15.725068507572326 20 18 19
0.17821964416702674 -2.3324937628986397 -15.71682334786639 22 21 19
0.15697118467354976 -2.3589812967719412 -15.724651985844675 24 23 20
0.1713038286893278 -2.346094003647896 -15.794094091965615 27 25 21
0.01951818605861977 -2.593279284134989 -16.720038338079355 178 179 181
0.025245783473245353 -2.593349753329737 -16.826131594861657 186 187 189
0.022741058931720737 -2.5992907922716473 -16.86935484994213 188 189 191
2.3521997751239425 0.4890430170188411 -14.012704315315661 208 208 210
2.281908409030092 0.40608989912223237 -13.964780792346218 162 158 157
2.17427795332744 0.2804962302333127 -13.869499602275432 106 79 76
2.057028386301276 0.14395598376768248 -13.761430003788131 110 68 59
2.0133871231922367 0.0915388506339303 -13.745738110251994 108 59 49
1.975169329073088 0.04532878825307307 -13.73671626133651 107 55 47
2.0174116951492502 0.09099503826481303 -13.829861568706004 110 53 44
1.988520745592893 0.05543549985190843 -13.83267769612865 112 54 42
1.9353157378077008 -0.007866444499957659 -13.804290082865034 113 55 41
1.8759900172135966 -0.07813427826070196 -13.767772793896281 114 55 40
1.8430652646440553 -0.1182622474723507 -13.764887081558118 115 55 39
1.8065736306897375 -0.16244969741516524 -13.757264793899422 113 52 36
1.7701516439899478 -0.20654716330216605 -13.749570210988324 112 52 35
1.7368792583039223 -0.2470431363892054 -13.745797950311427 111 51 35
1.7007023504772247 -0.2908408017491855 -13.738107878501225 112 52 36
1.691193808714401 -0.3042353299682947 -13.765035633454573 114 51 38
1.566020613710081 -0.44942180580036073 -13.640729796913952 122 57 40
1.5533858282141546 -0.4663543520406028 -13.663199074077347 130 60 37
1.5235462010032053 -0.5028826626594647 -13.663050123259978 137 63 38
1.4848211793803499 -0.5495210905093959 -13.651065344394478 124 61 39
1.4295658317016748 -0.6149667317193872 -13.617037005086445 133 69 44
1.408734875135424 -0.6412097489635222 -13.628351417887483 159 84 56
1.389489378122175 -0.6656450397447182 -13.641720338091101 178 115 88
1.3375217203860053 -0.727307065747044 -13.611413915309768 134 82 66
1.3180726057018988 -0.7519605844662456 -13.624304741819683 138 85 73
1.2711679992143572 -0.8078353286644848 -13.600337285028916 120 51 36
1.223668182166337 -0.8643706471007642 -13.575320576768817 140 59 34
1.2107806804825132 -0.8815428979308209 -13.596717657518651 143 57 30
1.3065954612664226 -0.7751714590264207 -13.765089445348124 139 54 30
1.2466763671125323 -0.8458122721154053 -13.723136015533068 135 53 32
1.2205405759303334 -0.878050990818604 -13.726764104047472 128 48 26
1.2282148457318058 -0.8718819896775383 -13.776390947215713 129 48 27
1.2062487630547007 -0.8993816252340556 -13.785655706575609 127 45 25
1.1871121291789533 -0.9236647730065624 -13.798734944966299 128 47 26
1.1596484754767955 -0.9573967921283533 -13.800323840573597 129 47 24
1.1332799899211907 -0.9898790537784654 -13.803315655774744 131 48 24
1.0458276478754565 -1.091658506120984 -13.721770500757195 132 49 25
1.0237767631752166 -1.1192151455280204 -13.730315229375162 127 45 20
1.001479669254881 -1.1470466401328991 -13.738450659655985 130 48 23
0.9811837492421325 -1.1726046689081837 -13.749306199816093 131 49 24
0.9558222053821832 -1.2039013955701865 -13.753027417659585 128 47 21
0.9373067039069829 -1.2274333320404995 -13.766250438274247 129 47 23
0.9202415132125537 -1.2493193299188778 -13.781471098454066 131 50 26
0.9065140403469818 -1.2674224102109992 -13.801366179606049 136 55 32
0.8442740501578783 -1.3404683034895601 -13.752697276662692 128 47 25
0.8253068949494731 -1.3644914561718675 -13.764969812782255 141 59 36
0.8044823228339517 -1.3906143419065788 -13.774557517049084 148 69 45
0.8890516556855133 -1.3078043902833425 -14.09346601896134 161 95 72
0.8626581089691463 -1.3402482192660017 -14.095395193581876 152 69 33
0.8365116954936829 -1.3724059627798129 -14.097578407634327 155 83 53
0.6931759927800392 -1.5369785761123538 -13.929403404646123 187 126 111
0.736433897124829 -1.4906850034741304 -14.032021877357916 156 88 67
0.6803089060983543 -1.5566696649325094 -13.989909300340887 143 63 36
0.6321678324048889 -1.6136164103510158 -13.959146140530576 111 29 4
0.63163923001144 -1.6167935623051815 -13.99804054494252 110 23 7
0.6153244705189413 -1.6377946828415109 -14.01378407273544 112 29 9
0.592651364329444 -1.6659689010652636 -14.02011005718289 122 53 23
0.5827476217775089 -1.6797324777124638 -14.045271857191732 99 24 4
0.5681692435219272 -1.6987701587782986 -14.063517081312675 114 29 4
0.5404101017286651 -1.7326697477176065 -14.062119599054151 115 29 1
0.5438461822922669 -1.7313940189674737 -14.107191114150218 110 31 5
0.5430328699730871 -1.7349165281494576 -14.146035336148328 108 33 9
0.5431238266148624 -1.7374267431000492 -14.186339533284055 107 47 31
0.541603457426469 -1.741759312408388 -14.224327176723921 95 46 35
0.5413634765293778 -1.7446561409763408 -14.264345226526814 96 49 38
0.540895557215348 -1.7478166526292505 -14.304126167871265 96 50 37
0.5404260283082563 -1.7509859084095618 -14.344011240305694 95 46 34
0.5425333197233528 -1.751262061841051 -14.387926751995266 94 44 33
0.5345805395605834 -1.762865889715063 -14.41661170660514 92 42 31
0.5216172528282157 -1.7801089225181643 -14.437670326161541 93 43 32
0.5215634174872443 -1.78283390710377 -14.478550660427844 93 43 32
0.5195195091677718 -1.787803708531336 -14.516479412521939 93 43 32
0.5285868269408072 -1.7802899670807628 -14.571656526672214 94 44 33
0.5200150360742599 -1.7926112840450346 -14.599719196427905 93 44 31
0.5292490170219328 -1.7849302575825288 -14.655461926945375 94 46 32
0.5249191542749796 -1.7924971776655898 -14.690285375316677 94 46 32
0.5203630225349816 -1.8003232455335887 -14.72483341678096 93 45 31
0.5635795246574755 -1.7545212191732524 -14.834229499247765 93 45 31
0.5637678502132193 -1.7570455026507146 -14.876582963421566 92 44 31
0.5990641045221237 -1.7201825356962317 -14.974308395439671 90 41 31
0.6210860245779379 -1.6982386670296323 -15.051508887178066 70 22 13
0.6378128147730271 -1.6822536956268275 -15.120639921452796 64 17 10
0.6485658155088405 -1.672984143579522 -15.180556409446638 62 18 10
0.6370746175892097 -1.6886636868905285 -15.205290210599046 59 18 10
0.6304129516812411 -1.6989320870443407 -15.23774969656673 54 16 9
0.5800185497753301 -1.758202759407884 -15.200295387385914 48 14 9
0.5458239858363814 -1.7993066650422724 -15.188509369463514 40 12 9
0.6899685135743203 -1.6463972700491674 -15.551220361480894 22 10 10
0.6793740302885904 -1.6611177698182384 -15.578090600596575 5 3 2
0.6343426081457322 -1.717229279806304 -15.593026026030081 3 3 5
0.6024634600536576 -1.755746512275107 -15.585060514061158 5 5 7
0.5896670488414135 -1.772922749548858 -15.608233668144788 7 7 9
0.5454203938077331 -1.8252449471913668 -15.57968568584609 9 9 11
0.5805786687228318 -1.7888383974089512 -15.681830580817142 11 11 13
0.5767233762108295 -1.7960350640028828 -15.71989559419549 13 13 15
0.5455414524569551 -1.8337506223945246 -15.71273048928548 19 19 21
0.5089045824301932 -1.8775452316243042 -15.696334604855164 21 21 23
0.4788594077455324 -1.9139698597903223 -15.690722195921687 21 21 23
0.47977994388423806 -1.915836207101953 -15.736744506324754 21 21 23
0.4442438596205718 -1.958375221614535 -15.721767552053517 22 22 24
0.3962836547000608 -2.014755283666746 -15.685697098067838 21 21 23
0.3736861903018962 -2.0428403279123124 -15.692076089028276 21 21 23
0.2981724743021781 -2.1298948947771734 -15.608896871802699 21 21 23
0.27043409236277105 -2.1636810285516415 -15.606145941023353 26 26 28
0.22075620233016124 -2.221896657570878 -15.565959840804062 38 38 40
0.19602069804137212 -2.2523148870667358 -15.567960331691243 38 38 40
0.1774989060517136 -2.2758087059757024 -15.580478915176702 25 24 27
0.19548766358339353 -2.2586645139491672 -15.655544787470054 19 18 21
0.17350757438603903 -2.286011366718972 -15.662196997267454 17 15 18
0.17985573049151427 -2.281842205579319 -15.717605085814078 19 17 19
0.1640982888669109 -2.302267635185067 -15.734989524003835 29 28 26
0.13225080585144244 -2.3405794157075244 -15.724461500928689 27 26 23
0.13996839630107338 -2.334906703681143 -15.782533785302387 28 26 22
0.07440317284735976 -2.4106717725485884 -15.713071563256609 30 26 23
0.005738517173643487 -2.567863828940607 -16.837117069620103 185 186 188
2.347716248582982 0.533322363587101 -14.039544367733129 207 207 209
2.258844797793264 0.4288092576640947 -13.968181147812217 154 148 144
2.1054237093613564 0.25029323775659584 -13.814919262802816 112 80 74
2.0575025897761545 0.19282053964398926 -13.794048268079894 118 70 58
2.0149856341893697 0.14155895992750978 -13.779789375012395 116 61 47
1.9625250704997725 0.07891188352523493 -13.752688163362425 116 55 41
1.92480156293683 0.033171769473098855 -13.744100990238117 116 53 37
1.9182457219720481 0.02315557119470224 -13.775188402382026 119 54 36
1.8791604248221487 -0.02413020136975952 -13.764628122473313 122 55 36
1.8396655000279467 -0.07187375411001273 -13.753361557140062 123 55 35
1.800352986705681 -0.11939678447364432 -13.742146810961511 123 54 33
1.7612214730982583 -0.1667009894621101 -13.730983329829375 124 54 33
1.7271164260057352 -0.20823982530120766 -13.726153497284312 125 55 33
1.6915643494413914 -0.2514254555498354 -13.719296193241455 126 55 32
1.6584232400886694 -0.29184235495552713 -13.715424122779027 128 58 34
1.621669199230186 -0.33638357806808905 -13.706688786555574 130 59 34
1.5916664205467241 -0.3731921952937345 -13.706635512550381 134 61 34
1.561103807760615 -0.41063347311399756 -13.705727554903717 140 63 33
1.5319908643761186 -0.4464094879589622 -13.70660704440164 148 69 39
1.4638913226033106 -0.5267433890136877 -13.655841998408285 132 64 39
1.42788409188198 -0.5703750742280516 -13.647213250292168 138 77 48
1.408251386020054 -0.5952864194712228 -13.660183175560338 158 88 56
1.3814332301577519 -0.6284034689324391 -13.663531245247377 184 124 95
1.35389754072571 -0.6623338126422924 -13.66582201172093 136 84 67
1.3269985051086235 -0.6955305533053311 -13.668862051244277 146 89 75
1.2840643896293913 -0.7470278650345126 -13.650251630480295 127 57 32
1.260770208284804 -0.7760934063847502 -13.65789038028658 148 66 30
1.2378057642702287 -0.8047779808079447 -13.66590116058596 147 63 26
1.270084595445704 -0.7704273779555146 -13.748706847190586 144 58 24
1.257485066112475 -0.7872925359654221 -13.770868123916172 144 58 26
1.2300113759405127 -0.821121909921863 -13.772766460770761 139 54 21
1.1998684192019256 -0.8579881985881155 -13.770911440442031 140 54 19
1.1487717026516178 -0.9187338820940303 -13.740216574315813 143 57 22
1.1500578788709932 -0.9197572265647533 -13.781216267648285 144 59 26
1.1228957628669871 -0.9532051626742417 -13.78312798506279 143 57 22
1.0719645426465028 -1.013726110022703 -13.752091432266656 143 56 20
1.0460701479958012 -1.0457109365256283 -13.755458234467728 145 59 23
1.0189507340506498 -1.0790846968395753 -13.757026650871229 137 52 17
1.006018333690371 -1.0962991172579724 -13.778255620793868 141 57 21
0.9814772399647955 -1.1267279513925725 -13.783268514627045 145 60 25
0.9600455982256628 -1.1536125395090346 -13.792551008216497 143 61 26
0.9335841264899276 -1.1862161270583957 -13.794704002739838 145 63 29
0.9071999097084267 -1.2187253320465539 -13.796863390220885 149 64 33
0.8822286183832855 -1.2496211057440858 -13.800916585994385 145 60 30
0.8555750644323177 -1.2824239156747987 -13.802495056098904 151 67 37
0.8278249422577093 -1.316466653303257 -13.80241063816981 146 60 32
0.7941464656498676 -1.3572401324495225 -13.79376716397095 157 75 48
0.8587062614952123 -1.286373319486029 -13.925288757365038 168 93 68
0.8556554433297769 -1.2923558164547897 -13.960581016961015 171 109 92
0.8042088748545155 -1.3583513151628122 -14.005860601330117 156 79 52
0.7756754297796906 -1.3932680825916517 -14.004403908951206 170 86 47
0.7409487734189404 -1.4352051732403188 -13.993830472272558 176 101 76
0.681268639970944 -1.5054422428523662 -13.946743709786446 194 137 122
0.6719936942296223 -1.5184813380546194 -13.97289309703745 164 97 71
0.6340394205870381 -1.5640458285801584 -13.95707559887239 154 73 37
0.6092387857792199 -1.5946842651982829 -13.96037308592133 131 47 14
0.5822671456207407 -1.627777577495559 -13.9603790617523 111 27 4
0.5672592195801034 -1.64730570827626 -13.977938012462772 108 25 5
0.5513260637639767 -1.66788114905314 -13.994111562412858 127 57 27
0.5566631869391405 -1.6643613553235825 -14.041843871103392 102 29 6
0.5391262296494483 -1.6867556841460596 -14.055670669850205 122 40 11
0.5192099869899609 -1.7118415928851247 -14.065908942333245 123 39 4
0.5187199328111403 -1.7149342859969101 -14.105174942699188 111 37 5
0.5328310315488745 -1.701509538015789 -14.166466015979744 106 36 9
0.5288953199973139 -1.7085179135484037 -14.200815105067509 106 47 29
0.526073824499556 -1.7142708048867554 -14.236923166982958 98 49 34
0.5275613639359356 -1.7151560826046088 -14.279640697808512 99 50 35
0.5094877127237827 -1.7381658063914731 -14.292788168590409 99 49 35
0.5173094929328279 -1.7319014639639105 -14.345311801610103 99 47 33
0.5026148044897889 -1.7510943428384618 -14.36364421240842 101 47 34
0.503055136529817 -1.753186330375505 -14.405129834264136 102 50 37
0.5028577834874697 -1.7560059769422782 -14.445752560423898 99 47 34
0.5022338703683733 -1.7593143743075839 -14.485829684497933 98 46 33
0.5012914083458186 -1.7629892581843345 -14.525522914482442 96 44 31
0.49999083952320644 -1.7670750494461824 -14.564767399044877 97 45 33
0.49772516267974876 -1.7722564774866099 -14.602616995851815 96 46 33
0.49674458332192684 -1.7759940647386863 -14.642561372411077 96 47 33
0.4956583731291797 -1.7798575501072964 -14.682447341426663 95 47 34
0.49456897317919646 -1.7837313553485465 -14.72243427515881 94 46 34
0.5140315545442538 -1.764441728109249 -14.794775629481205 93 45 33
0.5317845033313868 -1.747097152458605 -14.864712135622684 91 43 31
0.5496523666901592 -1.7296403104664932 -14.935101415954204 90 42 30
0.5667962858249886 -1.7130163993386258 -15.004618910527178 75 28 18
0.579333747817393 -1.7015977178038053 -15.067096563177149 65 20 11
0.5800236776951881 -1.703534012732531 -15.110954961660251 64 20 11
0.5792016628134129 -1.707180334614705 -15.152527172932729 61 18 11
0.5732183300401168 -1.716642637388726 -15.185955728995562 56 17 10
0.5658482817636985 -1.7276695347582907 -15.217227618299635 50 15 10
0.5894369708940896 -1.7038748419710732 -15.298355045004019 42 12 9
0.5772977674097959 -1.720280998391103 -15.322183727618784 35 10 7
0.5653627912368777 -1.7364584328199149 -15.346356860649252 29 9 7
0.5994678257730603 -1.7008861003546842 -15.445221479455544 22 10 10
0.6093239571211848 -1.6925908196630273 -15.505075551261852 6 3 2
0.5480317600872078 -1.7670236430482067 -15.492942843381986 3 3 5
0.5788023085752592 -1.7352610802982626 -15.587371076930772 5 5 7
0.6026361035230279 -1.7113114263859552 -15.670795944883773 7 7 9
0.5429740310473035 -1.781092525212772 -15.616872110376864 9 9 11
0.5681539777842701 -1.7556518813191637 -15.702829293994018 11 11 13
0.5337071977288859 -1.7971195169139955 -15.69026908970606 12 12 14
0.5317328811262882 -1.8021590071729259 -15.731515821522832 16 16 18
0.5105005627366346 -1.828796655268473 -15.740760810630817 19 19 21
0.480222695560367 -1.8655688103995889 -15.734813384794172 20 20 22
0.4445305079943038 -1.9083984405703092 -15.719635964380831 21 21 23
0.41230905779520555 -1.9473270169837695 -15.710090991611672 24 24 26
0.37085615960846763 -1.9965837391755272 -15.6848106418947 26 26 28
0.34798955328519465 -2.0250133166187014 -15.690694469128914 27 27 29
0.2891893674951769 -2.0936609937963455 -15.635573983832243 26 26 28
0.23143170760179865 -2.161115128437925 -15.581802402418132 24 24 26
0.19760031339163753 -2.2017744749667614 -15.568403115911547 23 23 25
0.16932072037075185 -2.2362120655489806 -15.564303194793174 23 23 25
0.15321880346861505 -2.257023880223003 -15.580938716079507 16 16 18
0.13602265288204762 -2.2790573847107654 -15.595669055182753 14 13 15
0.1596881114214832 -2.2554223940978186 -15.680797986128777 16 14 17
0.14256995795046645 -2.2773767206127644 -15.695788701441224 20 18 20
0.12574027032962531 -2.299006693972947 -15.711245625782567 41 39 38
0.10922201899636708 -2.3202869183112114 -15.727212695913742 42 41 38
0.14705601483773734 -2.2808883597154432 -15.837882457526337 32 30 26
0.061458441089321525 -2.379278257653131 -15.733322677849657 31 27 24
2.4581421672857613 0.7151715858673562 -14.129428520584883 213 214 216
2.4024780887529245 0.648534068993043 -14.100362489335518 213 213 215
2.3255969351494388 0.5574782839300712 -14.044349073503469 206 206 208
2.233931420590325 0.4494254279745471 -13.969268488352723 154 143 137
2.075368175080877 0.2643879703964531 -13.809116761364855 123 82 72
2.032383932198556 0.2124526176267123 -13.79438929197672 132 77 61
1.994785254655627 0.1667278834659287 -13.786299997436025 132 71 51
1.9519064469030525 0.1149380305420662 -13.771315870111597 130 62 40
1.9778214479054559 0.14230173326667828 -13.844024481431397 133 60 36
1.9448587211449606 0.10192748457082601 -13.841579547388648 136 61 33
1.909646988294647 0.05897533256875942 -13.836109584354375 139 62 34
1.8635261994329833 0.003489979398358045 -13.816431895241461 138 61 32
1.815846322834581 -0.053773282415844115 -13.79450870015101 138 62 32
1.7442086786328561 -0.13855608843170586 -13.741301493320641 141 65 35
1.7090326629542547 -0.1814159954292487 -13.735050078427523 144 69 39
1.673992455930294 -0.22411031306002283 -13.728820947858793 146 70 39
1.6391050065890358 -0.26661962828891816 -13.722637135600213 146 70 37
1.6021662901137175 -0.31147510771047404 -13.7136120879643 149 74 39
1.572294736097338 -0.34820578952237646 -13.713702679772206 146 72 34
1.5378104209710957 -0.3902243636315168 -13.707597855604595 149 73 36
1.505319708759795 -0.42994540693550576 -13.703974351505057 156 79 44
1.4623276647791759 -0.4817080802218996 -13.686299927236801 140 73 42
1.4329490108873149 -0.517839217625145 -13.68649469525264 140 81 48
1.3960744055695873 -0.5625612614582733 -13.676586626909035 145 87 53
1.3620890007622881 -0.6039592770130957 -13.670365689220056 154 103 75
1.3353717023265155 -0.6370144711055907 -13.673729640040712 138 87 71
1.3087214718769729 -0.6699867079941493 -13.677085480997272 135 77 59
1.2869128534831837 -0.6974038409828891 -13.686865440255392 131 64 32
1.2638348625405915 -0.7262716790922843 -13.694868474505768 154 79 37
1.2396245322354127 -0.7564323304201821 -13.701265661622879 152 77 34
1.2289833993824204 -0.7710456051676475 -13.726014291718078 151 75 34
1.201381630153454 -0.8050832329818833 -13.727681180812256 155 79 38
1.1718109665227234 -0.8413685286112802 -13.726551707139366 156 79 38
1.1467843810253715 -0.8724445900251201 -13.731524148932394 157 81 37
1.1222226943099716 -0.90298312940096 -13.737046949669836 158 80 35
1.103045107631758 -0.9273556965528211 -13.749900643110482 156 79 35
1.080725868171533 -0.9553196025804729 -13.758370968268 156 80 35
1.0440622682293714 -0.999685902734682 -13.746905486604645 156 80 33
1.0276663477302819 -1.0208644217602298 -13.763410318717892 155 78 32
1.0003914408309136 -1.0544793501465382 -13.764740200503518 152 75 31
0.9760515586376388 -1.084732733542097 -13.770061512754378 153 75 32
0.951459278545483 -1.1152692848731647 -13.774944050208912 154 77 33
0.9304142946717109 -1.1417473750312048 -13.784720691149603 156 83 40
0.9029386547899962 -1.1755676770095764 -13.785380986750368 159 87 47
0.8814981407593767 -1.2024884708476078 -13.794453118295822 162 87 49
0.854957452941199 -1.2352289307891509 -13.796239016850826 166 89 52
0.8287765028759337 -1.2675522638503391 -13.79843148718558 159 86 50
0.8084324454411544 -1.2932072967252815 -13.80883358728454 159 86 53
0.7853863646293879 -1.3219421808192413 -13.815321310319788 170 97 67
0.7722405424896452 -1.339377329309368 -13.835907086405715 178 111 82
0.7653346498898554 -1.3496950835760417 -13.865452897750913 181 123 99
0.7602351485669439 -1.357955971131548 -13.897649791951714 177 122 99
0.7301285201468626 -1.3947323227094532 -13.893806077770916 163 99 73
0.7323919483456773 -1.394602159213055 -13.936692931857472 168 99 65
0.7114700660350279 -1.4209025233593415 -13.946043045906801 172 100 59
0.6696046051828244 -1.4710619328062853 -13.924840671787198 174 108 78
0.6491806291732591 -1.4967822147254388 -13.93470913770907 176 124 100
0.6264085478200805 -1.525173103593617 -13.941081563088286 165 109 77
0.6022282189004136 -1.555162659845852 -13.945308831768092 155 90 50
0.5782687979226839 -1.5848951928096637 -13.949771640589649 144 77 37
0.5590219278964565 -1.6092587547313348 -13.961102555899107 129 65 30
0.5388035342978204 -1.6347247009929395 -13.970945382109665 120 56 25
0.5316606328089146 -1.6453120058834294 -14.000138148821314 124 67 36
0.5245800148379085 -1.6558315066603173 -14.029472698031904 92 32 10
0.5266057445538741 -1.6559990910741096 -14.07244869485745 135 64 32
0.4947266764987086 -1.6947195269678517 -14.064805302296488 148 79 35
0.48719174135623255 -1.7057606613967335 -14.093542944728586 140 80 38
0.4898910223328805 -1.705175023560285 -14.137729345458549 111 55 22
0.4783298277786776 -1.7207987531644484 -14.16052650155659 108 55 30
0.48568716630812814 -1.714935007744102 -14.211966898887876 100 48 30
0.5007448180406571 -1.700337618649443 -14.275264557035513 110 58 40
0.4967131464965875 -1.707427285923016 -14.309750926912198 112 59 40
0.49487728298623157 -1.7120293828019832 -14.347665386195985 113 58 40
0.4955446839509543 -1.7137967511396006 -14.389506540895932 114 58 39
0.49163397278043597 -1.7207654190446418 -14.424440980841084 109 55 36
0.4946549767716055 -1.7198765851938767 -14.470120353103564 106 54 35
0.49566495861911886 -1.7212768487951928 -14.512835803437326 107 54 35
0.4955352469971448 -1.7239767915104984 -14.55391023327721 106 54 35
0.4945221114707836 -1.7276850637917516 -14.593727095928394 106 54 36
0.49236888132215606 -1.7326918522365826 -14.63187616153678 103 51 35
0.4888872644379658 -1.739209597144506 -14.668049392349783 106 55 39
0.47391696514316983 -1.7587455788944917 -14.686335435963215 99 49 36
0.47332118979324456 -1.7620028894703124 -14.727157218624619 99 49 37
0.4988597323361361 -1.7356793855899735 -14.809200742911017 97 47 35
0.5175079477501936 -1.717175815048841 -14.880714618814999 96 46 34
0.5211966678622719 -1.715617750303097 -14.928846382257486 95 48 33
0.5262322544911795 -1.7125452502210239 -14.979265066189047 86 41 26
0.5279678257778926 -1.7132153406294597 -15.024597968459142 73 29 16
0.5281746806747813 -1.71562240925706 -15.067627307204013 70 25 14
0.5269051667600353 -1.7197060588613748 -15.108417117640023 65 20 11
0.5239516772065942 -1.7256997529764115 -15.146615337825052 57 17 10
0.4919908676750726 -1.764476499957186 -15.138257567094229 52 15 10
0.4883833879637276 -1.7712127426247157 -15.175461636866686 42 13 10
0.5533641227726172 -1.7004902055059636 -15.323672941376508 34 10 8
0.5573159117115147 -1.6987210861512052 -15.373621522188767 28 9 8
0.5612815345304902 -1.6969461722695725 -15.423751400119432 25 11 11
0.5744361575903785 -1.6848106284161846 -15.489024771619771 8 5 3
0.4488396047096739 -1.8292428581487234 -15.327662330724955 2 3 3
0.5181916436745264 -1.761894873531924 -15.617324218794653 8 8 10
0.5155975189902442 -1.76756310536694 -15.657403635460739 10 10 12
0.5221008112662946 -1.7629885281733468 -15.71271103052015 11 11 13
0.4998723584920226 -1.7907866945881077 -15.720306285672432 14 14 16
0.4747073629946881 -1.8218867338306728 -15.722915154169678 16 16 18
0.4677087988587507 -1.8325294778726935 -15.755873331986766 18 17 20
0.41153836852003334 -1.8985171326366075 -15.70623528684997 21 20 22
0.38220661096599384 -1.9342822712667935 -15.70144475589343 24 23 25
0.36786452307137196 -1.9531768076425369 -15.721847172100656 26 26 28
0.32237337377925357 -2.0071010179977895 -15.689444541230312 27 27 29
0.25477783678956323 -2.0858587801790627 -15.619171271542854 28 28 30
0.20714987916640926 -2.1421413578669997 -15.5824243591512 29 29 31
0.18760364164344878 -2.166848135744168 -15.59335371912506 29 29 30
0.13545513301375944 -2.228177602673922 -15.548347752592184 30 30 31
0.12385655022699993 -2.2439415466799897 -15.572668715022605 29 29 30
0.1149752577967158 -2.2566555660855503 -15.601691378921558 22 22 23
0.14490873883052124 -2.225801252659294 -15.697841087820864 18 17 20
0.13560559915534665 -2.2390057341121903 -15.726408282924169 19 18 20
0.10366611742371656 -2.277609494054124 -15.715677595040674 38 37 39
0.08289053980277394 -2.303680366739158 -15.72422545710855 52 51 51
0.11092337929904383 -2.2750157990379076 -15.81799901447577 42 40 37
-0.008636062068106298 -2.462767730740082 -16.47703395759475 138 139 137
2.386695911026731 0.6803252311102366 -14.113311500110557 213 213 215
2.3064817743950554 0.5851437862198479 -14.052961013676754 206 206 207
2.214842662818704 0.4767848801291228 -13.97771863834297 166 152 144
2.051854402363773 0.28600609999504556 -13.811574559222755 138 97 83
2.006515239246685 0.23122385929401457 -13.793781644062651 145 94 75
1.966950788578815 0.1831259249918622 -13.78312063881063 147 93 67
1.9296733394483945 0.13768038591751175 -13.775198479180172 143 84 53
1.9085593650446349 0.11090989067232915 -13.787809469235857 148 84 52
1.8687950008767773 0.06260964711085482 -13.776418665577463 150 85 51
1.8667150087388267 0.05782091243366061 -13.813372427937306 150 87 50
1.7898190781810417 -0.033319342454217526 -13.75379498520071 150 87 49
1.7501056415827105 -0.0815273608098197 -13.74191475377565 149 86 49
1.712981542644683 -0.12673685117218358 -13.733210254329855 152 90 53
1.6767558231167121 -0.17089992651923325 -13.725506906099485 154 95 60
1.646374721060321 -0.20831291867953272 -13.72527308801523 154 96 60
1.611532814391809 -0.2508620452352188 -13.719076829789776 152 94 59
1.5775644413995944 -0.2923948834347696 -13.713873734152436 149 93 59
1.5453157249185407 -0.3319367492151084 -13.710787033964458 150 95 61
1.5145077002356553 -0.36981021865960617 -13.709466735551574 151 95 61
1.4822396684679058 -0.40935823081546285 -13.706087099233773 153 98 65
1.4424128695884795 -0.45760505045206834 -13.69253289168079 145 95 67
1.4116986704917638 -0.4953452661652129 -13.690919331253836 125 77 50
1.3797712084192417 -0.5344748765789049 -13.687558829253469 114 67 43
1.3450312846841936 -0.5768341079381534 -13.680295954162629 105 61 38
1.3225915823479326 -0.6050260047725224 -13.689391599145909 110 64 47
1.2975189925904411 -0.6362438145280018 -13.694875558404885 136 85 69
1.270623685582974 -0.6695535789222138 -13.697811891429932 144 92 68
1.2529439106734626 -0.6922562570925539 -13.71312577421453 145 93 63
1.223343727040115 -0.728666902870061 -13.712222750900679 144 92 61
1.2000476044831863 -0.7578212488845866 -13.719781524867361 142 91 60
1.1717661557025094 -0.7927025482544705 -13.72045914720893 140 91 61
1.144587832377657 -0.8263091006078582 -13.72253459965869 140 93 63
1.1349758837464927 -0.8397220383636821 -13.74862369983233 141 93 62
1.0956839910129195 -0.887238160591779 -13.73387879334096 141 91 60
1.08056748869544 -0.906971086049901 -13.752313056074328 143 96 64
1.061738571993573 -0.9309669658415727 -13.765594490227425 142 93 62
1.0161772434903327 -0.9856565693921757 -13.741721149478687 139 88 57
1.008505366678789 -0.9968324029347668 -13.770348279300798 139 88 56
0.9673271993352395 -1.0464698181031284 -13.75224310349046 141 88 57
0.9581671681962711 -1.0593509049586016 -13.77874509054718 142 89 58
0.9373193252492875 -1.0856438871558822 -13.788871963717643 144 91 59
0.9150965140602194 -1.1135105757560568 -13.797004642859664 143 93 62
0.8920206089341391 -1.1423514610073706 -13.803863454945802 139 92 65
0.8702666080148029 -1.169671987888548 -13.812516905729948 144 97 73
0.8469771420212084 -1.198748766423635 -13.818924299713624 149 99 74
0.8176207724544011 -1.2347744526821511 -13.816617053182853 142 93 66
0.7926788308085824 -1.2657338774493185 -13.820483718812028 142 96 71
0.7728386007405073 -1.290842761201537 -13.831560013364337 143 97 75
0.7274417310544807 -1.345222244862696 -13.805902020694413 142 96 75
0.7220157790146438 -1.353811334403586 -13.837517767271603 147 103 82
0.7367579083527769 -1.3393123983128659 -13.898303983244144 148 105 84
0.7127482828558587 -1.369187024370853 -13.903228626939658 152 105 83
0.6967111389259748 -1.3899320704677036 -13.91963729445051 151 104 78
0.6893700735436843 -1.4007253504321229 -13.948679043592694 151 99 70
0.658832502990994 -1.4380582076723236 -13.943915675625673 143 92 68
0.6344774583161303 -1.4683113380024144 -13.94805979133183 136 89 67
0.6148830975237156 -1.493115131550808 -13.959099586231604 137 88 61
0.5964531271103493 -1.5165845770127868 -13.971800666878018 131 78 46
0.5707470534708947 -1.5483681459274292 -13.973721920531542 128 72 39
0.5430269700764478 -1.5824470820343466 -13.972560343109508 122 67 33
0.5388280306713495 -1.5896453691816443 -14.006180816659377 126 72 36
0.5210631652365132 -1.6123441033295718 -14.019689317987712 130 80 49
0.5100761115798007 -1.6273001005806673 -14.043272739055611 81 38 19
0.505337294792144 -1.6351230766601752 -14.076222694533264 104 59 32
0.4735476429328629 -1.6738295148522129 -14.06865615193264 148 103 66
0.466250108507821 -1.6845743331592038 -14.097783631355398 135 97 60
0.465196547412281 -1.6881975509472449 -14.136380029035628 118 76 42
0.45363306685684 -1.7038162919584732 -14.159177220903072 113 70 39
0.45740772140695274 -1.701942378667515 -14.205256869701687 101 57 31
0.46798663927968276 -1.6923183669177417 -14.261830125313049 102 58 34
0.47423699768103367 -1.6876410411724647 -14.312000536832606 110 68 44
0.4640547613849084 -1.7017028160898162 -14.337198115242046 113 69 45
0.4641851649515085 -1.7040148703524514 -14.378240875915047 114 68 44
0.4643150752986154 -1.7063343374247033 -14.41939659173742 112 66 41
0.4644469961013131 -1.7086583936379025 -14.460669589203313 112 65 41
0.46481398497212867 -1.7107216789067623 -14.502420852342528 111 66 41
0.4644445118135261 -1.7136304655552639 -14.543146989272934 110 66 40
0.46407443868550535 -1.7165466416374446 -14.583983510545586 110 64 38
0.46370449879055187 -1.7194694002621302 -14.624932015501908 109 63 38
0.4633327848867057 -1.722400939473709 -14.665989989083057 108 62 39
0.46457338387046887 -1.7235053700515213 -14.709689281947348 105 58 38
0.4638625368971656 -1.7268365915993016 -14.75044678581667 107 60 41
0.46924816502435984 -1.723243347550686 -14.800929302988656 105 58 39
0.4722539165381061 -1.7223650880564358 -14.847812759786528 108 61 42
0.47769568056459555 -1.718727283507504 -14.898703503816218 104 57 36
0.48632445723892115 -1.7114786827325998 -14.954828497036544 97 54 34
0.48792620209400717 -1.7122234961624008 -14.999943389879974 90 46 27
0.48631191664431395 -1.7166284448256066 -15.040049631413947 86 39 22
0.4836664099876691 -1.7222105344215812 -15.078608229088367 80 31 18
0.48349551363416055 -1.7249896717541988 -15.121242867201904 69 22 12
0.4713408108797408 -1.7413750071816176 -15.144675047696174 60 15 8
0.4539824073025023 -1.7636647804508208 -15.15970673830406 48 12 4
0.4548648883811177 -1.7652629649414404 -15.204278795746207 42 11 4
0.45574943670275303 -1.766866652449841 -15.248984464861032 33 9 6
0.45663672929676036 -1.7684751105337524 -15.293825432099943 29 12 11
0.47775215684450334 -1.7471643901198046 -15.37186741856803 8 5 3
0.483874552600585 -1.7428620706840832 -15.425645757402616 2 2 4
0.4054805751560915 -1.8343174301714011 -15.340666713195347 2 2 4
0.43505763288600585 -1.8087487332260945 -15.521055341679073 7 7 9
0.42930774488869083 -1.8179176644817163 -15.555671715339386 9 9 11
0.4278670263363775 -1.82221523009994 -15.597544642937805 11 11 13
0.43763364908407354 -1.813841715135295 -15.658264405746808 12 12 14
0.42467508546883614 -1.831182156158559 -15.681112549048017 14 14 16
0.3835665862552151 -1.880351033999161 -15.656654988444377 17 15 18
0.3926254321534568 -1.8727965425582802 -15.716496686162207 20 18 21
0.3552799409240923 -1.9176962440855574 -15.698123209209447 23 21 24
0.33662591715510715 -1.9414647811581993 -15.711207311124575 25 24 26
0.298981315795702 -1.9866809519667594 -15.69197054744625 26 26 28
0.22302210432592418 -2.07515009203739 -15.607210880681713 27 27 29
0.20218186532660143 -2.1013566677363107 -15.616059032684614 30 30 32
0.1529250603509853 -2.159632131257614 -15.576140556646926 31 31 32
0.1321154146058161 -2.185787774305786 -15.584768876471244 31 31 32
0.10372712728276934 -2.2204887067985846 -15.580268088860237 31 31 33
0.09519957228131215 -2.232781960462095 -15.609945782768236 29 29 30
0.12227499717727408 -2.204935044513812 -15.701366750763537 26 26 28
0.12167582666698173 -2.2083073465560217 -15.74508966523086 24 24 26
0.11031410045139367 -2.223815966272081 -15.770184464949953 37 37 41
0.0950437462431859 -2.2437295541062934 -15.788471486970085 54 52 56
0.07487790878610312 -2.269156229593344 -15.798164633715803 44 43 41
0.06298379213519922 -2.2852646134825187 -15.82232829732128 29 28 23
2.2539534285055147 0.5740996572402084 -14.019441151502008 209 208 210
2.1638776079977493 0.4672234791234695 -13.945863261107904 180 166 159
2.0602070837079243 0.34460917803556335 -13.854492673000621 142 109 97
1.9861705633919229 0.2564009749322871 -13.800204578006959 131 93 77
1.9407645175475934 0.2014167570715033 -13.782032784785805 135 95 76
1.9008874676474625 0.15285575797166828 -13.770713798232844 132 91 68
1.8611953597628474 0.10452000004659556 -13.759446885914095 129 85 61
1.8431198994586833 0.08124737368250656 -13.77581897461651 128 84 59
1.8368431785928694 0.07164796920368133 -13.807390619451517 129 83 59
1.8000526414160172 0.026694672635290573 -13.799522012440217 130 83 59
1.7256226853372079 -0.061846673817361975 -13.742632954541847 128 80 58
1.6865769741477865 -0.10938422355969468 -13.731361132723983 128 79 57
1.6522181253951747 -0.15148422898594038 -13.72602352173914 128 79 58
1.618767932444268 -0.19252353546483292 -13.721725440120814 121 73 52
1.5839868707534235 -0.2350948209774799 -13.715536780564705 122 75 54
1.5504663115275568 -0.2761983816605724 -13.71085317587236 122 75 54
1.5180730977562789 -0.31598906281294337 -13.707512185502726 115 68 47
1.4900461690344668 -0.35072076326447554 -13.709812749469112 114 67 46
1.4545859106248864 -0.3940435067341852 -13.702141278240116 116 69 48
1.414248441383819 -0.4429966188820904 -13.687816895851828 105 61 37
1.3859056662661775 -0.47807048544456965 -13.689303693995452 101 55 32
1.3576415153597488 -0.5130470384517398 -13.690786078206944 104 56 36
1.3294558311355216 -0.5479264866842222 -13.692264292773007 106 56 37
1.3013484560644928 -0.5827090389226344 -13.693738581980337 102 51 36
1.2733192326176557 -0.6173949039475923 -13.695209190115632 102 52 40
1.247383630976742 -0.6496561430144174 -13.699404375152788 106 60 48
1.2194559344939577 -0.6842124173670383 -13.700802259109473 106 62 53
1.1976757211969984 -0.7116643802836071 -13.7104577375467 109 67 58
1.172194889763282 -0.7433845878173706 -13.714999832825523 108 67 57
1.1436439534874836 -0.7786428365198388 -13.715248986836045 110 68 60
1.1162102989435825 -0.8126050691525766 -13.716916483744143 112 69 62
1.090779495132094 -0.844250319134602 -13.721233426101993 113 69 61
1.0654080510861492 -0.8758217043686809 -13.72554030185309 112 67 59
1.0393452827609484 -0.9081849790286007 -13.728798563397994 119 74 67
1.014042992122619 -0.9396656735011408 -13.733014597124672 115 68 62
0.9883122480872406 -0.9716348929231682 -13.736542298317074 114 64 58
0.9626427658691248 -1.0035278869700255 -13.740059716146991 114 62 56
0.9384026490858317 -1.0337681350169605 -13.745481671917453 114 64 56
0.9306872318611417 -1.044964865788212 -13.774007259897166 114 63 54
0.9078834797738424 -1.0735443733971337 -13.781344762238145 117 66 56
0.8851241499695774 -1.1020683713435622 -13.788670766634157 124 73 65
0.8624054796588374 -1.130541205623473 -13.795980176861558 124 77 71
0.8395645235464833 -1.1591504707870905 -13.803041967269358 124 81 75
0.8156708986281367 -1.1889669124321118 -13.808530560183799 121 76 69
0.7908711612600605 -1.2198211315066825 -13.812642273909242 112 67 62
0.7680791809664722 -1.2483600381550017 -13.819535199149918 127 89 85
0.7457382692244416 -1.27637563937588 -13.826999401657794 134 98 95
0.6929168885303518 -1.339440847534867 -13.790536249696505 115 79 75
0.6805850554995674 -1.3559322386414472 -13.812173936669708 112 78 72
0.6682920018158915 -1.3723794449726014 -13.833874464445193 120 87 79
0.6554894574025178 -1.3894126432520073 -13.85484289189992 116 79 71
0.6344117175596193 -1.4159550586973717 -13.863775215663008 109 69 60
0.6225998747608719 -1.431848465389332 -13.886161514955083 127 81 70
0.6091122371256352 -1.4496673780511031 -13.906107192288493 125 76 67
0.6139654583502141 -1.4464237009907066 -13.952956300042395 132 87 77
0.5912772973226166 -1.4748102679257515 -13.95943680776163 134 91 76
0.5747588959557381 -1.496109953077232 -13.974941085265247 120 75 55
0.5450435349903908 -1.5325537871719233 -13.970896275063636 105 56 36
0.5346237291849487 -1.5468493695611265 -13.995337915397322 99 47 25
0.5277090033870597 -1.5571252866288807 -14.025015800852914 100 51 27
0.5186197118302727 -1.5698983338971741 -14.051501607549891 120 75 52
0.49646291387852237 -1.5976579015635632 -14.058475334698379 91 53 39
0.4836480133855221 -1.614702988893356 -14.079386403882378 75 35 17
0.47084828759256103 -1.631730849006395 -14.100323132047198 90 49 26
0.45121414436342944 -1.6565909203432296 -14.110954825002612 79 39 16
0.4360451102908298 -1.6763320261842303 -14.128285467135 69 28 8
0.42923591087039936 -1.6864961281969535 -14.158277954446534 89 49 29
0.4288081683655429 -1.6893551139417688 -14.198028996325949 70 31 16
0.4333939107082627 -1.6864800413922412 -14.245533383950493 87 50 39
0.4397222453312457 -1.6816189770993963 -14.295853053937043 82 48 36
0.43471918621664063 -1.689736260906427 -14.328961270835524 89 53 41
0.43482017454079713 -1.6920174077254995 -14.369988471753773 93 55 43
0.4282325533896931 -1.7019569100462286 -14.400815199980013 91 53 38
0.4311642358150878 -1.7010121899866704 -14.446419155544408 93 55 39
0.4299457467018004 -1.704821275768765 -14.485726679107147 95 59 42
0.42689345018845426 -1.7107329181995565 -14.522286584822078 98 62 44
0.4308381069637859 -1.708652380028032 -14.56984503527481 101 64 44
0.42554734208833755 -1.7171341474260018 -14.60311246174279 101 64 43
0.4162944174036718 -1.730146660866125 -14.630237350636014 100 63 43
0.4173636618977752 -1.7313711278819222 -14.673627264170177 102 64 43
0.41380499188625164 -1.7378878673270988 -14.709846496468517 105 66 45
0.41729930726021225 -1.7363572341294402 -14.757302589472166 105 65 43
0.4316684566330875 -1.722422264168376 -14.822147971706993 106 66 43
0.43879210327203166 -1.716770108222338 -14.875718899216018 104 63 40
