ply
format ascii 1.0
element vertex 710
property float x
property float y
property float z
property uchar diffuse_red
property uchar diffuse_green
property uchar diffuse_blue
end_header
0.7141903302062644 2.192495315470714 -12.830436350545043 88 29 11
0.7294534037742499 2.2049819685693475 -12.848469104975575 92 54 43
0.7830610751020055 2.146691840530452 -13.87406301842733 116 72 51
0.8222890254768158 2.185451224232388 -13.857602023294596 122 77 38
0.8462242745341113 2.207348604010317 -13.864062454847446 101 40 9
0.8367524999818681 2.192350561393532 -13.921162452397748 72 13 2
0.8390470603099782 2.1903308710664326 -13.960583338848114 61 10 5
0.8316993336480767 2.1776361450685418 -14.014864246788507 66 11 3
0.8331462349359819 2.174646399476371 -14.055889233748506 79 17 3
0.8447863216324256 2.1829228337532136 -14.081381908685714 103 41 23
0.8625864235146441 2.198015478035458 -14.09741493121373 111 56 40
0.8704174539242855 2.2020670021136013 -14.128852094835661 113 67 54
0.8399358796600866 2.1636499421481297 -14.21982819057569 105 58 47
0.8500070072428274 2.1701486874739064 -14.248122100911885 122 64 47
0.8469385023432503 2.162065512177999 -14.296995160509601 124 62 41
0.8759713067701833 2.189589251727612 -14.295761393227487 127 63 44
0.8775050117608467 2.1865930873394985 -14.337618380245491 118 55 42
0.8494301857020163 2.1506902570289768 -14.426301212263775 110 54 43
0.8260787313523057 2.1199903777339415 -14.507952686244197 106 53 39
0.7935285736222175 2.0498925447515726 -14.878988007277755 125 55 41
0.8557918757731242 2.114443965589367 -14.824299738249135 119 50 40
0.8772236515083183 2.1334670323674993 -14.835585843342265 124 62 45
0.8799339416666987 2.13158743795106 -14.877382079541764 102 57 42
0.8748871922081216 2.121025484940162 -14.932023076625061 56 39 39
0.8733345587205283 2.1143460135752408 -14.981146129861212 54 42 44
0.8587499834104664 2.093070880623012 -15.05193495849496 55 43 45
0.8467477808499115 2.074650974399634 -15.118779191098804 55 43 46
0.9312085219766058 2.164197408057631 -15.025924356275144 54 43 46
0.9412507988289933 2.1654626026577395 -15.103263933512817 54 42 46
0.8465123467203135 2.04912928754705 -15.357110889011068 117 64 48
0.8151229803808322 1.9828712805972781 -15.702290940754104 96 52 43
0.873090586307657 2.042893080311722 -15.652092282288738 87 47 41
0.8335707208264145 1.993147709962935 -15.769450965138372 74 29 21
0.8586158576168206 2.016103624103051 -15.775804540993931 83 26 9
0.8503378475735346 2.0014929138461355 -15.83986618604366 113 52 31
0.8446763311665881 1.9898043960713423 -15.899655666184456 106 65 53
0.8136884858723121 1.9495002893927023 -16.003908621217498 55 41 42
0.7944462133027734 1.9224045715869753 -16.088130891265557 38 37 42
-1.6694490105264794 -0.07057030401143027 -12.577199197475935 113 49 37
-0.7374962496704263 0.8114110472156915 -12.568711959114854 122 47 31
-0.7176544568533547 0.8285511613337455 -12.583734970011971 123 47 31
-0.6973793506586983 0.8461585020458315 -12.598223520758975 122 46 30
-0.10168908598935023 1.4043406926927675 -12.644479275846532 124 43 23
-0.052880997813187225 1.4529155603115562 -12.621904713595477 128 47 27
-0.008122019320618623 1.4971433786230897 -12.604148388027728 128 47 27
0.013463488833094672 1.5163485148407627 -12.61530478652117 125 44 23
0.05498556436385593 1.5571156666091 -12.601266416572287 126 45 24
0.15493263843942362 1.661103032358258 -12.513098753492471 129 49 27
0.18134489875103244 1.685588280388436 -12.517599946863836 130 49 27
0.21082660329917058 1.7134057372373404 -12.518106009772264 127 46 24
0.2287876477531534 1.7287586593998663 -12.53321381893048 126 44 23
0.19719248882265905 1.6904244904455377 -12.61178843900182 128 46 25
0.2237837355264971 1.7151143304508878 -12.615961205958303 129 48 26
0.27182116542839285 1.7630671127489839 -12.59239803337514 128 47 24
0.30067193044682394 1.7902364283839045 -12.593383591106942 130 49 26
0.3185849496722253 1.8055485983467348 -12.608448225812442 126 45 23
0.3463040218609059 1.8315081251277565 -12.610732394273585 126 44 22
0.36524789994649165 1.8479486182550255 -12.62436972815902 126 44 22
0.39287281621421766 1.8738237198475431 -12.626611289223476 126 44 22
0.38734528601905316 1.8636770220223458 -12.672293880334678 125 43 22
0.4203302612594819 1.8953873354821749 -12.667407604548224 123 43 25
0.469493703820536 1.9447115744877768 -12.640995169149953 126 49 33
0.5028280711480191 1.9768406236397649 -12.635288062160765 114 38 24
0.5351204890431185 2.0078514811690273 -12.630816867631959 114 38 23
0.5472195836112284 2.0168851689288703 -12.653141033269257 115 39 25
0.55989575030662 2.02654486205967 -12.674718436568936 121 45 32
0.5635333443705353 2.02635034884563 -12.708448987470762 141 69 54
0.5996523657806803 2.061564581094985 -12.698540526907683 165 95 74
0.623374331604829 2.0832738624343077 -12.705200678814073 163 86 60
0.6461672826608451 2.1039770436378493 -12.713047326827532 148 66 25
0.6825577740345072 2.1395330490491 -12.702348623713634 133 58 7
0.6691388503837024 2.120703598934501 -12.75937753644773 86 29 8
0.6857489477878489 2.1346613108097694 -12.775581013088564 68 13 2
0.697199080421715 2.1429796119637383 -12.798850757271136 105 33 9
0.6902922228196373 2.1312185643259927 -12.847414263561227 102 30 7
0.7106897000149677 2.1493108740239117 -12.858474704784495 89 27 10
0.7313175856825329 2.167660231288033 -12.86917106069494 98 58 46
0.5797076983584359 1.9173919147563128 -13.86188782842607 34 8 2
0.8606938358176341 2.1730636385170152 -13.954462636218473 65 11 5
0.8579294579537597 2.1653527439279108 -14.0017835132061 66 11 4
0.8720283068778389 2.176354508538884 -14.023388122945015 76 16 4
0.8770402058336728 2.1772558435389318 -14.059007052029763 105 43 24
0.8908157591007573 2.1878898475323583 -14.081188311009527 112 56 39
0.8992192885173518 2.1925459434744967 -14.11171708112214 112 66 51
0.88162459479258 2.1682604328733595 -14.182747825860819 105 57 45
0.8925097146094174 2.1756501925156373 -14.209678683670663 123 66 49
0.898815236021357 2.177933078739801 -14.243825644250267 123 63 41
0.9103817289089617 2.186069130131835 -14.269808475602597 130 64 44
0.9037459125674561 2.173904171054131 -14.324500343119556 118 54 42
0.8222954457158238 2.0782532560897984 -14.497611668107146 107 50 38
0.8201423909948184 2.071002682454318 -14.546024469603179 108 53 40
0.8268819964386829 2.054036071401179 -14.762678736768565 69 38 35
0.8411706020953158 2.0601182024030287 -14.83161884051497 127 57 43
0.8421388711233568 2.0562237671889507 -14.876269680728422 118 51 41
0.8449770598035 2.0544085042617164 -14.918030163645847 119 57 42
0.8542780322740331 2.0598268890827907 -14.949358710354907 113 64 46
0.8827112068514493 2.086707054373866 -14.949363594527021 61 41 38
0.9063808128063702 2.1082525102733616 -14.957085047557534 55 42 45
0.9322282727905113 2.1322525977286713 -14.961133209513985 55 43 43
0.8847467040244119 2.0738509220713937 -15.086574364348706 55 43 46
0.9283538965276987 2.1076258560442334 -15.155746142545794 53 42 47
0.8923678890159961 2.0619840297590697 -15.263623798694272 68 45 44
0.9288286010728601 2.097910215460635 -15.250104906606687 118 65 47
0.9200636814906566 2.0620469698034345 -15.50610778533877 108 55 42
0.8545391872498662 1.982731590961687 -15.66734455684955 98 53 42
0.8528626939024022 1.975520874009435 -15.719569834014308 87 47 39
0.8163874778281883 1.9289153989804566 -15.83209979802106 84 40 33
0.8097238303927181 1.9159939618509334 -15.893569974183404 77 21 8
0.8303400779350945 1.933942373600483 -15.90788626158811 117 57 34
0.8459482938004861 1.9462197819695186 -15.930895518329791 96 53 41
0.8794463673707655 1.9787797704569403 -15.922624644827334 42 30 31
0.8129197135893147 1.8978865846122543 -16.089713257352397 37 38 41
0.8672029023329566 1.9540180541966814 -16.045040434084314 36 37 39
-1.6806080695273953 -0.12563058639588398 -12.608766343684138 111 47 35
-1.6313191235276818 -0.07735246232452386 -12.594244089394332 113 49 38
-0.6523195759302505 0.8614374466554002 -12.490001413632921 122 49 32
-0.6383242026584366 0.8723331147843405 -12.51161327757759 124 48 32
-0.6274947327255971 0.8798223556854641 -12.53695272478371 124 48 32
-0.6321792584429669 0.8706164615433281 -12.580581381924127 124 48 32
-0.12141693500436723 1.3508265773780215 -12.613796593850216 124 45 25
-0.0954685254639136 1.3747430143414956 -12.619874268541468 126 45 26
-0.07044897404718498 1.3976615591949981 -12.627031556035991 125 44 25
-0.02775993884136163 1.4397437308477423 -12.61199618074217 125 44 25
0.015212893452395626 1.482156730370149 -12.596393615977583 126 45 26
-0.001945604615709584 1.4593528060041692 -12.656323061632804 126 45 25
0.029648958895117872 1.4894370422260765 -12.654904788509485 127 46 25
0.14307472233638974 1.6083891742926637 -12.54963700568025 126 46 23
0.1788743762846403 1.6431040673181139 -12.542296877992014 126 46 23
0.21685263982400027 1.6802040594346241 -12.532016724419583 127 45 23
0.2683739063288071 1.7320465381130887 -12.504230084450736 125 43 21
0.18846967914787616 1.6409879274014312 -12.644826084015394 125 43 21
0.22155487833064358 1.672777827184512 -12.640721456257252 126 44 22
0.27892443438852155 1.731015038824995 -12.605114486012376 126 44 22
0.28043341158831536 1.7284641775931329 -12.64153326056271 127 45 23
0.3205306908396013 1.7679358056520362 -12.62791973715288 130 48 26
0.34704916440558753 1.792631747316383 -12.631806151263424 126 44 22
0.3801686333503955 1.8245340146823432 -12.626970420073746 127 45 23
0.37209161125525636 1.8115214283127292 -12.676024997258285 127 45 23
0.40279027648092036 1.8407957616970414 -12.674251959927204 124 43 22
0.4375104346867946 1.874473495825855 -12.66704507870264 122 42 23
0.48182580590285173 1.9186465670315864 -12.646974713516851 118 41 23
0.5157262579502113 1.9514681727226915 -12.640496414294397 112 36 21
0.5538593840624175 1.9889325510244347 -12.6282244842511 112 36 22
0.5696553578567194 2.001995499921019 -12.645612922266723 115 39 25
0.5823311965469431 2.011646218103008 -12.667178739045905 124 48 34
0.5935638819438815 2.0197154834492315 -12.690705965211096 134 62 47
0.6037270951910032 2.0266103745846005 -12.715708803437153 165 95 77
0.6334386274619619 2.0549095783982976 -12.714302011641916 164 86 63
0.6600236562406816 2.0797966822883125 -12.7170162040612 157 77 39
0.6837709763571032 2.1015839566874437 -12.723497305008387 137 64 12
0.6907873010618744 2.105032544243484 -12.752757395571923 94 38 10
0.7035414680532543 2.114768194159676 -12.77422501646474 60 10 1
0.7129892300877794 2.12087282875663 -12.800257352148 95 24 5
0.7192858184189963 2.1235122196540424 -12.830683096083138 97 24 2
0.7374168183392023 2.139142716985256 -12.844817878001887 89 24 8
0.7561133807625251 2.1553975304835182 -12.858142319404763 92 50 36
0.7876910746615855 2.185817105930313 -12.853509557954473 69 47 39
0.4735117237203301 1.7998570473490352 -13.66180748963507 41 42 45
0.7191510352834225 2.0164074038256663 -13.809497576191347 81 20 3
0.7240363977244719 2.0078369370295395 -13.930258994664118 77 20 4
0.740524752969316 2.021471875758289 -13.948415065292814 75 15 8
0.7723361088670764 2.052151291835143 -13.943430085519914 113 64 47
0.738259771986761 2.0095259031876944 -14.038086109005363 126 84 46
0.8468946975071097 2.1163217835890213 -14.002520570305277 66 11 5
0.8519041850194755 2.1171752273877544 -14.038131376713817 66 14 6
0.8991606780315351 2.1651417472033234 -14.008843989478871 75 16 5
0.9021683517604888 2.163760701379273 -14.04754915541892 103 41 21
0.9266963440611358 2.1863938319481147 -14.053057337097005 114 58 41
0.9517492177992786 2.2096226205494665 -14.05766479102408 111 65 48
0.92018944300413 2.1695917057327314 -14.150394256030204 107 60 45
0.9345955637416026 2.180905516240955 -14.171740363436088 121 65 48
0.9214819414873565 2.156604538882979 -14.280426335085451 130 63 43
0.9081537305009322 2.13683511110957 -14.345789800669314 119 54 42
0.8672936717536555 2.0861896915275118 -14.45502939486316 109 52 38
0.8638026699841364 2.0773670421472694 -14.505496295570376 110 53 41
0.8701683342973299 2.0646911806810495 -14.676651544347276 103 61 47
0.8776004460112228 2.0680443624270044 -14.71038839805233 66 36 35
0.8853934682419551 2.071793406487828 -14.743631391823726 110 61 49
0.8889482627958376 2.070765999164199 -14.783843008509484 128 58 43
0.8922311678229597 2.069418276247836 -14.824628838406202 119 51 42
0.8924870020272806 2.0646476956478113 -14.870495913538386 110 48 37
0.8962442617168449 2.0638030211677245 -14.910790431147767 120 65 47
0.9124926819585104 2.0770217519573597 -14.930675071390937 79 49 42
0.9353112136439448 2.097648756907269 -14.939722101899404 56 41 46
0.9237407210786666 2.0691991043862483 -15.09974246823728 54 44 48
0.9258541649234227 2.0507855365351775 -15.286540304476638 120 67 47
0.8626515799029724 1.9739754877144708 -15.441526532712977 124 61 45
0.8866080648026857 1.974442809330653 -15.64489288592809 100 54 42
0.8898155346210741 1.9726940371514559 -15.688694385117028 85 48 37
0.8328604908819273 1.8970914951996658 -15.88678262973265 74 20 8
0.8597083623108119 1.9166582638546643 -15.940454762444428 99 53 41
0.8996598934270139 1.9566471561840437 -15.920845129943741 49 34 34
0.8836999464794584 1.9329524067470247 -15.999313817519813 38 37 40
0.8877390337536859 1.932018352646458 -16.042868870172693 36 37 39
0.8885001118476072 1.9273286581849343 -16.092375045761088 37 37 39
-1.6760253917364594 -0.1641116354777301 -12.623544452300784 110 47 35
-1.613941733516087 -0.10204496833564125 -12.595242712210062 112 48 36
-0.6375476090399155 0.8360444643075979 -12.493229605648716 122 49 32
-0.6239447238912161 0.8465069387802568 -12.51532082843147 125 49 33
-0.6103354765166307 0.8569743332946373 -12.537422143407806 127 51 35
-0.11210658811618579 1.3245702785781406 -12.585370359868236 124 46 26
-0.10786338379541327 1.3249350623269196 -12.618408135762767 124 44 25
-0.07336438566668058 1.3581889208173452 -12.613827012830601 125 44 25
-0.027999066487961244 1.4032792398511988 -12.595515031199572 127 46 27
-0.001716664538167656 1.4276288089579756 -12.600902701356434 128 47 28
0.025393045461123975 1.4528882834595978 -12.605166177325739 127 46 27
0.062089268389620145 1.4885983314569193 -12.597242183713146 128 47 27
0.1070171260220718 1.533295367598157 -12.578732222584103 127 46 25
0.13101299630585705 1.5552030585266916 -12.586569080346102 127 47 24
0.16917060982444188 1.5925601847115205 -12.576300418091943 129 48 25
0.1984078672981826 1.6202065972732953 -12.577249117466678 127 45 23
0.2262689974338774 1.6463634555724607 -12.579851629711968 123 41 19
0.28081725581872075 1.701666348578045 -12.548043703578209 122 40 18
0.24784535237655714 1.6614171934195339 -12.628795171918728 124 42 20
0.26992430162540826 1.6812743713055225 -12.638715591219968 125 43 21
0.2872790117952899 1.6959736262955305 -12.654713026902506 126 44 22
0.3264748443024348 1.734558155496316 -12.64226211246515 128 46 24
0.3506251773066351 1.756704915022965 -12.649265046772879 127 47 24
0.3854741457030495 1.790568348609793 -12.642181937308237 125 44 22
0.372973801224453 1.7726082793899245 -12.69715688297444 128 47 24
0.4130206975699853 1.8121790311408166 -12.683096793285312 127 46 24
0.45038155684434766 1.8488290080446026 -12.672385091057524 127 46 25
0.49018718423740326 1.8881792011959284 -12.658248779681823 121 43 24
0.5211637561591536 1.9178691410383069 -12.655656354821193 115 39 22
0.5689979834531296 1.9660690340706384 -12.630434112875346 112 36 22
0.5881558407658449 1.9828234091762762 -12.643332360759622 112 36 22
0.6053594396380153 1.9974355574496405 -12.658821747248613 114 38 24
0.6126013415466751 2.001106232859616 -12.687714291721045 132 59 45
0.6240988827149789 2.0094465259320113 -12.710922333515683 165 95 77
0.648637711736018 2.032122029056012 -12.71648220214282 157 81 56
0.6722578195792459 2.053795787341351 -12.723212007901452 156 80 44
0.6881738702044422 2.066999813419243 -12.740379073255369 134 63 12
0.7121991977514259 2.089132033518663 -12.746442920232795 97 41 11
0.7238651060613948 2.0976604017692893 -12.769396031248178 56 7 2
0.7262324432620786 2.0959398891230365 -12.805182589278846 88 22 5
0.7335735021965166 2.09968983132768 -12.834209092704908 96 23 3
0.7493134978786777 2.1126946536837687 -12.85166564721767 87 19 3
0.7769906439064482 2.1388700869480615 -12.852525443193716 93 47 32
0.7908245856005327 2.1497779412926263 -12.872577611622807 75 50 42
0.7934315647687731 2.0577306103671837 -13.725145669899828 78 16 1
0.7630197186921963 2.014408060956148 -13.855536384717816 123 77 39
0.7788301653461769 2.027307901928457 -13.874543013935842 86 31 10
0.7874778509808733 2.032211407717676 -13.90435124573504 76 17 11
0.796927438733718 2.03800301497495 -13.933014438366392 110 62 42
0.7999021396915822 2.036552624305963 -13.971564474801145 128 86 54
0.8357715541986197 2.0718637339470787 -13.960160132554108 108 50 15
0.8276616147363889 2.058005348052986 -14.015727022065132 75 14 2
0.8875149497898871 2.120174545458169 -13.967405642130053 60 9 3
0.8933738694066182 2.1219404398492987 -14.001638573208872 61 12 2
0.9211637827129033 2.148260752324032 -14.002157041011554 72 13 4
0.8693418013525989 2.0853769874640333 -14.125683843065424 102 37 19
0.9457257465547206 2.1661633701619367 -14.050965447177225 110 53 37
0.9683617051784159 2.186724533214294 -14.059304878430183 111 63 48
0.9316776237250934 2.1407192915605817 -14.16019340611415 108 60 44
0.921829856302641 2.124789177128095 -14.219568516074322 120 67 48
0.9813503923627751 2.1867578695883667 -14.17020640311117 119 60 40
0.9087565278184755 2.100286802359915 -14.328648164280992 132 64 46
0.9059748962648815 2.092220771903385 -14.377587298063386 118 53 41
0.9133810190460521 2.09559553430047 -14.410554890179997 108 51 38
0.9059944332572192 2.0823099431591316 -14.467148254067311 107 51 38
0.9104000071854585 2.0822779983155577 -14.505154564401206 110 56 43
0.9494438579153339 2.0960522444186482 -14.715186248494177 129 63 44
0.9391011752803573 2.0792664084337833 -14.778042595419802 121 52 42
0.9251821906580133 2.058406131772509 -14.84703119118737 110 48 41
0.9348945714760326 2.0642450704384343 -14.877517358052701 122 59 42
0.9297373363715664 2.05324569282007 -14.932576045287504 105 58 45
0.9555764434794956 2.077323511217913 -14.93661959841987 59 40 43
0.9251996711160908 2.000729869122022 -15.36740918936588 123 62 44
0.9385750509378044 1.9943987346647098 -15.539027622619884 110 56 43
0.9109021932338601 1.9519345013026834 -15.685126256143022 85 48 37
0.8741155259057187 1.8989101173816172 -15.848447755996428 71 19 8
0.8871086230950276 1.9081981081820683 -15.87591190704472 115 55 33
0.8879509757226911 1.903588595347455 -15.924700563714289 104 55 41
0.9169396838350705 1.9311574685770498 -15.92422070527145 72 54 50
0.9046482277865877 1.9114920576836818 -15.996365882676383 48 46 47
0.9082737869410415 1.910018319690205 -16.040698808044034 35 36 39
0.9085930569911538 1.9047389734233837 -16.091050874101807 37 37 40
-1.6397826876285948 -0.16877198093299306 -12.604339906114689 110 47 35
-1.5727101529457528 -0.10117808993461441 -12.570526016215755 111 47 35
-1.5465945062555932 -0.07748167658108152 -12.580680213138953 112 48 36
-0.7814170771617794 0.6518320801123805 -12.56676307357327 121 48 31
-0.763745971515033 0.6666421170141916 -12.584520092025402 121 48 31
-0.7353259626764928 0.6930855619454652 -12.589735100669714 121 48 31
-0.62666256942153 0.806409223007007 -12.501020380872792 121 47 30
-0.6195083029735047 0.8098749522494 -12.53071122061731 124 48 32
-0.6357869718617302 0.7879460154991147 -12.588041797025571 123 47 31
-0.5775327147420812 0.8467705437279278 -12.557628951316165 123 47 31
-0.5481334988890003 0.8743444184906135 -12.561073133203724 122 49 32
-0.5152820079964497 0.9056739004427872 -12.560317930382933 122 49 31
-0.09164181074749855 1.3062229140447617 -12.581384772539167 123 45 25
-0.079506954870042 1.3151516599327797 -12.604618658141437 125 45 25
-0.05181059965787593 1.341062212678028 -12.608451978243476 126 45 26
0.007210846391791925 1.4011873595312405 -12.57296148035882 125 44 25
0.02428760146331488 1.4155325230820601 -12.589825576882607 126 45 26
0.05710045425299848 1.447075195586251 -12.586847610546602 129 48 29
0.0998898911840751 1.489539789525268 -12.571122604960149 129 48 27
0.129655174633601 1.5177844003852003 -12.571698054373458 126 45 24
0.11887598470154614 1.50168133152639 -12.623733638749199 127 47 24
0.15963294683854867 1.5419643683569175 -12.61021860786056 131 51 28
0.1886938084779861 1.5694626509026142 -12.611473173500006 126 44 22
0.23463082472654673 1.6154602756177647 -12.590951023090678 125 43 21
0.27144678374239195 1.6514895083004646 -12.58193218835315 124 42 20
0.2903931010773344 1.6679464949624379 -12.595828520410357 124 42 20
0.2839247979051325 1.6565315651461576 -12.642633824678871 125 43 21
0.3100893672792173 1.6809038565132592 -12.647191078229177 125 43 21
0.3378460874662723 1.7070337170470031 -12.649584622972922 127 45 23
0.3669247102751996 1.7346265994547858 -12.650148117700915 127 47 24
0.3744281951199806 1.7385286720559696 -12.678912220505289 126 46 23
0.3951992005960636 1.7570059194163088 -12.690275518834529 135 55 32
0.43156971034760083 1.7926408871018138 -12.680995266048143 131 51 28
0.47135597904238047 1.832052803649133 -12.66701697072261 126 46 24
0.5123680703820233 1.872836515581854 -12.651207258091656 119 42 22
0.5379172075754628 1.8966201036017853 -12.655794526102767 118 42 24
0.573429532626692 1.9313871409770456 -12.646974263809451 114 38 24
0.6076932919517022 1.964797461030436 -12.639658959980437 112 36 22
0.6194266910976616 1.9733888813701723 -12.662497150287528 116 40 26
0.633195954863786 1.9842223151975262 -12.682616384984076 125 52 38
0.6495833619275966 1.997943087249066 -12.69920268250911 160 91 72
0.6535308313612727 1.997933839302871 -12.732673506318836 161 86 61
0.6734415263304001 2.0155416956749397 -12.744491804746648 158 84 50
0.6930063540775451 2.032771993030675 -12.756742402096375 126 56 7
0.7127596261798517 2.05021479598418 -12.768697041626028 102 45 11
0.7402385784885355 2.0762044714590067 -12.76998786225873 57 8 3
0.736875262592696 2.068088233509609 -12.813719799810343 81 19 1
0.7443890399663622 2.0719915932263935 -12.842559512504568 97 25 5
0.7606072793581649 2.0855248805634776 -12.859382297739597 91 22 2
0.7792599523568082 2.101755728596053 -12.872806024401362 92 43 27
0.7644518969126981 2.080910220815745 -12.932940189309516 80 52 44
0.6824101538248208 1.985496533971581 -13.087549162892145 58 47 44
0.7009741255242017 2.0015729998351937 -13.101595591113053 54 47 52
0.7960354101809628 2.0098001362950093 -13.83247934254879 134 87 52
0.812819759100603 2.023798773698161 -13.849951941075453 88 32 12
0.8200406805818128 2.0270779946435793 -13.88186522622093 66 7 3
0.8413775135844368 2.0413454627140855 -13.935452979210115 136 95 68
0.860398423459225 2.0578474389197163 -13.949580129048954 114 56 21
0.8794053273173894 2.074337169666797 -13.963697714612927 75 15 1
0.8951238553829972 2.087135270091509 -13.98283202003602 59 11 6
0.906857076657066 2.095452854013229 -14.008103997631013 61 13 5
0.923166247617007 2.108912945207549 -14.026346852952768 74 15 7
0.8983444029818681 2.0760873886130025 -14.108323544506787 96 31 14
0.90776416414199 2.081769182793784 -14.137468457894473 111 52 38
0.9687548748461445 2.145535504755011 -14.086252613123431 111 63 48
0.922420349464292 2.088396658625947 -14.2024940487193 110 61 44
0.9299298668107836 2.09190063416282 -14.234849546738296 120 68 50
0.9666239546712214 2.128318776594801 -14.221341232492986 119 60 41
0.9227102102000604 2.0737799541148707 -14.334935551885327 130 61 44
0.9479561088658963 2.0872117476566894 -14.429018907266041 104 48 35
0.9745219598601507 2.1121990143177047 -14.431501170391858 105 51 38
1.0006444597428175 2.1366966641633534 -14.434587748293293 107 52 40
0.9896765687964919 2.119216120071072 -14.497277468990212 110 58 40
0.9818553700202832 2.084709044062433 -14.738003575044875 124 54 39
0.9697838627137445 2.0658136684425585 -14.803941091693998 109 50 42
0.9639616018106789 2.0539851806447995 -14.85988863455901 115 52 35
0.9528423198160381 2.0361090906872965 -14.924815538449296 120 65 46
0.974056540746604 2.054975226414128 -14.936469176407421 66 42 36
0.9508504441697001 1.9857644576058417 -15.355694489360957 120 62 42
0.8944995877980348 1.915923853304526 -15.50017528382082 115 60 44
0.8629712423079603 1.8743758068174081 -15.602998047899021 124 65 42
0.8872177465345752 1.8910323817912795 -15.65994956063703 111 57 44
0.9505231900991387 1.9579697903017301 -15.600111024641269 101 55 43
0.95337546311492 1.9556915862949724 -15.644496792821634 92 55 44
0.8997250403684394 1.8829925827258718 -15.837238877047325 73 20 11
0.9078829880748014 1.8867138095101375 -15.873146877607766 113 52 31
0.9154558378044442 1.8897518674279388 -15.910181570227207 106 55 39
0.9297211107845067 1.900467958796514 -15.935539715954608 86 65 57
0.9255939267774806 1.8900345091875073 -15.993418195232824 43 40 41
0.9285947202079772 1.887773559750677 -16.03890673335491 36 37 41
0.928686830576285 1.882146567065508 -16.08972799485699 37 36 41
-1.612724938679274 -0.18758387969677326 -12.63349414596427 112 48 36
-1.6100686119809744 -0.1891299912841351 -12.66925405741923 113 49 37
-0.7775169142858473 0.6141387893514398 -12.582809585538579 122 47 31
-0.7571340259726647 0.6318926059700809 -12.597462678782577 124 48 31
-0.7250160769806309 0.6623958584433138 -12.598381511838161 122 48 29
-0.691476276321012 0.6944572688863229 -12.597518731392729 122 46 29
-0.6566051417803132 0.7279802860338442 -12.594964570308395 122 46 30
-0.6264787309687585 0.7563595678422965 -12.59786592040387 124 48 32
-0.5539509777710663 0.8308754265898752 -12.550527829438689 124 48 32
-0.5324384465204766 0.8499221686910277 -12.563283204454379 124 48 32
-0.5093434693744872 0.8706962949757351 -12.574115052489873 124 48 32
-0.05760816675781433 1.3027440401722545 -12.560527136982905 125 46 29
-0.0317158373108235 1.3267315634583197 -12.566556978637283 123 44 27
-0.017693189730024095 1.3377238364278137 -12.587351740868232 125 46 28
0.019038395854257484 1.3736045822246616 -12.57966944248369 127 46 25
0.0510214698883229 1.4042975091789929 -12.577797607292649 125 44 23
0.08586694128819694 1.4381449911355002 -12.572183429148245 126 45 24
0.11252174437210494 1.4630215038777283 -12.576789374817729 127 46 25
0.16290119537409842 1.513953791598528 -12.551170038400858 125 44 23
0.17693138980413803 1.524995707300845 -12.57159251116516 125 44 23
0.18751615869455796 1.532250698240234 -12.596430426464526 126 45 24
0.22599471509084257 1.5701619973210077 -12.585540869109717 126 46 21
0.24070338045924622 1.5819556864459434 -12.605040756693203 127 46 22
0.2747269855500214 1.6149972976721916 -12.599625146561667 127 45 21
0.3068196068865783 1.6459308195549704 -12.596558867442072 124 42 18
0.3072391884954597 1.6420067014297333 -12.634479821952429 124 42 18
0.33184933187259835 1.6647145254724949 -12.641016488155465 123 41 17
0.3532593459331874 1.6839044906222718 -12.651659005307366 125 43 19
0.38516435536986426 1.714670013679747 -12.6484980715969 126 46 23
0.3827249290906658 1.7075727776957006 -12.6903524920533 127 47 24
0.4118317429431446 1.7352657547190224 -12.690751263690998 130 50 27
0.44209262867070853 1.7642455482730988 -12.68951006043225 127 48 25
0.48450264525497655 1.8066557326925015 -12.67202331815215 125 44 24
0.5266667941727743 1.8488199287418263 -12.654639003473296 122 41 24
0.557313838378922 1.8782803619497246 -12.652409997200007 120 43 26
0.5799042453609893 1.8988470297089073 -12.660844226616096 112 38 23
0.6258013799542814 1.945202791752768 -12.637899117872845 110 36 21
0.6430554463760294 1.9598891269285477 -12.653304244924414 118 41 27
0.6595146671836765 1.9736974585278486 -12.669766369251347 128 52 37
0.6804433996918893 1.9924577093681797 -12.68015507335075 157 87 71
0.6739272600954371 1.9808109610116769 -12.72783670102897 162 88 65
0.6869362447920366 1.9907891119553032 -12.74905341403787 164 92 58
0.7190608317814688 2.02196641883996 -12.744116314822023 140 71 22
0.7355559044391797 2.035817845269595 -12.760500137319259 111 52 14
0.7489195615950344 2.0461944468519624 -12.781186690460416 61 9 3
0.7556634319877689 2.0492174847390907 -12.811037695062101 82 20 4
0.7479259602029233 2.036142357211141 -12.861038654700302 106 33 6
0.7730939646754229 2.059621287179723 -12.865475177448413 94 24 3
0.7490265334593147 2.028356960053035 -12.938514240074955 91 39 25
0.7395080496694937 2.013240129676518 -12.991535735575944 87 55 45
0.7328770237442477 2.001312423228347 -13.040721167657837 58 47 45
0.746065526073147 2.0114331352987227 -13.062187973133888 53 49 48
0.7108164517825757 1.9675885679241176 -13.152102726992043 50 48 52
0.7674268553044588 1.960298954005161 -13.689161468280844 36 8 3
0.883866825464172 2.0717908671758423 -13.6845484257237 109 47 20
0.8880515910688151 2.0716707661469984 -13.720576464972357 127 83 50
0.8730494624430376 2.049951555462699 -13.7856700503747 87 32 12
0.8459184034985707 2.014546433845452 -13.869418896812654 66 11 5
0.8914475811784861 2.056031803109165 -13.886111542497973 136 95 67
0.9029843203918313 2.0641292722370634 -13.911517207346698 117 61 24
0.90589307029627 2.0624913133350073 -13.950192275471377 80 19 2
0.9321058698651061 2.0871346807984237 -13.953148783044348 61 11 5
0.918435926804456 2.06676503904829 -14.017540669321598 60 14 7
0.9348620364709728 2.080355518685737 -14.035636609211576 69 14 7
0.9245028671938407 2.0636781956064567 -14.095317370982547 98 32 15
0.916548012769959 2.0496897946528234 -14.151510869287758 110 53 38
0.9762208362994755 2.112172751958484 -14.102263620492911 110 63 48
0.944728527410251 2.0715306495211667 -14.195490670068008 112 63 49
0.9346737738406938 2.0551085737403145 -14.255477127491513 118 66 49
0.9774706215387381 2.098530924981138 -14.23234674758508 117 61 41
0.9223560256545369 2.0259023917438173 -14.408666013576031 116 52 41
0.9099277890483686 2.0066783293900654 -14.473388982999197 110 50 38
0.9926982740734624 2.095488086614367 -14.386299455881137 107 49 38
0.9636389004362149 2.0573643641239414 -14.477774083994715 108 49 39
1.00390580892494 2.061514852176294 -14.777910890658887 112 51 41
0.9913322689612727 2.041883366324866 -14.844992542736426 109 51 36
0.9987762847256958 2.0450706480313343 -14.87925470296971 125 65 43
0.9712766468118241 2.0083319898453897 -14.971618122182974 90 55 41
0.9392700615426941 1.939174771068437 -15.310622620295728 79 47 41
0.9607410480528848 1.947244536744761 -15.419298098367946 114 59 43
0.978019841194202 1.9391544219115762 -15.634657763272465 91 51 41
0.9293863185091178 1.8717977729586215 -15.818909443369153 70 19 7
0.9384575541202906 1.8765329149699168 -15.853196693076574 106 47 27
0.9387757899070124 1.8711608709462633 -15.90296884508054 106 53 39
0.951894283787234 1.8805411549229918 -15.93034404802436 83 59 55
0.9186188040486272 1.8363385468025566 -16.039893385737123 42 38 42
0.9145664297113543 1.825837388888452 -16.098119526413235 36 36 42
0.902530772364103 1.8060785175239635 -16.17081376947926 37 36 42
-1.6901643420429444 -0.3103707960555129 -12.698277425157261 108 46 35
-1.6357926048667681 -0.2561461187229961 -12.678336437956823 112 48 35
-1.558971159216414 -0.177638308121284 -12.633778059571661 113 50 36
-0.7841442547469475 0.5692938103512244 -12.57276416615045 120 47 32
-0.7637209901355213 0.5871023648479277 -12.58741268702217 121 46 31
-0.7274640608068932 0.6221685167145985 -12.58356706107867 120 47 30
-0.6972550263879294 0.650658564348138 -12.586649892540267 119 47 29
-0.661839824346206 0.6848380570654689 -12.583521314561825 123 47 30
-0.6265552586257899 0.7188913465816817 -12.580405358645447 124 48 32
-0.5500632250637363 0.7979347816183786 -12.528493141417957 124 48 32
-0.5371694766698778 0.8075913805206527 -12.551463238491934 124 48 32
-0.5152140248553185 0.8271430018361912 -12.563689921675294 123 47 31
-0.47302093727916183 0.8688130636810536 -12.5517524238258 123 47 30
-0.32145831084736853 1.0124664596117388 -12.561033527370366 123 46 28
-0.12664375270749328 1.1994686526003973 -12.552602118190656 125 48 28
-0.10220252196668067 1.2218733908425365 -12.560681594398893 123 46 26
-0.08037160133533039 1.2414188147372247 -12.571933304523842 127 48 31
-0.05222372455698032 1.2679110422501143 -12.57527243798436 128 49 32
-0.042374238195360014 1.274299348971418 -12.601368054532951 125 46 29
-0.04122112596029037 1.2711187003753723 -12.63840416110218 125 46 28
-0.005285072813323133 1.3061927109427591 -12.631840246508126 126 45 25
0.025222731446558733 1.335310549031079 -12.63196056421064 126 45 25
0.0979431735542331 1.4109221864467463 -12.57858069040823 126 45 25
0.12723533934390163 1.4387473546732812 -12.579841589963692 126 45 24
0.16249472015042832 1.4731610872007375 -12.573399870904035 126 45 24
0.2109336647750193 1.522123105314833 -12.54997705783943 126 45 24
0.23127224260078716 1.5401226478765384 -12.562274097799335 128 47 26
0.2489286326167095 1.5551672102666352 -12.577977176170863 126 46 23
0.2706566724258366 1.574708386894315 -12.588415868457204 127 46 24
0.30688020476996325 1.610263227564971 -12.580067355530483 126 44 22
0.31921795077010184 1.6194486009161881 -12.602521076436684 121 39 17
0.3103428060545861 1.6051852548835939 -12.652590343573811 124 42 19
0.3469403599751528 1.641179862348272 -12.643527226560913 125 43 21
0.3770539703702136 1.6700218722016809 -12.6427775038896 126 44 21
0.4076307084927149 1.6993903634113918 -12.641299099222007 126 46 23
0.40996811660656896 1.6975079584906734 -12.676887534143312 127 47 24
0.42997600344670905 1.7151855623325636 -12.689237887501298 127 47 24
0.45209026237785377 1.7352017052475794 -12.698758255528139 127 47 25
0.4888538616786793 1.7714644620901439 -12.688747181187363 125 44 24
0.5287052204583889 1.8111723908505866 -12.674439892140978 121 40 22
0.5677406661284672 1.8499987266380042 -12.661019044940232 117 40 24
0.5839977270087355 1.863563182437777 -12.677966774240263 113 36 22
0.640946766639872 1.9223181387147403 -12.640127480043242 114 38 24
0.6463601842501614 1.923857012771462 -12.671529318161788 118 42 26
0.6704012106752306 1.946090995538511 -12.677780255852992 126 50 35
0.6760310623556633 1.9478605687458064 -12.708974263150212 149 79 64
0.6975337637177925 1.9672790887593887 -12.718612697553962 161 87 67
0.71935519824072 1.9870586088141597 -12.727761180512136 166 93 61
0.7415030907036986 2.0072082357892116 -12.73640474338643 149 80 29
0.7672276587621023 2.0313491497914242 -12.740066584397812 120 61 21
0.7837397992845614 2.045233622657914 -12.756353101774597 59 7 1
0.7997128889287 2.0585184589493903 -12.773373980457363 80 17 6
0.7924681817274561 2.0459052264972 -12.82263694255924 107 33 7
0.8400694467361585 2.0944765335296327 -12.795674777915895 99 26 4
0.7856611794119677 2.0291882964816756 -12.911011176063845 91 36 22
0.7769427769925659 2.014864842035456 -12.962894997107494 90 54 44
0.7711286471786809 2.003762536936268 -13.010904814518296 58 44 43
0.7708300976265083 1.9988051941725544 -13.05131873596646 53 48 48
0.7443113902869243 1.9645038552519214 -13.128982849176833 50 48 51
0.9313400229285467 2.07429789917711 -13.724074672002235 91 36 12
0.9046958124522844 2.039265750334015 -13.807023508395712 67 12 6
0.8931608436266298 2.021272551436974 -13.867385992217574 93 39 26
0.9020465133366953 2.026352534694336 -13.896837541047438 133 94 67
0.9058362283534356 2.025656511358779 -13.934159551632465 117 64 27
0.9217754548783574 2.038706397667437 -13.952932995040834 82 21 2
0.9425545657609105 2.0572403620341833 -13.96424604681496 62 10 4
0.9438871907333892 2.0537348239292372 -14.005575075216983 58 10 3
0.9505270366938783 2.0562323371304396 -14.038814737227918 69 14 7
0.9625242314575813 2.064798761647946 -14.06380939587557 96 30 12
0.9475302610211465 2.042716686896904 -14.130969662948132 106 49 34
0.948747498262005 2.039013780432165 -14.173052822387081 109 62 47
0.9398179242813649 2.02376226347572 -14.231219966197123 113 64 50
0.946366730110423 2.026081988968458 -14.265245493043038 119 67 50
0.9675909138732877 2.045086185274947 -14.276167280738917 117 61 41
0.9353588354022744 2.0032511316435375 -14.371805988746303 128 63 45
0.931863499411878 1.9940855175513583 -14.422216231237432 118 52 41
0.9167830417554566 1.9716969493453629 -14.491313242239293 113 51 39
1.0310048427409564 2.096674341413671 -14.35371656441421 107 50 38
0.9924302962063996 2.047491808149978 -14.46052288189474 107 48 37
1.0644575076895597 2.0822932999482244 -14.75441515543713 107 50 37
1.0255752528289461 2.0323522426802496 -14.8652409720786 119 59 41
0.9843175075734729 1.9796182964284323 -14.980603978930287 109 63 49
1.0127324618585565 2.0067856854495485 -14.980309084005283 61 43 43
0.928750364360277 1.8938183071119665 -15.263790245224754 53 44 46
0.9576584517061297 1.9159393958694784 -15.311217724015892 80 47 40
1.0214665993847536 1.983830955817524 -15.251002572714057 126 67 46
0.9509758481798753 1.8513568633893458 -15.814645414729966 70 21 11
0.9565217539152195 1.8519699850409514 -15.855149089445346 100 42 23
0.9596924621210734 1.8498159866821284 -15.89996947789092 107 53 37
0.9685648149908799 1.8542538688580574 -15.934865055008467 75 49 42
0.9088870037095287 1.7791626818834327 -16.09147022813031 44 40 43
0.9320245788429915 1.8000904509110622 -16.101557443946362 36 37 42
0.9882686774145499 1.8594739223190286 -16.052459105068984 37 36 42
-1.6084604461340613 -0.2704161854911087 -12.668714741699361 111 47 34
-1.5093419686045602 -0.1675012218370462 -12.599789651233046 112 49 35
-0.7413473485416473 0.5738924063952098 -12.54371285356298 120 47 32
-0.7209328844589513 0.5917180418592922 -12.558278340905616 119 46 32
-0.7017272939957886 0.6082251399936283 -12.57422508873849 134 67 50
-0.6690902275122088 0.6394305830968872 -12.574411829307762 127 59 42
-0.6316117081720121 0.6759494140670972 -12.5687873653103 123 48 32
-0.5973438251737013 0.7089710111630403 -12.56679163938377 123 47 31
-0.5646182068844805 0.7403188658733715 -12.566486178765096 123 47 31
-0.5187565116725725 0.786076366465708 -12.550472414808418 123 47 31
-0.4923327850465764 0.8105501501931052 -12.557371764233986 123 46 30
-0.4632618729264908 0.8379362455985913 -12.561033247953493 123 46 29
-0.4157839859324044 0.8855292230767589 -12.542552745878762 123 46 27
-0.1040132106543794 1.1834292021830803 -12.546000352256264 125 48 28
-0.07946663463251014 1.2059878862544133 -12.553915349822447 124 47 27
-0.054946132358539845 1.2285258692770649 -12.561794114018898 126 47 29
-0.035385437464486635 1.2456013569094058 -12.575790106840916 126 47 30
-0.010187372901244274 1.2689008771092603 -12.582702623595054 125 46 29
-0.031146529866049377 1.2412564949543157 -12.647469738046574 125 45 28
-0.00922849038133755 1.2609300128533523 -12.658543230341497 126 45 27
0.010701084486427703 1.2784123843977193 -12.672078995883936 125 44 26
0.10653215669697902 1.379790968162677 -12.58942470310068 126 45 27
0.13801436682680723 1.410090720853984 -12.587911043392884 126 45 25
0.1724502328423525 1.4436726811290823 -12.582505380118718 125 44 23
0.20738781728387679 1.4778275619900718 -12.576307263187413 126 45 24
0.23923846354972378 1.5085829886804172 -12.573913446087753 127 46 25
0.26366960564830677 1.5311358694112691 -12.580935553458875 126 45 24
0.29119419164679705 1.557125048185859 -12.58389209976605 126 45 23
0.31943547037190934 1.5839201853467637 -12.585822832619803 125 43 21
0.33600226455611093 1.5977800770119988 -12.60281389773206 124 42 21
0.3539694757119509 1.6131948755485181 -12.617970622790262 128 46 25
0.35881436210534057 1.61404645880289 -12.650258271672412 127 45 24
0.40171814883151535 1.6571512942050308 -12.632730155503005 126 44 23
0.42463184977353485 1.6780745477825922 -12.641268770890157 128 48 25
0.4308832684839454 1.680486026412514 -12.671729440734211 127 47 24
0.45015842662975203 1.6973700725832446 -12.685027793131857 124 44 21
0.4715697689749918 1.7166342372726442 -12.695457436623922 129 50 27
0.49730766673905924 1.7407193200272104 -12.700074280290089 128 47 27
0.5287414349628916 1.771156277351655 -12.696994425543014 117 36 19
0.5725592324957152 1.8154033303338561 -12.677182242428351 115 37 21
0.5827264846622091 1.8221793688346368 -12.702370884389287 114 37 23
0.6455360945780866 1.8876394013813331 -12.656606721835939 114 38 23
0.6329251464333532 1.8690256034041868 -12.712474574885535 116 41 25
0.6367970377895098 1.8687766343378902 -12.746209227511901 122 46 31
0.6711511693165493 1.9025453527392036 -12.738542746592007 148 75 62
0.7039660474452814 1.934614089429263 -12.732815005292348 159 86 69
0.7357134329621631 1.9655077458210872 -12.728398703114745 163 87 59
0.7654062711588461 1.9941214035318722 -12.726663313896282 144 73 26
0.7897959703539681 2.0168189029291637 -12.732113105377168 122 62 21
0.8081497623614666 2.0327723646947433 -12.745829692907225 61 10 2
0.8154012781008135 2.0363013896062125 -12.774919618126651 81 19 8
0.8219393971431619 2.039023451306209 -12.805070839513075 105 32 7
0.8484624332976565 2.0641280106189654 -12.807398796760125 102 29 4
0.8255060732175932 2.0337816153882367 -12.878915867534971 93 36 21
0.819090228932676 2.0219451178344614 -12.927532795123842 96 57 44
0.809075190060526 2.0060480967168868 -12.981412582669913 62 45 44
0.8107662222171323 2.003264657833265 -13.018968234318155 53 47 49
0.7912508465449299 1.976652267594118 -13.086716864424096 49 48 50
0.759582220411009 1.9363489959025957 -13.172064704058648 48 48 50
0.9456148788651291 2.0490824564839025 -13.728933582357126 98 43 16
0.9266196694522986 2.022531567651324 -13.800404106242038 65 10 4
0.9159912583230492 2.0054420894084677 -13.859451061820359 79 23 14
0.9259122730082181 2.011668368289267 -13.887320292119941 122 81 56
0.9463747039566206 2.029869809989279 -13.899070776506509 118 67 29
0.9655309802733969 2.046591249139201 -13.912786033911239 86 24 4
0.9544362319797743 2.0288974793795713 -13.973181973180793 68 14 7
0.9607796966290083 2.031023783524227 -14.006827391861023 63 14 6
0.9857063097687835 2.0491909187931796 -14.055316386523366 89 24 6
1.0014140843347876 2.0619676569635823 -14.074536498568946 107 50 35
1.0107997836425948 2.067532808118365 -14.103676532276957 110 63 48
1.0045141917605163 2.055205349351235 -14.15754602513777 115 66 52
1.0054574574533897 2.051106185629971 -14.2002234392382 120 69 52
0.993712613224023 2.0324940065096175 -14.263148391085604 116 61 41
0.9930323003021666 2.026496232800035 -14.308770926770762 127 64 44
1.0157461281829931 2.0472328611648978 -14.317270168825956 120 53 42
0.9462932940096449 1.962518381488148 -14.47308936137646 116 51 39
0.9461847019911929 1.9570884103730828 -14.518534616627939 108 50 38
1.0255457718737322 2.0426651389085704 -14.436249482295072 108 48 38
1.08469745360056 2.0623664056678184 -14.75106335786804 108 52 41
1.0379232285191202 2.003065361336936 -14.875188912225376 112 55 40
1.0024711422650299 1.9567306361084125 -14.981112428998825 121 68 48
1.0250130839411904 1.977186413166451 -14.990604777854248 75 48 40
1.0358854164250557 1.9841898522040058 -15.019609408442726 52 43 49
0.968350772477458 1.8950853122629647 -15.22854744910284 54 44 46
0.9844849182623108 1.9080899594381862 -15.249303817426933 54 43 46
0.9876273244973106 1.9060759320390845 -15.292143468006632 83 48 39
0.992945790590416 1.8663183882768086 -15.674799133912762 93 50 40
0.9865236017028636 1.8530197661885541 -15.735839996809165 86 48 41
0.9814187893779636 1.8412216654347153 -15.794832624336827 72 25 16
0.9719931660189172 1.8243683906024524 -15.861683763430356 92 35 17
0.9665899425481772 1.8121612254116295 -15.921730534523082 108 52 33
1.0222790456046376 1.871066433960224 -15.873763961401504 79 50 39
0.9900554458212589 1.8275894675839073 -15.981660857936141 44 40 41
1.0020705751101868 1.8356220102339167 -16.011214397850942 37 38 43
1.026181739500057 1.8577581779918466 -16.01917984032976 37 36 42
-1.5776482889961976 -0.2808466933492779 -12.655291058297806 109 46 33
-1.470256850507627 -0.16860942490772146 -12.577177686656318 111 48 35
-0.7033653401178119 0.5733969194022137 -12.52016853052071 120 47 32
-0.6783870141914914 0.5962553271554061 -12.529334576390102 119 46 32
-0.670784246246082 0.6000481207345896 -12.558766273987064 123 54 37
-0.6275317905948112 0.6429818901814857 -12.546418489374593 120 51 34
-0.6144460584334048 0.6527988045048261 -12.569389161058421 123 49 33
-0.5722760643142886 0.6945771362444768 -12.558031880599987 123 47 31
-0.579267796530694 0.6823272269804272 -12.604726779291383 122 46 30
-0.505535522499927 0.7588449885549089 -12.555654953705615 122 46 30
-0.48698005026687996 0.7747005522869763 -12.57193556192491 121 45 29
-0.4549468265576371 0.8053944110775717 -12.57207899438017 122 46 29
-0.4228093002646096 0.8362173686247001 -12.571977437758246 123 47 28
-0.12712320977068536 1.121407401694431 -12.55758354733309 124 47 28
-0.10537497400577145 1.1408924290416653 -12.56907834564605 124 47 28
-0.07756284923486811 1.1670909323659533 -12.572997435520628 124 47 28
-0.04549171252817841 1.1980139314427918 -12.571517873288586 125 46 29
-0.024221705772178304 1.216993777376489 -12.58340575524462 128 49 32
0.002088954042273272 1.2415618499877565 -12.588932296840952 129 50 33
-0.013051071530578717 1.220209717689265 -12.646489317913272 125 45 28
0.00040643049475797 1.2305301249717298 -12.668221904336697 126 46 29
0.014393965230566685 1.2414362335708997 -12.68930166164851 124 44 27
0.11349331949857078 1.3467701162477264 -12.602379300865318 127 47 30
0.1468175846238977 1.379175916485968 -12.598530798618015 130 51 31
0.1741892787355086 1.4049886780915672 -12.602142550890726 125 45 23
0.20943424775161645 1.4395590690946864 -12.595573460799894 125 44 23
0.2459613990977889 1.4755732467599572 -12.587198358396002 125 44 23
0.2725781133315839 1.5005886167665663 -12.591429509656148 126 44 23
0.3001170364903585 1.5266404957277544 -12.594377966953903 125 43 22
0.3348069531476585 1.5606617371530778 -12.587952070594536 122 40 19
0.35279173327792224 1.5761038376326875 -12.603107390606963 121 39 18
0.37450836218837136 1.5957049096668454 -12.613370189177358 125 43 22
0.3742974722129411 1.5908790378730684 -12.652294040003683 126 44 23
0.41931714202501125 1.6364589136597436 -12.631933305154867 125 43 22
0.4227841172671556 1.6357264009178936 -12.666081290858845 126 45 23
0.4609251762622999 1.6736692888950735 -12.654495220502321 127 46 24
0.4732411355827173 1.6828079277381507 -12.676963137390539 126 45 23
0.4945400745545432 1.7019750661042652 -12.687507832307016 126 46 23
0.5227996015421392 1.7289246013390942 -12.688715382902938 122 41 21
0.5435324651297875 1.7474743356396223 -12.699888897032125 122 42 24
0.581933802286692 1.7857866164481715 -12.687293811535856 118 41 24
0.6074944825517035 1.8097570005710804 -12.69179893692187 115 38 21
0.6538804948950392 1.8570458026960064 -12.668079393529617 113 37 20
0.6457196054227134 1.843288669049631 -12.718026554162208 115 40 24
0.6661398697825569 1.8615252931813586 -12.72931300048472 117 40 26
0.6851129481943428 1.8781452695584155 -12.742528946317194 150 76 63
0.7182632898912562 1.9106652317939674 -12.736315677974883 168 97 80
0.7487995635958669 1.940271172380375 -12.733535937637342 166 90 63
0.7773558754837122 1.9676708001083 -12.73334975488201 139 66 23
0.8037891968104485 1.9927005490916772 -12.735979722414761 120 61 20
0.8382193999629095 2.0267248318930102 -12.727432114318063 65 14 4
0.8415258553849396 2.025791758248734 -12.761972962162458 82 20 7
0.8284528019024715 2.006430384311283 -12.819453287112403 104 33 8
0.854541526300121 2.0310910024753244 -12.822409540078153 99 29 3
0.852525948291937 2.0241350525069426 -12.864699785852668 92 35 18
0.8542700898845168 2.0213941804917424 -12.901850127658488 95 55 41
0.8498782186648994 2.0117273760447723 -12.947782611884953 75 56 52
0.8468598868550616 2.003587799632654 -12.991943973678515 51 45 46
0.8378953368292246 1.9887245806051208 -13.04471633341985 48 47 49
0.9761734624564422 2.0322380541609997 -13.794426177590001 85 27 17
0.9488610127387025 1.9959855759060225 -13.879177840160745 129 87 63
0.9664630685575553 2.0109468925804856 -13.895291659981059 114 65 28
0.9846626481379896 2.0265926931719296 -13.91046577353762 87 25 5
1.000033753506969 2.0390097596102237 -13.92999233721772 65 11 4
0.9650483121459965 1.9938635525395938 -14.02768703150555 62 14 4
1.0280628815949475 2.0555649471431465 -14.016843703520404 87 22 6
