ply
format ascii 1.0
element vertex 833
property float x
property float y
property float z
property float nx
property float ny
property float nz
property uchar diffuse_red
property uchar diffuse_green
property uchar diffuse_blue
property uchar class
property uchar detection
end_header
-3.5387 0.6715 -14.2405 -0.439 -0.898 0.017 119 73 54 0 0
-3.9659 0.6578 -16.1790 -0.967 0.233 0.107 24 13 14 0 0
-4.0456 0.6440 -16.3224 -0.548 0.062 0.834 20 6 6 0 0
-4.0738 0.6371 -16.3346 -0.760 0.288 0.583 24 8 8 0 0
-4.1168 0.6278 -16.3771 -0.565 0.012 0.825 34 13 12 0 0
-4.2661 0.5931 -16.4762 -0.762 -0.063 0.644 39 15 14 0 0
-3.0819 0.7333 -12.5220 -0.303 -0.283 0.910 116 42 25 0 0
-3.4555 0.6321 -12.4996 0.047 -0.211 0.976 147 67 40 0 0
-3.4946 0.6379 -12.8088 -0.794 -0.507 0.335 106 69 59 0 0
-3.1783 0.7677 -13.6645 -0.055 0.295 0.954 34 7 3 0 0
-3.3250 0.7312 -13.7162 0.122 0.006 0.993 46 8 6 0 0
-3.4532 0.7028 -13.8289 -0.767 -0.512 0.386 86 44 35 0 0
-3.4906 0.6951 -13.8722 -0.488 -0.445 0.751 143 93 70 0 0
-3.5340 0.6854 -13.9089 -0.341 -0.259 0.904 107 49 30 0 0
-3.5653 0.6864 -14.0875 -0.549 -0.829 0.110 112 69 57 0 0
-3.5959 0.6787 -14.0959 -0.457 -0.889 -0.032 113 76 65 0 0
-3.5922 0.6822 -14.1432 -0.408 -0.913 0.010 112 70 59 0 0
-3.5407 0.7013 -14.2451 -0.814 -0.578 -0.050 123 78 63 0 0
-3.5564 0.6985 -14.2707 -0.781 -0.621 -0.075 115 68 50 0 0
-3.5584 0.7001 -14.3121 -0.722 -0.672 -0.165 132 78 61 0 0
-3.5439 0.7095 -14.4165 -0.731 -0.673 -0.106 111 63 51 0 0
-4.2318 0.5673 -15.2128 -0.951 -0.241 -0.195 61 56 57 0 0
-4.0213 0.6531 -15.7706 -0.351 -0.571 0.742 27 17 15 0 0
-4.0649 0.6410 -15.7621 -0.860 -0.276 0.429 27 15 14 0 0
-4.0791 0.6388 -15.7920 -0.860 -0.276 0.429 25 13 11 0 0
-3.9734 0.6874 -16.1776 -0.872 -0.475 -0.118 34 23 23 0 0
-4.0024 0.6855 -16.2888 -0.615 0.297 0.730 16 5 4 0 0
-4.2631 0.6290 -16.5404 -0.676 -0.448 0.585 40 17 15 0 0
-4.2958 0.6397 -16.9090 -0.595 -0.789 -0.150 118 111 110 0 0
-4.8376 0.4974 -16.9611 0.118 -0.477 0.871 188 189 191 0 0
-4.9644 0.4618 -16.9296 0.006 -0.679 0.734 192 192 194 0 0
-5.0062 0.4500 -16.9193 0.322 -0.600 0.732 193 193 195 0 0
-3.5092 0.6622 -12.7997 -0.775 -0.556 0.299 103 61 49 0 0
-3.4210 0.7322 -13.6607 -0.639 -0.728 0.249 60 10 1 0 0
-3.5279 0.7152 -13.8798 -0.347 -0.263 0.900 141 97 70 0 0
-3.5476 0.7110 -13.9004 -0.280 -0.175 0.944 117 64 41 0 0
-3.5557 0.7107 -13.9339 -0.611 -0.634 0.475 93 44 31 0 0
-3.6133 0.7009 -14.0402 -0.505 -0.705 0.498 112 63 51 0 0
-3.6387 0.6948 -14.0543 -0.674 -0.722 0.157 112 67 57 0 0
-3.6327 0.6992 -14.1042 -0.782 -0.623 -0.003 114 74 64 0 0
-3.5813 0.7208 -14.2492 -0.943 -0.275 -0.186 126 78 60 0 0
-3.5875 0.7281 -14.4172 -0.476 -0.879 0.005 109 65 52 0 0
-3.5890 0.7300 -14.4596 -0.522 -0.849 -0.079 111 69 57 0 0
-4.0449 0.6312 -14.9015 0.644 0.004 0.765 83 25 11 0 0
-4.1316 0.6872 -16.3745 -0.604 -0.096 0.791 25 8 7 0 0
-4.1832 0.6749 -16.4050 -0.627 -0.039 0.778 34 13 10 0 0
-4.2041 0.6705 -16.4271 -0.832 -0.156 0.532 41 16 13 0 0
-4.2159 0.6692 -16.4616 -0.474 -0.302 0.827 47 19 16 0 0
-4.2758 0.6541 -16.4805 -0.752 0.039 0.658 47 20 17 0 0
-4.3319 0.6598 -16.8666 -0.596 -0.769 -0.233 96 83 83 0 0
-3.0070 0.8094 -12.4905 -0.171 -0.283 0.944 119 46 29 0 0
-3.2740 0.8037 -13.7003 -0.405 0.239 0.882 31 8 2 0 0
-3.3039 0.7962 -13.7101 -0.334 0.185 0.924 33 7 2 0 0
-3.3300 0.7899 -13.7238 -0.358 -0.108 0.927 36 6 2 0 0
-3.4274 0.7601 -13.6602 -0.719 -0.456 0.524 47 8 1 0 0
-3.5834 0.7317 -13.9097 -0.542 -0.601 0.586 101 51 30 0 0
-3.6047 0.7411 -14.1860 -0.883 -0.374 -0.283 109 71 59 0 0
-3.5958 0.7464 -14.2396 -0.960 -0.180 -0.215 117 73 58 0 0
-3.5841 0.7527 -14.2966 -0.939 -0.329 -0.105 122 74 58 0 0
-3.6247 0.7488 -14.4252 -0.522 -0.849 -0.079 105 63 50 0 0
-3.6116 0.7556 -14.4846 -0.763 -0.617 -0.193 104 66 55 0 0
-4.0929 0.6947 -15.7419 -0.787 0.059 0.615 34 18 16 0 0
-4.1828 0.7073 -16.4145 -0.500 -0.271 0.822 34 14 10 0 0
-4.2044 0.7026 -16.4356 -0.512 -0.334 0.792 37 13 10 0 0
-4.2523 0.6917 -16.4712 -0.512 -0.334 0.792 52 27 23 0 0
-4.2799 0.6849 -16.4837 -0.762 -0.063 0.644 51 24 21 0 0
-4.3594 0.6857 -16.8891 -0.588 -0.769 -0.251 103 90 89 0 0
-4.3517 0.6912 -16.9526 -0.598 -0.789 -0.145 127 120 121 0 0
-3.0122 0.8369 -12.4912 -0.502 -0.029 0.865 123 50 33 0 0
-3.5328 0.7145 -12.8265 -0.156 -0.299 0.941 108 61 50 0 0
-3.2848 0.8304 -13.6952 -0.239 -0.022 0.971 32 7 2 0 0
-3.4522 0.7842 -13.6816 -0.409 -0.656 0.634 50 10 6 0 0
-3.6911 0.7425 -14.0944 -0.644 -0.732 -0.224 112 76 64 0 0
-3.6803 0.7510 -14.1932 -0.479 -0.864 -0.153 123 74 60 0 0
-3.6409 0.7715 -14.3695 -0.764 -0.641 -0.073 123 68 54 0 0
-3.6347 0.7761 -14.4207 -0.814 -0.557 -0.164 107 63 51 0 0
-3.6478 0.7766 -14.4938 -0.829 -0.559 0.033 104 66 57 0 0
-3.6592 0.7903 -14.7938 0.390 0.001 0.921 59 28 23 0 0
-3.9692 0.7159 -14.9645 0.614 -0.314 0.724 82 24 10 0 0
-4.1377 0.7163 -15.7884 -0.507 -0.475 0.720 24 13 11 0 0
-4.1072 0.7573 -16.3747 -0.445 -0.007 0.896 24 8 8 0 0
-4.1668 0.7423 -16.3945 -0.420 0.193 0.887 30 11 8 0 0
-4.1900 0.7370 -16.4134 -0.707 0.082 0.702 33 14 10 0 0
-4.2173 0.7304 -16.4265 -0.499 -0.051 0.865 38 15 11 0 0
-4.2349 0.7271 -16.4531 -0.625 -0.224 0.748 43 18 14 0 0
-4.2588 0.7216 -16.4710 -0.652 -0.345 0.675 56 31 27 0 0
-4.2826 0.7162 -16.4890 -0.665 -0.202 0.719 54 30 26 0 0
-4.3842 0.7125 -16.9153 -0.579 -0.784 -0.223 108 98 96 0 0
-5.0615 0.5349 -17.0239 0.171 -0.611 0.773 194 194 196 0 0
-2.3562 1.0405 -12.4229 -0.269 -0.402 0.875 121 48 31 0 0
-3.2803 0.8597 -13.6647 0.254 0.260 0.932 43 13 6 0 0
-3.3910 0.8323 -13.7126 -0.639 -0.632 0.439 35 6 2 0 0
-3.7302 0.7621 -14.0997 -0.479 -0.864 -0.153 113 74 63 0 0
-3.7227 0.7671 -14.1516 -0.479 -0.864 -0.153 113 70 57 0 0
-3.7121 0.7731 -14.2070 -0.786 -0.532 -0.315 123 78 57 0 0
-3.6933 0.7819 -14.2723 -0.753 -0.591 -0.291 119 68 47 0 0
-3.6731 0.7913 -14.3393 -0.755 -0.609 -0.244 131 75 58 0 0
-3.6542 0.8002 -14.4052 -0.816 -0.562 -0.136 113 65 52 0 0
-3.6471 0.8051 -14.4575 -0.814 -0.557 -0.164 102 64 55 0 0
-3.7631 0.8015 -14.9493 -0.333 -0.609 0.720 75 19 6 0 0
-4.1605 0.7768 -16.4120 -0.225 0.329 0.917 30 11 7 0 0
-4.4032 0.7147 -16.4827 -0.806 -0.114 0.581 23 19 18 0 0
-3.4040 0.8581 -13.7050 -0.578 -0.457 0.676 32 6 2 0 0
-3.7609 0.7844 -14.1146 -0.533 -0.814 -0.231 110 72 58 0 0
-3.7052 0.8134 -14.3530 -0.539 -0.834 0.118 125 72 57 0 0
-3.7542 0.8331 -14.9219 -0.201 -0.517 0.832 63 17 7 0 0
-3.7835 0.8337 -15.0699 -0.883 -0.334 0.330 80 22 10 0 0
-4.4479 0.7611 -16.9475 -0.593 -0.788 -0.163 124 116 116 0 0
-2.9879 0.9304 -12.4929 -0.470 0.184 0.863 119 43 27 0 0
-3.0143 0.9239 -12.5059 -0.470 0.184 0.863 119 43 27 0 0
-3.3352 0.9066 -13.7022 0.038 -0.077 0.996 33 6 0 0 0
-3.3819 0.8933 -13.6936 -0.266 -0.489 0.831 32 6 1 0 0
-3.4046 0.8881 -13.7109 -0.584 -0.517 0.626 32 7 2 0 0
-3.7963 0.8024 -14.0808 -0.612 -0.745 -0.266 113 74 61 0 0
-3.7580 0.8233 -14.2551 -0.566 -0.806 -0.173 116 66 47 0 0
-3.7332 0.8344 -14.3276 -0.229 -0.964 0.137 130 76 61 0 0
-3.7883 0.8551 -14.9338 -0.192 -0.829 0.525 72 18 7 0 0
-3.7765 0.8673 -15.0861 -0.743 -0.663 0.090 80 22 10 0 0
-4.5004 0.7564 -16.5686 -0.700 0.020 0.714 18 12 15 0 0
-4.4605 0.7923 -16.9915 -0.639 -0.749 -0.176 127 124 122 0 0
-5.3909 0.5326 -16.9171 -0.797 0.603 -0.035 201 201 203 0 0
-2.5561 1.0756 -12.4465 -0.042 -0.099 0.994 124 50 33 0 0
-3.6910 0.7844 -12.8045 0.072 -0.306 0.949 100 64 54 0 0
-3.3436 0.9340 -13.6997 -0.018 -0.078 0.997 39 10 3 0 0
-3.8531 0.8079 -13.9368 -0.570 -0.466 0.677 102 52 40 0 0
-3.7867 0.8731 -14.7161 0.050 -0.394 0.918 53 16 8 0 0
-3.8125 0.8778 -14.9119 -0.231 -0.584 0.778 69 17 7 0 0
-3.7625 0.9008 -15.0647 -0.685 -0.561 -0.466 79 21 10 0 0
-4.4258 0.7097 -14.9264 -0.973 0.224 -0.062 63 37 34 0 0
-4.4356 0.7090 -14.9599 -0.976 0.046 0.213 65 40 39 0 0
-4.3960 0.7285 -15.1034 -0.740 -0.617 0.267 65 48 45 0 0
-4.4041 0.7285 -15.1396 -0.948 -0.296 -0.117 51 38 37 0 0
-4.3849 0.7381 -15.2112 -0.981 -0.131 -0.143 17 9 8 0 0
-4.5456 0.7846 -16.7202 -0.700 -0.711 0.070 67 47 42 0 0
-4.5065 0.8083 -16.9340 -0.646 -0.748 -0.155 114 104 102 0 0
-3.7126 0.8059 -12.7880 -0.626 -0.621 0.472 100 61 49 0 0
-3.7345 0.8009 -12.8045 -0.337 -0.316 0.887 87 56 53 0 0
-3.3863 0.9522 -13.7018 -0.023 0.072 0.997 37 7 3 0 0
-3.6588 0.8791 -13.7389 -0.864 -0.377 0.334 149 94 57 0 0
-3.8039 0.8980 -14.7028 0.011 -0.436 0.900 72 30 18 0 0
-4.4613 0.7191 -14.7520 -0.964 -0.085 -0.252 90 50 44 0 0
-4.3942 0.7513 -14.9747 -0.842 -0.535 -0.066 57 29 25 0 0
-4.4335 0.7402 -14.9704 -0.865 0.014 0.502 70 43 42 0 0
-4.4119 0.7507 -15.0444 -0.460 -0.696 0.552 73 48 43 0 0
-4.4121 0.7535 -15.0905 -0.740 -0.617 0.267 69 49 45 0 0
-4.4032 0.7595 -15.1486 -0.755 -0.656 -0.011 64 50 48 0 0
-4.5641 0.8070 -16.6508 -0.698 -0.616 0.365 48 32 30 0 0
-4.5751 0.8062 -16.6869 -0.759 -0.624 0.185 62 44 40 0 0
-4.5419 0.8280 -16.8920 -0.657 -0.736 -0.163 94 78 76 0 0
-4.5287 0.8360 -16.9641 -0.654 -0.742 -0.146 122 115 113 0 0
-2.2348 1.2212 -12.4071 -0.470 -0.414 0.780 123 52 34 0 0
-2.2616 1.2146 -12.4211 -0.536 -0.548 0.643 125 54 36 0 0
-2.3188 1.2027 -12.4843 -0.498 -0.494 0.713 123 52 34 0 0
-3.3448 0.9167 -12.4688 -0.569 0.123 0.813 116 39 23 0 0
-3.3690 0.9109 -12.4832 -0.609 0.175 0.774 115 38 22 0 0
-3.7524 0.8236 -12.7918 -0.631 -0.396 0.667 107 67 61 0 0
-3.6796 0.9045 -13.7644 -0.687 -0.254 0.681 144 94 54 0 0
-3.7027 0.8991 -13.7808 -0.612 -0.419 0.670 115 72 46 0 0
-3.7903 0.8791 -13.8516 -0.752 -0.474 0.458 142 98 58 0 0
-3.7983 0.8790 -13.8850 -0.866 -0.330 0.376 102 45 16 0 0
-3.8811 0.8581 -13.9185 -0.564 -0.619 0.547 86 39 28 0 0
-3.9112 0.8502 -13.9266 -0.687 -0.282 0.670 106 55 39 0 0
-3.8958 0.9134 -14.8712 0.266 -0.747 0.610 73 19 8 0 0
-4.4458 0.7663 -14.9624 -0.662 -0.349 0.663 70 40 37 0 0
-4.4196 0.8230 -15.7549 -0.422 -0.720 0.550 117 108 108 0 0
-4.3423 0.8820 -16.3577 -0.745 0.048 0.665 23 19 21 0 0
-4.5291 0.8424 -16.5550 -0.798 -0.313 0.515 41 19 18 0 0
-4.5315 0.8448 -16.6032 -0.924 0.062 0.378 49 24 20 0 0
-4.5881 0.8402 -16.7817 -0.675 -0.736 -0.052 70 46 42 0 0
-4.5604 0.8536 -16.8744 -0.729 -0.570 0.379 78 58 56 0 0
-4.7218 0.8205 -17.0611 -0.819 -0.535 0.206 173 173 175 0 0
-4.8568 0.7770 -16.9656 -0.585 -0.811 0.000 178 178 180 0 0
-2.2714 1.2414 -12.4177 -0.489 -0.388 0.781 124 53 35 0 0
-2.6192 1.1460 -12.4424 -0.408 0.021 0.913 122 49 32 0 0
-2.6549 1.1363 -12.4474 -0.407 -0.265 0.874 122 49 32 0 0
-2.6814 1.1298 -12.4609 -0.395 -0.105 0.913 123 50 33 0 0
-3.0341 1.0321 -12.4707 -0.583 -0.253 0.772 121 46 27 0 0
-3.3722 0.9387 -12.4858 -0.606 0.015 0.795 112 35 19 0 0
-3.7118 0.8516 -12.6059 -0.266 -0.016 0.964 130 65 33 0 0
-3.7809 0.8451 -12.8072 -0.143 0.260 0.955 96 60 55 0 0
-3.4433 0.9956 -13.6949 -0.175 0.329 0.928 43 12 7 0 0
-3.5128 0.9767 -13.7028 -0.409 0.284 0.867 34 8 4 0 0
-3.6944 0.9293 -13.7546 -0.642 -0.294 0.708 152 100 63 0 0
-3.7143 0.9250 -13.7745 -0.642 -0.294 0.708 134 94 60 0 0
-3.7279 0.9229 -13.8015 -0.828 -0.292 0.478 92 57 32 0 0
-3.8038 0.9044 -13.8430 -0.614 -0.378 0.693 121 75 49 0 0
-3.8164 0.9054 -13.9138 -0.841 -0.472 0.263 88 32 15 0 0
-3.9137 0.8793 -13.9306 -0.605 -0.583 0.542 94 47 32 0 0
-4.4863 0.7649 -14.6451 -0.732 -0.637 -0.242 81 32 17 0 0
-4.4989 0.8760 -16.4529 -0.848 -0.108 0.519 31 14 14 0 0
-4.5155 0.8731 -16.4806 -0.848 -0.108 0.519 33 15 14 0 0
-4.5321 0.8702 -16.5083 -0.848 -0.108 0.519 39 18 14 0 0
-4.5088 0.9020 -16.9062 -0.417 -0.188 0.889 68 45 40 0 0
-4.5362 0.8952 -16.9192 -0.355 -0.343 0.870 73 48 46 0 0
-4.5572 0.8907 -16.9413 -0.672 -0.646 0.362 85 67 67 0 0
-4.8867 0.7981 -16.9304 -0.564 -0.826 0.026 178 178 180 0 0
-2.2304 1.2804 -12.3836 -0.508 0.191 0.840 121 50 32 0 0
-2.3201 1.2575 -12.4171 -0.358 0.341 0.869 130 57 40 0 0
-2.6645 1.1628 -12.4439 -0.407 -0.265 0.874 122 49 32 0 0
-2.6880 1.1572 -12.4602 -0.259 -0.318 0.912 122 49 32 0 0
-3.0458 1.0574 -12.4651 -0.498 -0.323 0.805 119 44 25 0 0
-3.4046 0.9565 -12.4593 -0.666 -0.553 0.501 117 38 21 0 0
-3.7247 0.8758 -12.5985 -0.135 0.059 0.989 156 86 46 0 0
-3.7240 0.8786 -12.6379 -0.507 -0.673 0.539 108 43 12 0 0
-3.4012 1.0378 -13.7052 -0.087 0.272 0.958 24 10 8 0 0
-3.4423 1.0261 -13.7025 -0.169 0.240 0.956 44 18 13 0 0
-3.4791 1.0159 -13.7043 -0.304 0.230 0.924 37 7 3 0 0
-3.5394 1.0002 -13.7222 -0.407 0.284 0.868 36 5 2 0 0
-3.7308 0.9492 -13.7627 -0.526 -0.610 0.593 145 100 66 0 0
-3.7744 0.9393 -13.7982 -0.557 -0.513 0.653 81 41 26 0 0
-3.7918 0.9359 -13.8210 -0.624 -0.527 0.576 105 61 51 0 0
-3.8143 0.9307 -13.8379 -0.676 -0.356 0.645 120 77 58 0 0
-3.8311 0.9275 -13.8613 -0.671 -0.323 0.668 143 98 67 0 0
-3.9397 0.9626 -14.8781 -0.600 -0.789 -0.133 73 19 9 0 0
-4.3358 0.8406 -14.7061 -0.775 0.600 0.200 84 27 14 0 0
-4.6294 0.8862 -16.6883 -0.924 -0.141 0.355 53 38 37 0 0
-4.5491 0.9230 -16.9098 0.004 -0.042 0.999 72 47 44 0 0
-4.5781 0.9155 -16.9203 -0.185 -0.204 0.961 74 53 51 0 0
-4.7046 0.8818 -16.9460 -0.325 -0.359 0.875 153 151 154 0 0
-4.7325 0.8747 -16.9577 -0.267 -0.252 0.930 161 159 162 0 0
-4.7689 0.8644 -16.9568 -0.527 -0.527 0.666 166 164 167 0 0
-2.2293 1.3109 -12.3900 -0.508 0.191 0.840 120 50 32 0 0
-3.4286 0.9796 -12.4795 -0.615 -0.388 0.687 114 35 20 0 0
-3.7630 0.8938 -12.6037 -0.305 -0.573 0.760 140 73 32 0 0
-3.4412 1.0567 -13.7102 -0.159 0.008 0.987 44 23 19 0 0
-3.8272 0.9561 -13.8300 -0.530 -0.607 0.593 119 75 58 0 0
-3.8421 0.9536 -13.8556 -0.595 -0.454 0.663 118 77 45 0 0
-3.8616 0.9494 -13.8759 -0.595 -0.454 0.663 139 94 56 0 0
-3.8318 0.9971 -14.4752 -0.747 -0.575 -0.333 89 18 5 0 0
-3.8412 0.9966 -14.5085 -0.721 -0.643 -0.260 83 16 6 0 0
-3.8405 1.0027 -14.5985 0.370 -0.537 0.758 68 18 10 0 0
-4.0134 0.9551 -14.6147 -0.431 -0.273 0.860 28 5 2 0 0
-4.6227 0.9210 -16.7071 -0.947 0.145 0.288 47 34 33 0 0
-4.6378 0.9187 -16.7375 -0.900 -0.023 0.435 62 44 42 0 0
-4.7106 0.9120 -16.9466 -0.340 -0.374 0.863 148 144 147 0 0
0.4767 2.1153 -12.5518 0.459 0.327 0.826 110 73 67 0 0
-2.6192 1.2327 -12.4205 -0.627 0.132 0.767 122 49 32 0 0
-3.4201 1.0090 -12.4553 -0.615 -0.388 0.687 118 39 22 0 0
-3.4860 0.9962 -12.5433 -0.796 -0.008 0.606 117 41 25 0 0
-3.8720 0.9757 -13.8708 -0.557 -0.402 0.727 145 103 66 0 0
-4.0109 0.9867 -14.6251 -0.457 -0.595 0.660 29 4 2 0 0
-4.0667 0.9724 -14.6472 -0.548 -0.240 0.801 50 12 4 0 0
-4.0060 1.0036 -14.8575 -0.801 -0.586 -0.127 73 21 10 0 0
-4.3229 0.9061 -14.7373 -0.886 0.462 0.038 84 28 15 0 0
-4.4210 0.9848 -16.3343 -0.908 -0.241 0.342 39 22 22 0 0
-4.4333 0.9836 -16.3679 -0.908 -0.241 0.342 40 22 21 0 0
-4.5790 0.9595 -16.6235 -0.953 0.122 0.279 65 33 28 0 0
-4.6162 0.9558 -16.7259 -0.987 0.155 0.051 43 28 25 0 0
-4.6563 0.9441 -16.7199 -0.986 -0.054 0.160 54 40 37 0 0
-4.6634 0.9449 -16.7619 -0.899 -0.098 0.427 66 45 41 0 0
-4.6764 0.9434 -16.7953 -0.678 -0.639 0.362 72 48 44 0 0
-4.6595 0.9569 -16.9255 -0.672 -0.692 -0.265 97 83 80 0 0
-4.6955 0.9467 -16.9256 -0.340 -0.374 0.863 122 115 114 0 0
-4.7222 0.9401 -16.9390 -0.340 -0.374 0.863 141 135 137 0 0
-4.7483 0.9337 -16.9534 -0.305 -0.362 0.881 152 150 153 0 0
-4.7016 0.9550 -17.0761 -0.702 -0.523 0.484 159 157 160 0 0
-4.8902 0.8972 -17.0074 -0.284 -0.211 0.936 176 176 178 0 0
-2.9937 1.1583 -12.4553 -0.789 -0.082 0.608 122 45 27 0 0
-3.5347 1.0107 -12.5387 -0.571 0.089 0.816 118 41 25 0 0
-3.6707 1.0523 -13.7232 -0.235 -0.221 0.947 35 6 3 0 0
-3.9523 0.9912 -13.9992 -0.585 -0.619 0.525 87 36 26 0 0
-3.9413 0.9981 -14.0549 -0.891 -0.447 0.079 101 50 38 0 0
-3.8920 1.0426 -14.5071 -0.580 -0.784 -0.221 81 16 4 0 0
-3.9010 1.0423 -14.5408 -0.218 -0.434 0.874 64 11 2 0 0
-3.9511 1.0301 -14.5701 -0.051 -0.909 0.414 92 41 28 0 0
-4.0456 1.0078 -14.6353 -0.581 -0.585 0.566 31 5 1 0 0
-4.0848 0.9965 -14.6326 -0.393 0.018 0.919 46 10 4 0 0
-4.4272 1.0112 -16.2839 -0.970 -0.231 0.080 48 29 29 0 0
-4.6961 0.9754 -16.8811 -0.672 -0.692 -0.265 83 66 62 0 0
-4.7069 0.9749 -16.9181 -0.286 -0.377 0.881 111 101 99 0 0
-4.7281 0.9703 -16.9398 -0.551 -0.589 0.591 130 124 125 0 0
-4.7484 0.9661 -16.9628 -0.551 -0.589 0.591 144 141 143 0 0
-4.7512 0.9687 -17.0119 -0.555 -0.555 0.620 156 154 156 0 0
-4.7699 0.9651 -17.0374 -0.475 -0.222 0.851 163 161 163 0 0
-4.8476 0.9424 -17.0277 -0.571 -0.380 0.727 171 171 171 0 0
-4.8698 0.9375 -17.0478 -0.571 -0.380 0.727 175 175 176 0 0
-4.8720 0.9403 -17.0981 -0.145 -0.173 0.974 179 179 181 0 0
-2.6960 1.2707 -12.4364 -0.649 -0.223 0.728 121 45 29 0 0
-2.7162 1.2663 -12.4558 -0.649 -0.223 0.728 121 45 29 0 0
-2.7418 1.2600 -12.4701 -0.611 -0.245 0.753 121 45 29 0 0
-2.9562 1.1956 -12.4200 -0.632 0.138 0.763 120 46 29 0 0
-2.9786 1.1904 -12.4369 -0.776 0.101 0.623 135 62 45 0 0
-3.7233 1.0663 -13.7134 -0.294 -0.041 0.955 39 6 4 0 0
-3.9912 0.9954 -13.7908 -0.565 -0.693 0.448 138 95 63 0 0
-4.0070 0.9926 -13.8150 -0.565 -0.693 0.448 133 78 47 0 0
-4.0098 0.9945 -13.8543 -0.685 -0.727 -0.048 85 30 15 0 0
-3.9757 1.0157 -14.0219 -0.618 -0.726 0.300 92 42 29 0 0
-3.9384 1.0502 -14.3705 -0.590 -0.765 -0.260 127 50 26 0 0
-3.9338 1.0550 -14.4201 -0.645 -0.726 -0.237 102 23 7 0 0
-3.9344 1.0608 -14.5082 -0.593 -0.316 0.740 71 13 4 0 0
-4.2159 0.9943 -14.7044 -0.480 0.350 0.805 78 22 11 0 0
-4.5434 0.8977 -14.6557 -0.807 0.054 0.588 82 27 14 0 0
-4.5650 0.8990 -14.7642 -0.661 -0.750 0.009 115 71 61 0 0
-4.5409 0.9729 -15.7389 -0.740 -0.066 0.669 18 10 8 0 0
-4.7403 0.9873 -16.7729 -0.704 -0.697 -0.136 70 48 45 0 0
-4.7586 0.9947 -16.9573 -0.566 -0.636 0.525 138 135 134 0 0
-4.7775 0.9911 -16.9822 -0.566 -0.636 0.525 149 147 148 0 0
-4.7926 0.9889 -17.0131 -0.223 -0.204 0.953 159 158 158 0 0
-1.6607 1.5971 -12.4553 -0.061 0.225 0.973 119 51 34 0 0
-2.0419 1.4862 -12.4265 -0.210 -0.201 0.957 120 48 31 0 0
-2.7171 1.2931 -12.4221 -0.323 0.124 0.938 119 43 27 0 0
-2.7478 1.2850 -12.4316 -0.323 0.124 0.938 121 45 29 0 0
-3.9081 0.9812 -12.8273 -0.526 -0.721 0.451 106 63 57 0 0
-3.7320 1.0931 -13.7103 -0.212 -0.511 0.833 34 5 2 0 0
-4.0336 1.0126 -13.7913 -0.585 -0.704 0.402 147 103 71 0 0
-3.9911 1.0614 -14.3152 -0.501 -0.850 -0.166 123 51 21 0 0
-3.9865 1.0661 -14.3647 -0.580 -0.795 -0.178 113 38 16 0 0
-4.0439 1.0635 -14.5624 -0.581 -0.673 0.457 96 38 20 0 0
-4.0589 1.0611 -14.5891 -0.656 -0.710 0.255 90 37 21 0 0
-4.2092 1.0273 -14.7201 -0.437 0.475 0.764 75 23 13 0 0
-4.5651 0.9198 -14.6357 -0.478 -0.609 0.632 80 27 13 0 0
-4.5083 1.0694 -16.5453 -0.519 -0.247 0.818 37 13 10 0 0
-4.7678 1.0090 -16.7420 -0.704 -0.697 -0.136 71 46 42 0 0
-4.7774 1.0200 -16.9389 -0.462 -0.646 0.607 130 123 122 0 0
-4.7931 1.0176 -16.9687 -0.539 -0.693 0.479 146 141 142 0 0
-4.8468 1.0040 -16.9948 -0.163 -0.586 0.794 163 161 162 0 0
-2.3890 1.4167 -12.4250 -0.404 0.218 0.888 119 48 30 0 0
-2.4183 1.4091 -12.4365 -0.404 0.218 0.888 119 47 30 0 0
-2.6808 1.3329 -12.4233 -0.247 -0.011 0.969 121 45 29 0 0
-2.7129 1.3243 -12.4316 -0.247 -0.011 0.969 122 46 30 0 0
-2.7449 1.3157 -12.4398 -0.247 -0.011 0.969 121 45 29 0 0
-2.7769 1.3071 -12.4481 -0.247 -0.011 0.969 121 45 29 0 0
-3.3152 1.1568 -12.5050 -0.659 0.106 0.744 122 45 27 0 0
-3.9401 0.9985 -12.7994 -0.597 -0.797 0.091 97 53 45 0 0
-3.9507 0.9974 -12.8275 -0.087 0.081 0.993 101 63 56 0 0
-3.6343 1.1499 -13.6992 0.013 0.031 0.999 45 12 5 0 0
-3.7721 1.1115 -13.7143 -0.670 -0.202 0.714 34 6 2 0 0
-4.0194 1.0628 -14.0280 -0.757 -0.649 0.075 91 41 27 0 0
-4.0141 1.0833 -14.2950 -0.543 -0.809 -0.224 116 47 16 0 0
-4.0011 1.0912 -14.3545 -0.539 -0.821 -0.188 124 54 25 0 0
-4.0534 1.0875 -14.5136 -0.668 -0.699 0.256 84 34 23 0 0
-4.0644 1.0866 -14.5449 -0.668 -0.699 0.256 84 30 15 0 0
-4.0740 1.0862 -14.5781 -0.820 -0.525 0.227 100 44 29 0 0
-4.1457 1.0721 -14.6703 -0.288 -0.457 0.841 49 10 4 0 0
-4.1253 1.0862 -14.7861 -0.480 -0.393 0.785 67 18 11 0 0
-4.1977 1.0623 -14.7420 -0.493 0.576 0.652 70 20 11 0 0
-4.6312 0.9379 -14.7403 -0.925 -0.365 0.104 100 51 38 0 0
-4.6361 0.9392 -14.7795 -0.925 -0.365 0.104 103 59 48 0 0
-4.6417 0.9404 -14.8181 -0.881 -0.464 0.089 85 40 27 0 0
-4.6482 0.9477 -14.9477 -0.627 -0.767 0.135 74 36 28 0 0
-4.6627 0.9455 -14.9750 -0.786 -0.582 0.209 57 21 14 0 0
-4.6320 1.0647 -16.5324 0.258 -0.633 0.730 55 21 12 0 0
-4.8364 0.9961 -16.3918 -0.324 -0.814 0.483 56 24 18 0 0
-4.8003 1.0249 -16.6512 -0.459 -0.885 0.074 62 48 47 0 0
-4.8067 1.0298 -16.7465 -0.633 -0.769 -0.088 75 48 44 0 0
-4.7810 1.0436 -16.8371 -0.715 -0.600 -0.358 82 61 58 0 0
-4.7749 1.0497 -16.8990 -0.549 -0.743 0.383 101 88 86 0 0
-4.8636 1.0300 -16.9793 -0.106 -0.714 0.692 158 157 159 0 0
-0.6338 1.9557 -12.4807 -0.406 -0.224 0.886 117 51 37 0 0
-2.0891 1.5306 -12.3950 -0.602 0.461 0.653 123 50 34 0 0
-2.4379 1.4323 -12.4239 -0.261 -0.542 0.799 119 46 29 0 0
-3.0959 1.2451 -12.4559 -0.374 -0.076 0.924 119 42 24 0 0
-3.3195 1.1844 -12.5064 -0.637 -0.509 0.579 124 46 26 0 0
-3.9604 1.0227 -12.8232 -0.467 -0.806 0.364 100 62 53 0 0
-3.7791 1.1389 -13.7131 -0.670 -0.202 0.714 37 6 2 0 0
-4.0424 1.0751 -13.8797 -0.627 -0.667 0.403 109 55 27 0 0
-4.0745 1.1070 -14.4510 -0.345 -0.869 0.354 64 11 3 0 0
-4.0359 1.1247 -14.5420 -0.254 -0.732 0.632 65 18 6 0 0
-4.0502 1.1225 -14.5695 -0.368 -0.872 0.323 85 34 21 0 0
-4.1589 1.0979 -14.6616 -0.263 -0.466 0.845 43 8 4 0 0
-4.6449 0.9662 -14.7760 -0.723 -0.624 0.295 107 63 52 0 0
-4.6657 0.9648 -14.8406 -0.679 -0.729 0.087 88 43 30 0 0
-4.6690 0.9669 -14.8822 -0.640 -0.768 0.026 94 52 42 0 0
-4.6720 0.9691 -14.9245 -0.584 -0.809 0.075 94 55 47 0 0
-4.5531 1.0590 -15.6989 -0.882 -0.172 0.439 25 15 16 0 0
-4.5675 1.0570 -15.7281 -0.861 -0.085 0.501 22 13 13 0 0
-4.5926 1.0543 -15.7916 -0.914 -0.133 0.382 15 7 9 0 0
-4.5552 1.0938 -16.1912 -0.381 -0.921 0.089 63 43 43 0 0
-4.7080 1.0709 -16.4837 -0.262 -0.923 0.283 65 30 23 0 0
-4.8292 1.0684 -16.9339 -0.533 -0.738 0.414 131 125 123 0 0
-4.8554 1.0619 -16.9480 -0.470 -0.809 0.353 144 141 140 0 0
-4.9479 1.0329 -16.9153 -0.047 -0.609 0.792 163 161 163 0 0
-0.5905 1.9944 -12.4045 -0.999 -0.048 -0.002 116 50 36 0 0
-3.1036 1.2718 -12.4540 -0.329 -0.594 0.734 121 44 26 0 0
-3.3208 1.2131 -12.5108 -0.590 -0.057 0.805 123 45 25 0 0
-4.0042 1.0384 -12.8221 -0.021 -0.407 0.913 101 67 58 0 0
-3.7887 1.1654 -13.7089 -0.597 -0.337 0.728 37 7 3 0 0
-4.0600 1.1430 -14.4757 -0.405 -0.906 0.119 70 15 7 0 0
-4.0522 1.1492 -14.5297 -0.493 -0.668 0.558 63 14 4 0 0
-4.2600 1.1001 -14.6797 -0.665 0.041 0.745 65 18 8 0 0
-4.2859 1.1102 -14.9209 -1.000 -0.011 0.009 79 25 13 0 0
-4.5982 1.0077 -14.7524 -0.520 -0.362 0.774 80 25 11 0 0
-4.6203 1.0025 -14.7697 -0.462 -0.281 0.841 81 25 11 0 0
-4.6515 0.9939 -14.7751 -0.431 -0.728 0.534 84 29 19 0 0
-4.6712 0.9897 -14.7954 -0.410 -0.856 0.315 116 70 59 0 0
-4.6004 1.0936 -15.9374 -0.934 -0.312 0.172 55 50 50 0 0
-4.7388 1.0760 -16.2443 -0.231 -0.915 0.330 40 12 8 0 0
-4.7436 1.0778 -16.2883 0.051 -0.824 0.565 40 13 9 0 0
-4.8905 1.0574 -16.5894 -0.649 -0.742 -0.170 71 48 45 0 0
-4.8128 1.0997 -16.8618 -0.534 -0.771 0.348 86 67 62 0 0
-4.9217 1.0797 -17.0180 -0.753 -0.587 0.297 167 165 166 0 0
-5.0044 1.0505 -16.9460 -0.393 -0.788 0.474 172 171 172 0 0
-0.5919 2.0232 -12.3697 -0.999 -0.048 -0.002 113 49 35 0 0
-2.7285 1.4080 -12.4334 -0.198 0.058 0.978 118 45 28 0 0
-3.1175 1.2961 -12.4461 -0.449 -0.264 0.854 122 45 27 0 0
-3.3292 1.2393 -12.5081 -0.485 -0.311 0.817 120 42 22 0 0
-3.6192 1.2430 -13.6936 0.304 -0.101 0.947 6 1 3 0 0
-3.7949 1.1931 -13.7086 -0.725 -0.417 0.547 35 8 3 0 0
-4.0552 1.1271 -13.8360 -0.568 -0.477 0.670 103 61 42 0 0
-4.0742 1.1231 -13.8565 -0.623 -0.428 0.655 128 84 52 0 0
-4.0898 1.1204 -13.8811 -0.829 -0.370 0.418 96 37 8 0 0
-4.0878 1.1243 -13.9262 -0.899 -0.435 0.046 87 30 14 0 0
-4.0724 1.1333 -13.9870 -0.783 -0.609 0.128 77 27 14 0 0
-4.0727 1.1721 -14.5122 -0.603 -0.747 0.280 64 13 5 0 0
-4.0881 1.1695 -14.5382 -0.478 -0.635 0.608 63 15 3 0 0
-4.2553 1.1528 -14.9672 -0.952 -0.268 -0.144 79 27 14 0 0
-4.6545 1.0230 -14.7789 -0.531 -0.543 0.651 82 23 12 0 0
-4.6761 1.0181 -14.7968 -0.875 -0.467 0.127 88 38 25 0 0
-4.6854 1.0179 -14.8305 -0.842 -0.334 0.423 110 63 49 0 0
-4.6950 1.0176 -14.8640 -0.535 -0.767 0.356 82 34 19 0 0
-4.5959 1.1161 -15.8042 -0.759 -0.354 0.547 52 47 48 0 0
-4.8379 1.1222 -16.8341 -0.447 -0.763 0.467 81 59 52 0 0
-4.9860 1.0863 -16.9303 -0.466 -0.712 0.525 164 162 163 0 0
-5.0418 1.0678 -16.8991 -0.583 -0.742 0.332 171 170 171 0 0
-0.5223 2.0798 -12.4312 -0.652 -0.290 0.701 113 49 34 0 0
-0.5946 2.0602 -12.4503 -0.998 0.011 0.067 112 46 32 0 0
-0.7688 2.0104 -12.4631 0.064 0.151 0.986 116 50 36 0 0
-2.1382 1.6072 -12.4055 -0.013 -0.234 0.972 119 46 31 0 0
-2.7432 1.4325 -12.4251 -0.104 -0.118 0.988 120 46 30 0 0
-4.0630 1.0624 -12.6152 -0.528 -0.758 0.384 82 19 3 0 0
-4.0566 1.0795 -12.8176 -0.443 -0.860 0.252 101 62 54 0 0
-3.8862 1.1952 -13.6969 -0.652 -0.196 0.733 40 8 4 0 0
-4.0713 1.1509 -13.8241 -0.691 -0.190 0.698 102 64 49 0 0
-4.1141 1.1475 -13.9452 -0.629 -0.592 0.503 86 32 18 0 0
-4.1880 1.1959 -14.8755 -0.802 -0.586 0.114 69 20 11 0 0
-4.6434 1.0542 -14.7553 -0.495 -0.501 0.710 77 25 11 0 0
-4.6621 1.0504 -14.7769 -0.620 -0.149 0.770 79 25 12 0 0
-4.7052 1.0406 -14.8127 -0.573 -0.741 0.349 100 51 39 0 0
-4.6015 1.1454 -15.8050 -0.880 -0.319 0.353 28 18 21 0 0
-4.6111 1.1453 -15.8410 -0.915 -0.319 0.247 29 19 22 0 0
-5.0272 1.1020 -16.8776 -0.124 -0.753 0.646 162 159 160 0 0
-5.0613 1.0922 -16.8790 -0.583 -0.742 0.332 169 168 169 0 0
-0.5859 2.0954 -12.4625 -0.869 -0.189 0.457 112 46 32 0 0
-0.5894 2.0972 -12.4987 -0.986 -0.083 0.147 114 48 34 0 0
-0.6194 2.0925 -12.5524 -0.906 -0.161 0.391 116 50 36 0 0
-3.0999 1.3584 -12.4359 -0.421 -0.077 0.904 120 45 26 0 0
-3.3629 1.2853 -12.4862 -0.292 -0.211 0.933 122 46 23 0 0
-3.4472 1.2631 -12.5180 -0.459 0.021 0.888 121 43 22 0 0
-4.0749 1.0865 -12.6086 -0.541 -0.787 0.298 96 29 6 0 0
-4.0461 1.1806 -13.7328 -0.737 -0.196 0.647 137 95 55 0 0
-4.0769 1.1754 -13.7821 -0.914 -0.149 0.378 80 38 26 0 0
-4.1230 1.1676 -13.8563 -0.745 0.038 0.666 146 105 77 0 0
-4.1772 1.1865 -14.3120 -0.467 -0.884 0.001 106 33 17 0 0
-4.2157 1.2197 -14.8944 -0.800 -0.599 -0.003 70 22 11 0 0
-4.6370 1.0836 -14.7257 -0.561 -0.503 0.657 74 24 12 0 0
-4.6568 1.0794 -14.7458 -0.561 -0.503 0.657 76 25 11 0 0
-4.6683 1.0783 -14.7766 -0.620 -0.149 0.770 77 25 11 0 0
-4.6549 1.1708 -15.9374 -0.835 -0.394 0.383 23 13 13 0 0
-5.0768 1.1182 -16.8651 -0.402 -0.750 0.526 167 166 168 0 0
-0.5891 2.1266 -12.4650 -0.438 -0.060 0.897 114 48 34 0 0
-0.6035 2.1275 -12.5314 -0.946 -0.171 0.276 116 50 36 0 0
-2.2433 1.6359 -12.3982 -0.069 -0.050 0.996 121 48 33 0 0
-3.1496 1.3755 -12.4702 -0.584 0.268 0.766 121 44 26 0 0
-4.0978 1.1065 -12.5904 -0.342 -0.843 0.415 116 50 16 0 0
-4.0992 1.1241 -12.8235 -0.686 -0.654 0.318 104 61 53 0 0
-3.7317 1.2976 -13.6728 0.177 0.137 0.975 7 1 1 0 0
-3.8306 1.2666 -13.6466 0.221 0.291 0.931 46 16 10 0 0
-4.0866 1.2016 -13.7777 -0.897 -0.391 0.207 100 58 38 0 0
-4.1055 1.2009 -13.8409 -0.503 -0.321 0.802 119 73 63 0 0
-4.1256 1.1965 -13.8601 -0.561 -0.425 0.711 123 84 58 0 0
-4.1254 1.2472 -14.5150 -0.555 -0.220 0.802 73 18 8 0 0
-4.2987 1.2077 -14.6617 -0.519 -0.754 0.404 40 8 3 0 0
-4.6494 1.1091 -14.7175 -0.793 -0.319 0.520 74 25 13 0 0
-4.6698 1.1045 -14.7367 -0.762 -0.148 0.630 74 25 11 0 0
-4.7347 1.0896 -14.7898 -0.403 -0.680 0.612 78 23 12 0 0
-4.7465 1.0885 -14.8203 -0.453 -0.578 0.679 78 25 13 0 0
-4.6652 1.1983 -15.9318 -0.787 -0.394 0.475 38 22 21 0 0
-5.0490 1.1055 -16.1884 -0.843 -0.258 0.472 49 25 21 0 0
-2.2929 1.6511 -12.3971 -0.019 -0.069 0.997 121 48 33 0 0
-3.0983 1.4179 -12.4487 -0.593 0.444 0.672 126 51 32 0 0
-3.1243 1.4113 -12.4619 -0.489 0.366 0.792 122 47 28 0 0
-3.1470 1.4058 -12.4783 -0.505 0.278 0.817 120 43 25 0 0
-4.1446 1.1387 -12.8201 -0.599 -0.441 0.668 102 64 54 0 0
-3.7753 1.3111 -13.6310 -0.498 -0.775 -0.388 8 1 1 0 0
-3.9419 1.2671 -13.6961 -0.235 -0.174 0.956 35 6 2 0 0
-3.9705 1.2595 -13.7059 -0.600 -0.301 0.741 40 6 2 0 0
-4.1150 1.2272 -13.8366 -0.563 -0.668 0.487 102 54 46 0 0
-4.1316 1.2241 -13.8600 -0.563 -0.668 0.487 124 76 54 0 0
-4.1569 1.2177 -13.8732 -0.533 -0.407 0.742 136 93 60 0 0
-4.2196 1.2307 -14.2754 -0.898 -0.439 -0.019 113 47 24 0 0
-4.3346 1.2313 -14.7150 -0.656 -0.750 0.081 55 14 9 0 0
-4.9380 1.0899 -15.1787 -0.714 -0.220 0.665 60 38 36 0 0
-4.6734 1.2267 -15.9291 -0.519 0.034 0.854 63 43 39 0 0
-5.0870 1.1295 -16.2437 -0.845 -0.389 0.366 48 43 40 0 0
-2.1160 1.7342 -12.4085 -0.427 0.560 0.710 121 48 33 0 0
-2.1912 1.7097 -12.3793 0.038 -0.453 0.891 123 50 35 0 0
-2.7565 1.5438 -12.3963 -0.646 -0.024 0.763 120 46 31 0 0
-2.7979 1.5346 -12.4341 -0.801 0.098 0.591 123 47 32 0 0
-4.1612 1.1643 -12.8479 -0.669 -0.473 0.573 93 57 50 0 0
-4.1798 1.2872 -14.4635 -0.961 -0.213 -0.176 82 20 9 0 0
-4.7893 1.1431 -14.9182 -0.732 0.063 0.679 93 42 30 0 0
-4.8210 1.1341 -14.9226 -0.850 0.073 0.522 82 31 19 0 0
-4.8641 1.1278 -15.0047 -0.769 -0.241 0.592 91 53 44 0 0
-4.9451 1.1176 -15.1772 -0.714 -0.220 0.665 48 20 16 0 0
-4.9640 1.1137 -15.1987 -0.714 -0.220 0.665 53 35 31 0 0
-5.0764 1.1615 -16.2175 -0.827 -0.552 0.106 49 41 39 0 0
-5.0183 1.2059 -16.5606 -0.975 -0.193 0.113 82 52 46 0 0
-5.1811 1.1758 -16.7883 -0.072 0.197 0.978 166 166 165 0 0
-2.1090 1.7674 -12.4202 -0.763 0.638 0.102 120 47 32 0 0
-4.1456 1.2615 -13.6459 -0.698 -0.711 -0.085 68 10 1 0 0
-4.4012 1.2663 -14.6468 -0.720 -0.151 0.677 37 9 2 0 0
-4.3936 1.2729 -14.7016 -0.811 -0.516 0.274 48 12 5 0 0
-4.3828 1.2846 -14.8064 -0.755 -0.656 -0.002 63 17 8 0 0
-4.8222 1.1640 -14.9289 -0.850 0.073 0.522 92 43 33 0 0
-4.8361 1.1621 -14.9568 -0.816 0.012 0.579 83 30 18 0 0
-4.8531 1.1590 -14.9807 -0.816 0.012 0.579 84 33 20 0 0
-5.0714 1.1869 -16.1323 -0.527 -0.594 0.607 55 47 45 0 0
-5.0792 1.1878 -16.1716 -0.696 -0.673 0.251 52 44 42 0 0
-5.1382 1.2217 -16.8103 0.059 0.226 0.972 155 155 152 0 0
-5.4938 1.1233 -16.8994 -0.240 -0.754 0.611 200 200 202 0 0
-5.5229 1.1153 -16.9070 -0.195 -0.823 0.534 201 201 203 0 0
-2.9614 1.5423 -12.4051 -0.652 0.001 0.758 123 48 29 0 0
-2.9842 1.5368 -12.4216 -0.730 -0.147 0.667 122 47 28 0 0
-3.0506 1.5212 -12.4731 -0.090 -0.185 0.979 121 44 24 0 0
-3.1035 1.5045 -12.4605 -0.165 -0.330 0.929 121 44 24 0 0
-4.0876 1.3139 -13.7189 0.337 0.046 0.941 57 8 2 0 0
-4.3738 1.3078 -14.6887 -0.645 -0.672 0.364 29 5 2 0 0
-4.6833 1.2318 -14.8880 -0.444 -0.229 0.866 70 22 12 0 0
-4.6962 1.2304 -14.9173 0.090 0.069 0.994 71 21 12 0 0
-4.7949 1.1979 -14.8803 -0.382 0.513 0.769 76 25 15 0 0
-4.8220 1.1907 -14.8908 -0.625 0.382 0.681 79 32 24 0 0
-4.8312 1.1908 -14.9250 -0.943 0.173 0.285 94 48 41 0 0
-4.9821 1.1675 -15.1904 -0.808 -0.077 0.584 44 13 9 0 0
-5.0213 1.1708 -15.3746 -0.807 -0.502 0.312 60 48 46 0 0
-5.0331 1.1699 -15.4064 -0.807 -0.502 0.312 46 30 29 0 0
-5.1265 1.2205 -16.3668 -0.948 -0.134 0.289 81 52 46 0 0
-5.1456 1.2167 -16.3900 -0.691 -0.154 0.706 83 52 47 0 0
-5.5465 1.1372 -16.8796 -0.539 -0.531 0.654 201 201 203 0 0
-4.3131 1.3368 -14.4566 -0.523 -0.160 0.838 76 18 10 0 0
-5.0706 1.1931 -15.4589 -0.710 -0.644 0.283 39 24 22 0 0
-5.1053 1.2358 -16.1010 -0.374 -0.793 0.481 53 43 42 0 0
-5.0298 1.3235 -16.8880 -0.500 0.337 0.798 129 123 120 0 0
-5.1266 1.2956 -16.9007 -0.646 0.631 0.429 160 160 158 0 0
-5.1582 1.2866 -16.9057 -0.775 -0.134 0.618 169 169 169 0 0
-5.6396 1.1468 -16.9565 0.169 0.707 0.687 205 205 205 0 0
-3.0349 1.5833 -12.4610 -0.308 -0.105 0.946 124 46 26 0 0
-4.2784 1.2403 -12.8240 -0.323 -0.812 0.486 97 57 46 0 0
-4.0676 1.3781 -13.7131 -0.025 0.263 0.964 40 8 3 0 0
-4.0950 1.3708 -13.7240 0.129 0.240 0.962 45 8 3 0 0
-4.3366 1.3578 -14.4349 -0.458 -0.571 0.681 79 20 12 0 0
-4.3579 1.3530 -14.4533 -0.458 -0.571 0.681 63 14 7 0 0
-4.8878 1.2440 -15.0519 -0.810 0.225 0.542 82 27 16 0 0
-4.9186 1.2352 -15.0573 -0.768 0.142 0.625 80 29 17 0 0
-4.9531 1.2288 -15.1047 -0.628 0.054 0.777 89 50 41 0 0
-5.0604 1.2201 -15.3853 -0.716 -0.628 0.304 39 26 24 0 0
-5.0966 1.2171 -15.4793 -0.759 -0.554 0.342 59 44 39 0 0
-5.0292 1.3563 -16.8987 -0.224 -0.308 0.925 127 122 119 0 0
-5.1338 1.3249 -16.8994 -0.503 0.137 0.853 159 157 158 0 0
-5.1939 1.3037 -16.8607 -0.518 0.309 0.798 168 166 167 0 0
-5.5550 1.1973 -16.8859 -0.832 -0.117 0.542 200 200 202 0 0
-1.8107 1.9761 -12.3984 0.276 -0.161 0.948 120 51 36 0 0
-3.0416 1.6104 -12.4601 -0.308 -0.105 0.946 122 44 23 0 0
-4.4837 1.3822 -14.8925 -0.761 -0.632 0.146 63 18 10 0 0
-5.0944 1.2448 -15.4425 -0.779 -0.475 0.409 42 25 23 0 0
-5.1084 1.2430 -15.4713 -0.779 -0.475 0.409 50 35 34 0 0
-5.1224 1.2412 -15.5001 -0.856 -0.349 0.382 56 41 40 0 0
-5.1413 1.2374 -15.5219 -0.938 -0.071 0.340 60 45 44 0 0
-5.1279 1.3599 -16.9182 0.001 -0.423 0.906 157 156 156 0 0
-5.1621 1.3497 -16.9193 -0.764 0.110 0.636 167 165 166 0 0
-3.0171 1.6462 -12.4508 -0.615 -0.097 0.782 123 45 23 0 0
-3.1677 1.5981 -12.4207 -0.310 -0.296 0.904 124 46 24 0 0
-3.4794 1.5072 -12.4603 -0.653 0.211 0.727 124 43 24 0 0
-4.3289 1.2812 -12.8208 -0.464 -0.582 0.668 100 56 49 0 0
-4.1625 1.4036 -13.6600 -0.612 -0.562 0.556 35 5 2 0 0
-4.3485 1.3469 -13.6552 -0.271 -0.018 0.963 124 82 50 0 0
-4.3680 1.3427 -13.6747 -0.479 -0.281 0.832 87 49 30 0 0
-4.3968 1.3347 -13.6832 -0.448 -0.095 0.889 84 46 36 0 0
-4.4082 1.3707 -14.1417 -0.703 -0.699 0.129 88 27 12 0 0
-4.4328 1.3758 -14.2873 -0.442 -0.892 0.101 80 22 10 0 0
-4.4098 1.3890 -14.3598 -0.633 -0.740 0.227 78 21 10 0 0
-5.1248 1.2669 -15.4567 -0.905 -0.330 0.270 35 13 12 0 0
-5.1565 1.2660 -15.5577 -0.938 -0.071 0.340 53 31 32 0 0
-5.1651 1.2665 -15.5942 -0.978 -0.100 0.183 56 36 36 0 0
-3.0229 1.6737 -12.4509 -0.568 -0.043 0.822 120 43 21 0 0
-3.1783 1.6235 -12.4161 -0.310 -0.296 0.904 123 45 25 0 0
-3.2057 1.6162 -12.4278 -0.310 -0.296 0.904 125 47 27 0 0
-4.3462 1.3029 -12.8079 -0.620 -0.624 0.476 101 52 46 0 0
-4.0666 1.4648 -13.6922 -0.587 0.332 0.739 37 7 2 0 0
-4.3525 1.3749 -13.6574 -0.364 -0.059 0.929 127 83 47 0 0
-4.3784 1.3681 -13.6693 -0.395 -0.054 0.917 98 60 42 0 0
-4.4017 1.3623 -13.6842 -0.531 0.010 0.848 78 41 32 0 0
-4.4278 1.3966 -14.1687 -0.711 -0.701 0.055 91 29 11 0 0
-4.4335 1.3980 -14.2056 -0.657 -0.750 0.078 105 45 23 0 0
-4.4335 1.4057 -14.2937 -0.811 -0.583 -0.050 85 24 12 0 0
-4.4024 1.4223 -14.3762 -0.306 -0.928 0.211 78 20 9 0 0
-4.4029 1.4260 -14.4200 -0.019 -0.842 0.539 76 19 8 0 0
-5.1608 1.2951 -15.5602 -0.946 -0.123 0.301 43 15 13 0 0
-5.1651 1.3103 -15.7502 -0.827 -0.561 0.020 56 40 37 0 0
-5.2192 1.3485 -16.3784 -0.900 -0.362 -0.244 93 66 60 0 0
-5.3053 1.3706 -16.9320 -0.600 -0.751 0.275 184 184 184 0 0
-1.8932 2.0376 -12.3418 -0.116 -0.304 0.946 119 50 34 0 0
-1.9146 2.0328 -12.3614 -0.640 0.346 0.686 115 45 29 0 0
-1.9618 2.0182 -12.3581 -0.482 0.162 0.861 118 46 31 0 0
-3.0404 1.6966 -12.4396 -0.358 0.162 0.920 122 44 22 0 0
-3.3179 1.6120 -12.4390 -0.060 -0.250 0.966 122 44 24 0 0
-3.6670 1.5088 -12.4759 -0.514 -0.300 0.803 128 50 28 0 0
-4.0628 1.4963 -13.7033 -0.587 0.332 0.739 38 8 4 0 0
-4.4012 1.3884 -13.6494 -0.638 -0.113 0.761 103 63 47 0 0
-4.4562 1.3771 -13.7115 -0.903 0.168 0.395 98 54 33 0 0
-4.4429 1.4166 -14.1139 -0.529 -0.835 0.151 98 40 25 0 0
-4.4468 1.4189 -14.1529 -0.734 -0.674 0.085 87 26 8 0 0
-4.4507 1.4211 -14.1918 -0.727 -0.679 0.102 100 39 18 0 0
-4.4357 1.4312 -14.2541 -0.853 -0.488 -0.184 104 43 24 0 0
-4.4353 1.4391 -14.3430 -0.482 -0.839 0.254 78 20 9 0 0
-4.4412 1.4406 -14.3802 -0.296 -0.816 0.496 75 18 7 0 0
-4.5995 1.4265 -14.7672 -0.358 -0.163 0.919 48 13 7 0 0
-5.0502 1.3184 -15.0994 -0.798 -0.360 0.484 77 25 13 0 0
-5.2312 1.3348 -15.9122 -0.792 -0.611 -0.013 62 41 36 0 0
-5.2758 1.4018 -16.8270 0.459 -0.510 0.727 170 170 168 0 0
-5.3406 1.3921 -16.9406 -0.545 -0.782 0.302 187 187 187 0 0
-3.4137 1.6105 -12.4272 -0.520 0.158 0.840 129 51 31 0 0
-3.6974 1.5293 -12.4894 -0.408 0.018 0.913 127 49 27 0 0
-4.3858 1.3478 -12.8164 -0.723 -0.596 0.350 97 46 39 0 0
-4.4673 1.4366 -14.0915 -0.655 -0.748 0.111 105 52 37 0 0
-4.4635 1.4421 -14.1397 -0.819 -0.573 0.005 93 35 18 0 0
-4.4638 1.4459 -14.1831 -0.845 -0.504 0.177 96 36 16 0 0
-4.4565 1.4528 -14.2359 -0.845 -0.486 -0.224 104 44 27 0 0
-4.4834 1.4495 -14.2911 -0.662 -0.324 0.675 78 20 9 0 0
-4.4848 1.4529 -14.3336 -0.874 -0.457 0.166 75 18 7 0 0
-4.4864 1.4561 -14.3760 -0.871 -0.356 0.338 74 18 8 0 0
-4.5013 1.4539 -14.4020 -0.422 -0.581 0.696 70 19 8 0 0
-4.6149 1.4506 -14.7551 -0.476 0.046 0.878 39 10 5 0 0
-5.2363 1.4047 -16.3714 -0.953 -0.037 -0.299 100 83 79 0 0
-5.3609 1.4154 -16.9188 -0.540 -0.782 0.311 187 187 187 0 0
-3.7720 1.5355 -12.4964 -0.377 -0.195 0.905 130 52 30 0 0
-4.4422 1.3679 -12.9189 -0.577 0.550 0.604 63 33 27 0 0
-4.3421 1.4123 -13.0707 -0.459 -0.810 -0.365 30 13 10 0 0
-4.3221 1.4241 -13.1335 -0.512 -0.771 -0.379 18 9 6 0 0
-4.5008 1.4294 -13.7997 -0.695 -0.483 0.533 92 46 37 0 0
-4.5174 1.4458 -14.0378 -0.753 -0.610 -0.248 101 53 39 0 0
-4.4731 1.4761 -14.2228 -0.854 -0.476 -0.210 101 42 25 0 0
-4.4821 1.4763 -14.2559 -0.933 -0.315 -0.174 97 35 23 0 0
-4.5084 1.4693 -14.2676 -0.725 -0.377 0.576 81 23 12 0 0
-4.5218 1.4677 -14.2953 -0.626 -0.138 0.767 76 19 8 0 0
-4.4957 1.4826 -14.3719 -0.871 -0.356 0.338 72 18 9 0 0
-4.5300 1.4723 -14.3738 -0.933 -0.259 0.248 70 18 8 0 0
-4.5582 1.4644 -14.3832 -0.697 -0.685 0.209 63 16 7 0 0
-5.0650 1.3774 -15.1428 -0.733 -0.295 0.613 73 24 15 0 0
-5.2972 1.4569 -16.8134 0.435 -0.530 0.728 169 169 167 0 0
-5.3345 1.4499 -16.8626 -0.973 -0.184 0.140 180 180 179 0 0
-2.9635 1.8057 -12.4147 -0.205 -0.310 0.928 120 43 23 0 0
-3.8998 1.5273 -12.5254 -0.166 -0.276 0.947 117 41 27 0 0
-4.4409 1.3863 -12.8075 -0.800 -0.599 -0.027 95 43 35 0 0
-4.4040 1.4050 -12.8879 -0.827 0.167 0.537 95 48 40 0 0
-4.4576 1.3940 -12.9481 -0.879 0.106 0.466 71 39 33 0 0
-4.4881 1.5041 -14.2558 -0.825 -0.504 -0.256 100 40 23 0 0
-4.5362 1.4919 -14.2848 -0.727 -0.000 0.686 77 20 9 0 0
-4.5218 1.5020 -14.3468 -0.840 0.078 0.537 72 19 7 0 0
-4.5300 1.5026 -14.3811 -0.953 0.113 0.282 69 17 7 0 0
-4.5661 1.4914 -14.3807 -0.916 0.074 0.394 66 18 9 0 0
-4.5758 1.4914 -14.4132 -0.668 -0.419 0.615 57 12 4 0 0
-4.6258 1.4784 -14.4398 -0.689 -0.723 -0.059 41 8 3 0 0
-4.6273 1.4818 -14.4826 -0.734 -0.671 -0.104 60 23 17 0 0
-4.5936 1.5127 -14.7064 -0.736 -0.655 -0.171 42 11 3 0 0
-4.6217 1.5091 -14.7619 -0.476 0.046 0.878 25 5 0 0 0
-5.0019 1.4310 -15.1900 -0.336 -0.334 0.881 72 24 16 0 0
-5.1077 1.4069 -15.2824 -0.790 -0.158 0.593 74 24 13 0 0
-5.2492 1.4300 -16.0133 -0.592 -0.520 0.616 87 57 49 0 0
-5.2755 1.4230 -16.0251 -0.387 -0.762 0.519 87 57 48 0 0
-5.3447 1.4679 -16.7497 0.491 -0.389 0.780 169 169 167 0 0
-5.3078 1.4893 -16.8602 0.004 -0.042 0.999 175 175 173 0 0
-5.3350 1.4820 -16.8715 -0.982 0.132 0.132 179 179 177 0 0
-2.2053 2.0676 -12.3929 -0.209 0.179 0.961 121 48 32 0 0
-4.3868 1.4226 -12.7155 -0.796 -0.334 0.505 76 18 6 0 0
-4.4529 1.4137 -12.8401 -0.817 -0.576 -0.026 93 43 34 0 0
-4.4583 1.4225 -12.9536 -0.866 -0.126 0.484 97 58 49 0 0
-4.4722 1.4204 -12.9780 -0.888 -0.277 0.367 89 51 46 0 0
-4.3654 1.4721 -13.1789 -0.489 -0.787 -0.376 24 8 5 0 0
-4.5345 1.5269 -14.3385 -0.642 -0.441 0.627 73 19 9 0 0
-4.5499 1.5245 -14.3637 -0.891 -0.241 0.384 69 16 6 0 0
-4.5679 1.5210 -14.3859 -0.830 -0.078 0.552 67 15 7 0 0
-4.5762 1.5216 -14.4201 -0.582 -0.046 0.812 60 12 5 0 0
-4.6465 1.5041 -14.4660 -0.739 -0.671 -0.060 37 7 2 0 0
-4.6432 1.5096 -14.5151 -0.848 -0.474 -0.237 63 25 20 0 0
-4.6316 1.5187 -14.5749 -0.848 -0.474 -0.237 58 17 8 0 0
-4.6259 1.5254 -14.6274 -0.788 -0.589 -0.180 69 23 10 0 0
-4.6687 1.5281 -14.8007 -0.664 -0.279 0.694 32 8 3 0 0
-4.6609 1.5357 -14.8568 -0.645 -0.681 0.348 38 11 5 0 0
-5.3318 1.5158 -16.8864 -0.991 0.123 0.046 179 179 177 0 0
-4.4634 1.4492 -12.9541 -0.825 -0.154 0.543 96 52 43 0 0
-4.4795 1.4462 -12.9762 -0.888 -0.277 0.367 100 56 48 0 0
-4.4194 1.4979 -13.3286 -0.302 -0.952 -0.048 72 27 19 0 0
-4.4220 1.5006 -13.3668 -0.302 -0.952 -0.048 68 26 20 0 0
-4.5490 1.5510 -14.3278 -0.740 -0.620 0.261 73 17 8 0 0
-4.5854 1.5438 -14.3715 -0.977 -0.072 0.200 67 14 7 0 0
-4.5819 1.5495 -14.4204 -0.545 -0.128 0.829 63 13 6 0 0
-4.5858 1.5520 -14.4602 -0.372 -0.057 0.927 59 12 5 0 0
-4.6164 1.5431 -14.4666 -0.791 -0.097 0.604 47 8 3 0 0
-4.6604 1.5285 -14.4559 -0.758 -0.652 0.030 37 5 2 0 0
-4.6529 1.5401 -14.5554 -0.863 -0.478 -0.163 64 28 21 0 0
-4.6439 1.5524 -14.6575 -0.807 -0.568 -0.161 75 30 18 0 0
-4.6929 1.5527 -14.8232 -0.563 -0.216 0.797 29 8 2 0 0
-4.7032 1.5525 -14.8558 -0.126 -0.574 0.809 38 10 4 0 0
-5.2456 1.4619 -15.6871 -0.946 0.064 0.317 83 50 43 0 0
-5.2762 1.4622 -15.7915 -0.850 -0.174 0.498 85 51 45 0 0
-5.2868 1.4621 -15.8257 -0.494 -0.618 0.611 86 51 45 0 0
-4.4704 1.4751 -12.9526 -0.734 -0.365 0.572 93 47 38 0 0
-4.4841 1.4731 -12.9773 -0.766 -0.478 0.430 92 51 41 0 0
-4.4814 1.5128 -13.3877 -0.228 -0.963 0.143 102 59 41 0 0
-4.5771 1.5820 -14.4339 -0.735 0.192 0.651 64 14 7 0 0
-4.5914 1.5801 -14.4607 -0.372 -0.057 0.927 61 13 7 0 0
-4.6116 1.5756 -14.4802 -0.726 0.175 0.665 57 10 6 0 0
-4.6553 1.5610 -14.4699 -0.849 -0.440 0.292 46 10 5 0 0
-4.6722 1.5622 -14.5384 -0.708 -0.695 -0.123 43 12 7 0 0
-4.6715 1.5668 -14.5845 -0.716 -0.688 -0.117 63 30 23 0 0
-4.6696 1.5719 -14.6322 -0.803 -0.574 -0.160 56 18 10 0 0
-4.6991 1.5808 -14.8229 -0.742 -0.387 0.547 24 5 1 0 0
-5.2933 1.4810 -15.7259 -0.508 -0.673 0.538 83 49 42 0 0
-5.3118 1.4774 -15.7485 -0.737 -0.169 0.655 84 50 43 0 0
-5.3017 1.4866 -15.8129 -0.494 -0.618 0.611 85 51 45 0 0
-3.1380 1.8657 -12.3847 -0.499 0.171 0.849 121 40 21 0 0
-3.1636 1.8590 -12.3984 -0.499 0.171 0.849 122 41 22 0 0
-4.6028 1.6055 -14.4538 -0.728 0.091 0.680 60 13 7 0 0
-4.6113 1.6061 -14.4880 -0.726 0.175 0.665 55 10 5 0 0
-4.6537 1.5921 -14.4793 -0.882 -0.145 0.448 49 11 5 0 0
-4.6957 1.5824 -14.5160 -0.612 -0.784 -0.103 38 5 1 0 0
-4.6928 1.5880 -14.5649 -0.723 -0.685 -0.092 47 14 9 0 0
-4.6813 1.5974 -14.6249 -0.791 -0.599 -0.125 66 31 24 0 0
-4.7232 1.6054 -14.8455 -0.563 -0.251 0.787 26 6 3 0 0
-5.3175 1.5060 -15.7492 -0.742 -0.037 0.669 86 57 50 0 0
-5.3424 1.5090 -15.8622 -0.576 -0.603 0.553 95 75 68 0 0
-5.3609 1.5054 -15.8850 -0.544 -0.513 0.664 100 83 78 0 0
-3.0341 1.9228 -12.3368 -0.697 0.374 0.612 122 46 27 0 0
-3.5520 1.7707 -12.4450 -0.432 0.001 0.902 126 45 24 0 0
-3.6995 1.7250 -12.4506 -0.410 -0.196 0.891 127 49 27 0 0
-3.8638 1.6758 -12.4757 -0.023 -0.127 0.992 134 57 34 0 0
-4.1608 1.5901 -12.5530 -0.260 -0.340 0.904 132 60 45 0 0
-4.6611 1.6236 -14.5225 -0.906 0.144 0.398 49 9 5 0 0
-4.7068 1.6124 -14.5546 -0.848 -0.520 -0.103 39 6 1 0 0
-4.7025 1.6186 -14.6054 -0.866 -0.490 -0.103 49 17 12 0 0
-4.7289 1.6336 -14.8459 -0.708 -0.073 0.702 20 4 3 0 0
-5.2784 1.5310 -15.5680 -0.331 -0.090 0.939 87 61 55 0 0
-5.3026 1.5248 -15.5822 -0.393 -0.250 0.885 89 64 58 0 0
-5.3272 1.5232 -15.6450 -0.714 -0.200 0.671 92 67 60 0 0
-5.3261 1.5284 -15.6960 -0.749 0.385 0.539 93 70 63 0 0
-5.3497 1.5369 -15.8604 -0.698 -0.353 0.623 99 88 82 0 0
-5.3701 1.5325 -15.8805 -0.647 -0.386 0.658 102 93 91 0 0
-2.4767 2.1304 -12.3654 -0.183 -0.013 0.983 118 45 28 0 0
-2.9214 1.9948 -12.4112 -0.246 0.329 0.912 123 48 29 0 0
-3.0044 1.9647 -12.3706 -0.233 -0.217 0.948 123 48 28 0 0
-3.7073 1.7509 -12.4485 -0.410 -0.196 0.891 124 46 24 0 0
-3.8847 1.6962 -12.4601 -0.422 0.242 0.874 132 56 32 0 0
-3.9417 1.6800 -12.4784 -0.377 -0.144 0.915 132 52 30 0 0
-4.0740 1.6437 -12.5340 -0.333 -0.264 0.905 124 50 34 0 0
-4.5836 1.5254 -12.9645 -0.537 -0.221 0.814 88 44 36 0 0
-4.5917 1.5258 -12.9955 -0.654 0.152 0.741 91 47 38 0 0
-4.6207 1.5174 -13.0028 -0.859 0.168 0.484 93 48 41 0 0
-4.6266 1.5188 -13.0363 -0.798 -0.603 -0.027 100 55 49 0 0
-4.6387 1.5176 -13.0629 -0.744 -0.666 -0.040 101 56 47 0 0
-4.6303 1.5252 -13.1130 -0.639 -0.762 0.100 99 56 48 0 0
-4.6377 1.5260 -13.1451 -0.611 -0.786 0.092 98 56 48 0 0
-4.6442 1.5272 -13.1783 -0.611 -0.786 0.092 98 56 49 0 0
-4.6404 1.6544 -14.4663 -0.985 0.129 -0.111 57 13 6 0 0
-4.6829 1.6490 -14.5475 -0.900 0.001 0.436 49 10 5 0 0
-4.7026 1.6536 -14.6584 -0.643 -0.765 0.044 53 21 15 0 0
-4.7329 1.6808 -15.0345 -0.433 -0.815 0.385 46 13 9 0 0
-2.4832 2.1582 -12.3648 -0.124 -0.180 0.976 119 46 30 0 0
-2.7065 2.0900 -12.3886 -0.141 0.152 0.978 118 45 29 0 0
-3.6229 1.8075 -12.4623 -0.481 0.122 0.868 122 44 24 0 0
-3.7158 1.7765 -12.4455 -0.388 -0.167 0.906 122 44 24 0 0
-4.0833 1.6687 -12.5302 -0.333 -0.264 0.905 128 53 37 0 0
-4.1237 1.6556 -12.5265 -0.466 -0.016 0.885 125 52 37 0 0
-4.5629 1.5393 -12.7553 -0.864 -0.410 0.291 58 10 4 0 0
-4.5919 1.5545 -13.0016 -0.654 0.152 0.741 87 42 36 0 0
-4.6425 1.5448 -13.0649 -0.518 -0.849 0.103 93 50 42 0 0
-4.6434 1.5605 -13.2266 -0.570 -0.819 -0.058 98 57 47 0 0
-4.6516 1.5610 -13.2581 -0.554 -0.824 -0.119 97 55 46 0 0
-4.6689 1.5740 -13.4444 -0.201 -0.969 0.143 94 54 45 0 0
-4.7085 1.6199 -14.0351 -0.566 -0.768 0.299 115 57 38 0 0
-4.6835 1.6482 -14.2415 -0.911 0.223 -0.346 74 17 6 0 0
-4.6443 1.6831 -14.4689 -0.993 0.118 0.008 59 10 4 0 0
-4.7233 1.7208 -15.1021 -0.197 -0.237 0.951 51 15 11 0 0
-4.8882 1.6985 -15.4034 -0.926 0.365 -0.095 70 23 16 0 0
-5.1463 1.6341 -15.5778 -0.524 0.461 0.716 83 55 51 0 0
-5.7779 1.5691 -16.9391 -0.891 0.070 0.448 205 205 205 0 0
-2.4458 2.2001 -12.3661 -0.506 0.051 0.861 117 44 29 0 0
-2.8199 2.0851 -12.4030 -0.477 0.027 0.878 119 44 25 0 0
-3.1360 1.9854 -12.4091 -0.466 0.069 0.882 121 43 21 0 0
-3.5984 1.8432 -12.4541 -0.545 0.026 0.838 120 42 22 0 0
-3.7193 1.8042 -12.4478 -0.523 -0.133 0.842 123 45 25 0 0
-4.0871 1.6960 -12.5322 -0.496 0.373 0.784 129 55 39 0 0
-4.1931 1.6628 -12.5367 -0.301 0.104 0.948 121 48 32 0 0
-4.2221 1.6544 -12.5447 -0.291 0.125 0.949 123 49 35 0 0
-4.5749 1.5628 -12.7481 -0.888 -0.186 0.420 61 11 4 0 0
-4.7188 1.5983 -13.5593 -0.974 -0.139 0.179 90 52 42 0 0
-4.7286 1.5982 -13.5896 -0.971 -0.084 0.225 91 53 42 0 0
-4.7284 1.6025 -13.6320 -0.952 -0.040 0.303 93 55 44 0 0
-4.7305 1.6402 -14.0151 -0.695 -0.700 -0.167 113 56 36 0 0
-4.6531 1.6963 -14.3312 -0.914 0.238 -0.327 81 23 12 0 0
-4.7367 1.7696 -15.3296 -0.717 0.693 -0.069 63 20 13 0 0
-5.0641 1.6884 -15.5557 -0.578 0.652 0.491 82 51 46 0 0
-2.4186 2.2379 -12.3579 -0.215 -0.032 0.976 123 50 35 0 0
-2.4581 2.2255 -12.3602 -0.327 0.204 0.923 122 49 34 0 0
-2.5374 2.2007 -12.3643 -0.165 0.076 0.983 120 47 30 0 0
-2.7961 2.1212 -12.3925 -0.215 -0.297 0.930 119 44 27 0 0
-2.8319 2.1103 -12.3973 -0.504 -0.282 0.817 123 48 29 0 0
-3.0881 2.0274 -12.3839 -0.429 -0.229 0.874 121 44 24 0 0
-3.1058 2.0239 -12.4054 -0.284 0.015 0.959 121 45 22 0 0
-3.1339 2.0161 -12.4167 -0.370 0.012 0.929 123 45 23 0 0
-3.5824 1.8754 -12.4374 -0.785 -0.010 0.620 124 46 26 0 0
-3.6002 1.8718 -12.4580 -0.744 0.127 0.656 124 46 26 0 0
-3.6195 1.8676 -12.4773 -0.732 0.088 0.675 125 47 27 0 0
-3.6382 1.8636 -12.4971 -0.732 0.088 0.675 124 46 26 0 0
-4.0288 1.7417 -12.5216 -0.486 0.235 0.842 133 58 35 0 0
-4.0820 1.7270 -12.5434 -0.433 0.251 0.866 127 52 36 0 0
-4.5545 1.5922 -12.6982 -0.726 -0.381 0.572 112 32 6 0 0
-4.6117 1.5915 -12.8718 -0.688 -0.675 0.267 69 20 13 0 0
-4.6645 1.5930 -13.0526 -0.857 -0.413 0.310 83 42 38 0 0
-4.6747 1.5927 -13.0814 -0.857 -0.413 0.310 85 44 39 0 0
-4.7167 1.5826 -13.1141 -0.748 -0.575 0.331 88 49 42 0 0
-4.7287 1.6233 -13.5542 -0.959 -0.249 0.135 89 51 42 0 0
-4.7342 1.6251 -13.5898 -0.959 -0.249 0.135 91 53 44 0 0
-4.7494 1.6227 -13.6137 -0.903 -0.273 0.333 95 57 48 0 0
-4.7639 1.6206 -13.6385 -0.885 -0.256 0.388 95 57 48 0 0
-4.5682 1.7735 -14.5350 -0.872 -0.102 0.480 76 19 10 0 0
-4.6050 1.7708 -14.6241 -0.675 0.216 0.705 58 11 6 0 0
-2.1234 2.3665 -12.3995 -0.069 -0.119 0.990 118 47 31 0 0
-2.8012 2.1493 -12.3933 -0.213 -0.395 0.894 122 47 29 0 0
-3.0903 2.0563 -12.3874 -0.207 -0.243 0.948 123 46 25 0 0
-3.1179 2.0487 -12.3992 -0.328 -0.092 0.940 121 44 21 0 0
-3.4373 1.9501 -12.4335 -0.093 0.122 0.988 119 41 21 0 0
-3.5100 1.9274 -12.4384 -0.307 -0.000 0.952 129 51 30 0 0
-3.5965 1.9027 -12.4675 -0.546 -0.089 0.833 125 47 26 0 0
-3.8324 1.8305 -12.4985 -0.778 0.177 0.603 125 47 27 0 0
-4.0803 1.7567 -12.5511 -0.433 0.251 0.866 124 49 33 0 0
-4.5626 1.6173 -12.6953 -0.712 -0.210 0.670 103 23 2 0 0
-4.7666 1.6445 -13.5999 -0.772 -0.622 0.133 90 52 43 0 0
-4.7720 1.6465 -13.6357 -0.820 -0.571 0.031 91 54 45 0 0
-4.7749 1.6626 -13.8023 -0.846 -0.509 0.160 84 46 37 0 0
-4.7467 1.6883 -13.9661 -0.981 0.123 -0.153 87 40 26 0 0
-4.6820 1.7350 -14.2212 -0.918 0.162 -0.363 64 13 7 0 0
-4.5726 1.8023 -14.5369 -0.872 -0.102 0.480 83 30 19 0 0
-2.3192 2.3323 -12.3824 -0.126 0.135 0.983 119 46 31 0 0
