ply
format ascii 1.0
element vertex 825
property float x
property float y
property float z
property float nx
property float ny
property float nz
property uchar diffuse_red
property uchar diffuse_green
property uchar diffuse_blue
property uchar class
property uchar detection
end_header
0.1849 -1.5993 -14.3125 -0.338 -0.892 0.302 108 53 32 0 0
0.1853 -1.6071 -14.6544 -0.487 -0.864 0.129 105 50 40 0 0
0.2607 -1.4627 -15.7057 -0.447 -0.876 0.181 9 9 11 0 0
1.2671 0.9514 -13.6434 -0.118 -0.101 0.988 96 88 87 0 0
1.2322 0.8718 -13.6524 -0.064 -0.099 0.993 49 39 37 0 0
1.1811 0.7569 -13.5867 0.255 -0.061 0.965 32 24 21 0 0
1.1641 0.7182 -13.5917 0.398 -0.234 0.887 15 10 7 0 0
0.9704 0.2778 -13.5851 0.200 -0.172 0.965 11 4 3 0 0
0.4966 -0.8018 -13.6556 0.059 -0.418 0.907 132 48 20 0 0
0.4060 -1.0075 -13.6455 -0.083 -0.696 0.714 139 58 27 0 0
0.4125 -0.9940 -13.7011 0.051 -0.185 0.982 141 60 30 0 0
0.4023 -1.0177 -13.7173 -0.127 -0.329 0.936 140 59 30 0 0
0.3904 -1.0450 -13.7297 -0.170 -0.250 0.953 141 61 33 0 0
0.3689 -1.0937 -13.7191 0.301 -0.447 0.842 142 64 41 0 0
0.3575 -1.1200 -13.7323 0.061 -0.350 0.935 151 76 53 0 0
0.1609 -1.5796 -14.2786 -0.265 -0.867 0.423 99 53 36 0 0
0.1528 -1.5985 -14.2999 -0.423 -0.784 0.455 105 50 30 0 0
0.1978 -1.5157 -15.1567 -0.429 0.351 0.833 5 5 7 0 0
0.2314 -1.4517 -15.7041 -0.479 -0.873 0.090 9 9 11 0 0
0.2365 -1.4426 -15.8113 0.008 -0.328 0.945 16 16 18 0 0
0.0719 -1.8148 -15.7200 0.521 -0.418 0.744 9 9 11 0 0
-0.1902 -2.4349 -16.7658 -0.705 -0.058 0.707 178 179 181 0 0
1.4797 1.5279 -13.0103 0.040 -0.451 0.891 213 214 216 0 0
1.0900 0.6275 -13.5772 0.265 -0.243 0.933 27 20 19 0 0
0.8776 0.1426 -13.6068 -0.389 0.210 0.897 19 6 2 0 0
0.5399 -0.6296 -13.6983 -0.049 -0.421 0.906 134 54 27 0 0
0.4850 -0.7539 -13.6519 -0.134 -0.294 0.946 136 57 28 0 0
0.3802 -0.9930 -13.6484 -0.221 -0.509 0.832 138 58 27 0 0
0.3609 -1.0376 -13.6836 -0.146 -0.576 0.804 140 59 29 0 0
0.3638 -1.0320 -13.7310 -0.170 -0.250 0.953 146 65 36 0 0
0.3251 -1.1201 -13.7196 0.380 -0.430 0.819 152 77 53 0 0
0.1564 -1.5113 -14.0434 -0.334 -0.610 0.719 85 16 6 0 0
0.1289 -1.5804 -14.3507 -0.495 -0.823 0.279 118 54 33 0 0
0.2045 -1.4343 -15.6629 -0.865 -0.459 0.202 5 5 7 0 0
1.4640 1.5711 -12.9966 0.042 -0.230 0.972 215 214 214 0 0
1.4353 1.5052 -13.0198 0.040 -0.451 0.891 206 205 204 0 0
1.3977 1.4190 -13.0256 0.149 -0.718 0.680 124 97 96 0 0
1.0756 0.6735 -13.5267 0.732 -0.564 0.382 54 46 46 0 0
1.0637 0.6459 -13.5418 0.708 -0.517 0.481 50 40 40 0 0
1.0360 0.5817 -13.6045 0.581 -0.363 0.729 31 17 14 0 0
0.9876 0.4705 -13.6225 -0.101 -0.013 0.995 4 5 6 0 0
0.5112 -0.6203 -13.6955 -0.049 -0.421 0.906 121 49 24 0 0
0.4450 -0.7711 -13.6629 -0.134 -0.294 0.946 129 51 24 0 0
0.4209 -0.8267 -13.6873 -0.271 0.058 0.961 132 53 23 0 0
0.1212 -1.5386 -15.1914 -0.610 0.225 0.760 4 4 6 0 0
1.4332 1.5798 -12.9932 0.042 -0.230 0.972 212 213 215 0 0
1.4166 1.5416 -13.0004 -0.336 -0.428 0.839 202 200 200 0 0
1.4042 1.5129 -13.0156 -0.357 -0.469 0.808 148 132 131 0 0
1.1394 0.9069 -12.9254 0.809 -0.510 0.293 115 80 73 0 0
1.0087 0.5988 -13.4862 0.759 -0.595 0.264 59 53 56 0 0
0.5182 -0.5286 -13.6537 0.149 -0.613 0.776 111 44 26 0 0
0.4820 -0.6122 -13.6916 -0.054 -0.407 0.912 111 42 21 0 0
0.3956 -0.8103 -13.6922 -0.329 0.044 0.943 125 50 25 0 0
0.0772 -1.5511 -14.4010 -0.629 -0.347 0.696 116 64 45 0 0
0.0879 -1.5383 -15.1769 0.039 0.308 0.951 5 5 7 0 0
-0.1302 -2.0491 -15.8958 0.384 -0.836 0.391 55 52 50 0 0
-0.2894 -2.4260 -16.6740 -0.776 0.020 0.631 174 175 177 0 0
1.4074 1.5995 -12.9991 -0.012 -0.149 0.989 204 204 205 0 0
1.3824 1.5424 -12.9903 0.201 -0.286 0.937 149 131 130 0 0
1.2174 1.1628 -12.9807 -0.192 -0.105 0.976 111 51 40 0 0
0.3391 -0.8657 -13.7042 0.298 -0.258 0.919 117 45 23 0 0
0.0786 -1.4887 -15.6438 -0.064 0.147 0.987 8 8 10 0 0
0.0496 -1.5555 -15.6547 0.434 -0.718 0.545 12 13 15 0 0
1.4120 1.6902 -12.9462 0.139 -0.509 0.849 213 214 216 0 0
1.3699 1.5928 -12.9827 0.255 -0.171 0.952 163 151 148 0 0
1.3157 1.4682 -12.9561 0.353 -0.421 0.835 109 55 44 0 0
1.3057 1.4448 -12.9756 0.127 -0.751 0.647 112 51 39 0 0
0.3067 -0.8656 -13.6920 0.361 -0.476 0.802 113 42 20 0 0
0.0676 -1.4197 -13.9673 -0.153 -0.508 0.848 99 19 4 0 0
0.0471 -1.4675 -14.0403 -0.215 -0.614 0.759 84 14 0 0 0
0.2317 -1.0561 -15.4996 -0.106 -0.811 0.575 14 14 16 0 0
0.2242 -1.0735 -15.5255 -0.106 -0.811 0.575 9 8 10 0 0
0.0219 -1.5405 -15.5635 -0.632 -0.196 0.749 7 7 9 0 0
-0.1481 -1.9336 -15.6790 0.122 -0.473 0.873 52 54 58 0 0
-0.1597 -1.9603 -15.6919 0.122 -0.473 0.873 73 76 79 0 0
-0.1662 -1.9756 -15.7198 -0.218 -0.862 0.458 36 39 42 0 0
0.9768 0.7636 -12.9624 0.394 -0.328 0.858 111 53 41 0 0
0.8545 0.4778 -13.4195 0.635 -0.767 -0.093 74 70 69 0 0
0.8599 0.4899 -13.4714 0.595 -0.789 -0.151 54 47 47 0 0
0.4595 -0.4374 -13.6691 0.391 -0.429 0.814 133 57 28 0 0
0.2006 -1.0362 -13.7055 0.173 0.011 0.985 131 58 35 0 0
0.2081 -1.0314 -15.5143 0.166 -0.935 0.313 11 9 12 0 0
0.2092 -1.0295 -15.5636 -0.082 -0.996 0.030 7 5 8 0 0
-0.1453 -1.8495 -15.6294 -0.217 -0.041 0.975 37 40 45 0 0
1.1009 1.1289 -12.9582 0.161 -0.613 0.774 115 48 31 0 0
0.9944 0.8827 -12.8220 0.331 -0.192 0.924 116 48 32 0 0
1.0024 0.9008 -12.8768 0.512 -0.521 0.683 116 49 33 0 0
0.7986 0.4266 -13.3197 0.789 -0.613 0.043 89 88 89 0 0
0.7957 0.4196 -13.3534 0.763 -0.647 -0.004 88 88 86 0 0
0.5681 -0.1090 -13.5758 -0.216 0.022 0.976 5 5 4 0 0
0.4842 -0.3036 -13.5868 0.220 -0.424 0.879 10 5 3 0 0
0.4714 -0.3333 -13.5979 0.220 -0.424 0.879 23 7 3 0 0
-0.0379 -1.5138 -13.5066 -0.790 0.183 0.586 164 87 64 0 0
-0.0266 -1.4925 -14.6779 -0.581 -0.767 0.271 100 50 38 0 0
0.1812 -1.0147 -15.5665 -0.257 -0.947 -0.191 7 5 8 0 0
0.7332 0.3520 -13.3590 0.755 -0.654 -0.050 83 82 83 0 0
0.3848 -0.4584 -13.6234 0.379 -0.411 0.829 32 12 3 0 0
0.1458 -1.0172 -15.5485 -0.292 -0.955 -0.051 7 5 8 0 0
0.0011 -1.3532 -15.2825 -0.949 -0.273 -0.159 7 5 8 0 0
-0.2731 -1.9914 -15.6998 0.041 -0.388 0.921 42 43 46 0 0
-0.0629 -1.5045 -16.7907 -0.345 0.383 0.857 91 90 88 0 0
1.0819 1.2421 -12.7218 0.297 -0.286 0.911 119 52 39 0 0
0.5790 0.0705 -13.5645 0.827 -0.480 0.293 37 23 19 0 0
0.2977 -0.5852 -13.6459 0.603 -0.495 0.626 73 38 19 0 0
-0.0256 -1.3389 -13.6309 0.141 -0.504 0.852 148 80 57 0 0
-0.0557 -1.4086 -13.9699 0.067 -0.752 0.656 75 10 1 0 0
-0.0742 -1.4511 -14.6988 -0.649 -0.677 0.348 99 49 38 0 0
0.0230 -1.2236 -15.6595 -0.132 0.173 0.976 2 2 4 0 0
1.0492 1.2441 -12.7130 0.317 -0.257 0.913 118 51 37 0 0
0.8002 0.6622 -12.7901 0.074 -0.152 0.986 117 56 41 0 0
0.7837 0.6238 -12.7948 0.074 -0.152 0.986 116 51 34 0 0
0.7458 0.5360 -12.9893 0.198 -0.046 0.979 121 48 31 0 0
0.5669 0.1192 -13.3969 0.793 -0.601 0.099 39 25 24 0 0
0.1732 -0.8000 -13.6578 -0.113 -0.158 0.981 156 80 25 0 0
-0.0245 -1.2623 -13.6192 0.461 -0.675 0.577 112 47 25 0 0
-0.0467 -1.3143 -13.6040 -0.399 -0.860 0.316 115 50 30 0 0
-0.1259 -1.4875 -16.8308 -0.605 0.338 0.721 97 96 94 0 0
0.7835 0.7005 -12.7744 0.180 -0.184 0.966 126 70 58 0 0
0.7689 0.6663 -12.7830 -0.130 -0.338 0.932 120 56 43 0 0
0.7561 0.6364 -12.7953 0.012 -0.423 0.906 118 49 33 0 0
0.5100 0.0629 -13.3313 0.806 -0.585 0.090 45 34 34 0 0
0.1624 -0.7498 -13.6568 0.309 -0.498 0.810 44 17 6 0 0
-0.0396 -1.2232 -13.6488 -0.036 -0.819 0.573 119 59 40 0 0
-0.1285 -1.4269 -14.3925 -0.169 -0.798 0.579 100 46 32 0 0
-0.3570 -1.9556 -15.4628 0.310 -0.406 0.860 24 27 30 0 0
-0.3820 -2.0128 -15.6724 -0.157 -0.572 0.805 16 17 19 0 0
-0.4184 -2.0981 -15.7035 -0.395 -0.149 0.907 80 81 79 0 0
-0.1831 -1.5394 -16.7950 0.113 0.268 0.957 100 99 97 0 0
0.9913 1.2659 -12.7105 -0.352 -0.132 0.927 119 51 38 0 0
0.5418 0.2118 -12.9843 0.024 -0.045 0.999 115 46 28 0 0
0.2988 -0.3533 -13.6404 -0.504 0.151 0.850 23 13 12 0 0
0.0822 -0.8621 -13.6915 -0.261 -0.560 0.786 102 62 33 0 0
-0.0733 -1.2281 -13.6311 -0.075 -0.407 0.910 112 52 33 0 0
-0.1505 -1.4058 -14.0182 0.066 -0.847 0.527 88 18 4 0 0
-0.1472 -1.3815 -15.8457 -0.527 0.082 0.846 18 8 5 0 0
0.4819 0.1477 -12.9921 -0.077 0.040 0.996 117 48 33 0 0
-0.1637 -1.3402 -15.8343 -0.383 -0.615 0.689 86 32 20 0 0
-0.1735 -1.3631 -15.8533 0.226 -0.115 0.967 55 21 14 0 0
-0.3345 -1.7338 -16.6004 -0.605 0.393 0.692 107 107 105 0 0
-0.2087 -1.3923 -14.0496 -0.229 -0.587 0.776 95 33 17 0 0
-0.2013 -1.3483 -15.8565 0.162 -0.366 0.917 91 40 30 0 0
-0.4232 -1.8763 -15.6130 0.059 -0.705 0.706 39 40 44 0 0
-0.3794 -1.7566 -16.7046 0.500 0.392 0.772 117 117 115 0 0
0.4194 0.1535 -12.9753 -0.135 -0.266 0.954 123 50 33 0 0
0.0209 -0.7806 -13.5760 0.407 -0.766 0.497 118 113 104 0 0
-0.2293 -1.3338 -15.8591 0.211 -0.485 0.848 102 49 40 0 0
-0.2410 -1.3613 -15.8726 0.120 -0.403 0.908 54 35 36 0 0
-0.4536 -1.8697 -15.6060 0.013 -0.727 0.686 34 34 36 0 0
-0.5049 -1.9750 -16.5407 0.523 0.257 0.813 134 134 137 0 0
-0.4911 -1.9407 -16.6385 -0.087 -0.469 0.879 140 139 144 0 0
0.5978 0.6494 -12.7147 -0.060 -0.527 0.848 123 53 37 0 0
0.3755 0.1257 -12.9384 0.097 -0.865 0.492 122 47 31 0 0
-0.2509 -1.3037 -15.8815 -0.206 -0.718 0.665 103 47 40 0 0
-0.2689 -1.3466 -15.8755 0.068 -0.405 0.912 55 40 42 0 0
-0.5569 -2.0192 -16.4631 0.507 0.314 0.803 137 137 139 0 0
-0.5869 -2.0841 -16.7791 -0.935 -0.089 0.342 168 168 167 0 0
0.9911 1.6658 -12.7603 -0.953 -0.148 0.264 113 50 39 0 0
0.5784 0.6797 -12.6539 -0.475 -0.659 0.583 130 63 47 0 0
0.5705 0.6614 -12.6763 -0.496 -0.626 0.601 130 62 46 0 0
0.5628 0.6437 -12.6990 -0.330 -0.575 0.748 124 55 39 0 0
0.5446 0.6003 -12.6992 0.026 -0.298 0.954 122 51 36 0 0
0.2247 -0.1566 -12.9357 0.306 0.132 0.943 121 45 29 0 0
-0.2714 -1.3152 -13.9704 -0.513 -0.788 0.340 80 14 1 0 0
-0.2913 -1.3467 -14.6656 -0.651 -0.700 0.295 96 50 34 0 0
-0.2957 -1.3564 -14.6984 -0.651 -0.700 0.295 57 34 32 0 0
-0.2676 -1.2671 -15.6736 -0.204 -0.958 0.201 43 39 40 0 0
-0.2788 -1.2890 -15.8844 -0.325 -0.780 0.534 101 47 41 0 0
-0.2996 -1.3388 -15.8698 -0.037 -0.497 0.867 50 39 40 0 0
-0.3157 -1.3267 -14.6750 -0.696 -0.663 0.275 70 39 31 0 0
-0.3199 -1.3361 -14.7082 -0.696 -0.663 0.275 52 35 35 0 0
-0.4958 -1.7310 -15.6905 -0.377 0.209 0.902 12 10 13 0 0
0.9951 1.8381 -12.7650 -0.334 0.370 0.867 117 77 68 0 0
0.2196 -0.0190 -12.8100 0.310 -0.736 0.602 123 47 31 0 0
-0.3254 -1.2919 -13.9704 -0.340 -0.797 0.499 76 14 2 0 0
-0.3410 -1.3091 -14.6817 -0.375 -0.910 0.175 52 34 32 0 0
-0.3474 -1.3236 -14.7089 -0.481 -0.865 0.147 47 35 35 0 0
-0.3412 -1.2867 -15.4788 -0.396 -0.909 -0.127 50 42 46 0 0
-0.6628 -2.0192 -16.8181 -0.853 -0.364 0.375 172 172 170 0 0
0.0091 -0.4465 -12.8589 -0.209 -0.898 0.388 122 43 26 0 0
-0.0183 -0.5131 -12.8335 -0.036 -0.825 0.564 120 42 24 0 0
-0.0891 -0.6811 -12.9024 0.283 -0.315 0.906 119 46 25 0 0
-0.3553 -1.2863 -14.0058 -0.510 -0.689 0.515 73 13 2 0 0
-0.3692 -1.2854 -15.0980 -0.611 -0.519 0.598 118 58 46 0 0
-0.6964 -2.0263 -16.5367 -0.341 -0.471 0.814 160 160 161 0 0
-0.6787 -1.9753 -16.8109 -0.899 -0.420 -0.123 171 172 171 0 0
-0.7109 -2.0546 -16.7512 0.593 0.400 0.698 173 175 174 0 0
0.3756 0.5043 -12.6105 0.306 -0.435 0.847 124 51 36 0 0
0.3425 0.4260 -12.6555 0.438 -0.706 0.556 125 52 36 0 0
-0.3818 -1.2733 -14.0072 -0.473 -0.693 0.544 87 21 3 0 0
-0.3842 -1.2777 -14.0444 -0.289 -0.835 0.468 88 27 11 0 0
-0.3856 -1.2736 -14.2611 -0.623 -0.753 0.213 109 61 43 0 0
-0.3890 -1.2807 -14.2959 -0.623 -0.753 0.213 108 61 37 0 0
-0.4013 -1.2783 -15.2287 -0.105 -0.898 0.428 106 49 34 0 0
-0.7499 -2.0676 -16.7158 -0.551 -0.671 0.497 175 177 176 0 0
-0.4110 -1.2589 -14.2217 0.024 -1.000 0.004 109 67 48 0 0
-0.4213 -1.2629 -14.7823 -0.433 -0.895 0.111 111 59 42 0 0
-0.4267 -1.2748 -14.8128 -0.474 -0.865 0.165 111 59 39 0 0
-0.4241 -1.2613 -15.0077 -0.443 -0.894 0.073 64 39 36 0 0
-0.4275 -1.2628 -15.1871 -0.280 -0.921 0.271 106 50 37 0 0
-0.7106 -1.8853 -16.8504 0.039 -0.345 0.938 169 171 170 0 0
-0.0205 -0.2940 -12.7400 -0.233 -0.374 0.898 130 54 34 0 0
-0.2350 -0.8075 -12.8990 0.180 -0.357 0.917 118 44 25 0 0
-0.4436 -1.2606 -14.2067 -0.208 -0.978 0.035 80 41 25 0 0
-0.4448 -1.2618 -14.2480 -0.208 -0.978 0.035 83 42 27 0 0
-0.4591 -1.2574 -15.2248 -0.077 -0.974 0.212 119 63 45 0 0
0.7973 1.7665 -12.6550 -0.802 -0.053 0.595 111 52 41 0 0
0.1408 0.1730 -12.7017 -0.185 -0.442 0.878 125 48 30 0 0
-0.0633 -0.3196 -12.7816 -0.114 -0.444 0.889 120 42 24 0 0
-0.0740 -0.3451 -12.7957 -0.114 -0.444 0.889 127 48 31 0 0
-0.2342 -0.7306 -12.8862 0.550 -0.303 0.778 118 43 24 0 0
-0.2667 -0.8095 -12.8858 0.431 -0.471 0.770 120 45 26 0 0
-0.4826 -1.2375 -15.1430 -0.149 -0.916 0.372 81 42 24 0 0
-0.7560 -1.8313 -16.7883 -0.268 -0.960 0.081 168 170 169 0 0
-0.7597 -1.8384 -16.8296 -0.438 -0.899 0.008 171 173 172 0 0
0.7788 1.8047 -12.6759 -0.745 -0.122 0.656 113 51 40 0 0
-0.1008 -0.3337 -12.7956 -0.106 -0.699 0.707 123 44 27 0 0
-0.1404 -0.4308 -12.7800 0.274 -0.601 0.751 124 45 28 0 0
-0.3416 -0.9164 -12.8845 -0.014 -0.684 0.729 121 44 25 0 0
-0.3288 -0.8819 -12.9576 -0.552 -0.094 0.829 118 42 25 0 0
-0.4488 -1.1470 -13.5575 -0.074 -0.927 0.369 82 40 30 0 0
-0.4539 -1.1581 -13.5863 -0.074 -0.927 0.369 81 42 33 0 0
-0.4825 -1.2156 -13.8527 -0.629 -0.716 0.301 117 65 42 0 0
-0.4918 -1.1425 -15.9435 -0.052 -0.553 0.831 55 39 36 0 0
0.7583 1.8382 -12.6929 -0.745 -0.122 0.656 114 49 37 0 0
0.7451 1.8065 -12.7056 -0.417 -0.055 0.907 117 51 37 0 0
-0.0876 -0.2275 -12.7314 -0.348 -0.392 0.851 130 50 33 0 0
-0.0978 -0.2519 -12.7468 -0.348 -0.392 0.851 130 50 33 0 0
-0.1089 -0.2783 -12.7602 -0.128 -0.207 0.970 130 49 32 0 0
-0.2892 -0.7171 -12.8000 -0.406 -0.226 0.885 121 44 24 0 0
-0.3575 -0.8806 -12.8701 0.041 -0.509 0.860 118 41 23 0 0
-0.3478 -0.8537 -12.9355 -0.581 -0.565 0.586 115 40 21 0 0
-0.3549 -0.8699 -12.9581 -0.581 -0.565 0.586 116 41 22 0 0
-0.5034 -1.1798 -14.0461 -0.591 -0.424 0.686 112 58 28 0 0
-0.5089 -1.1919 -14.0749 -0.671 -0.611 0.419 116 63 26 0 0
0.7788 1.9704 -12.6743 -0.519 0.195 0.833 115 65 59 0 0
-0.1970 -0.4186 -12.7315 -0.288 -0.489 0.824 130 52 31 0 0
-0.3392 -0.7624 -12.8214 -0.448 -0.701 0.554 121 44 26 0 0
-0.4710 -1.0693 -13.1356 -0.634 -0.643 0.430 98 40 29 0 0
-0.4910 -1.1146 -13.2072 -0.391 -0.763 0.515 77 26 17 0 0
-0.5053 -1.1321 -13.5489 -0.043 -0.837 0.545 107 53 33 0 0
-0.5111 -1.1246 -13.9683 -0.637 -0.577 0.511 99 50 29 0 0
-0.5377 -1.0882 -15.9321 -0.286 -0.562 0.776 92 46 40 0 0
-0.5510 -1.1205 -15.9400 -0.032 -0.491 0.871 48 38 34 0 0
0.7580 2.0035 -12.6908 -0.496 0.300 0.815 112 58 51 0 0
-0.3635 -0.7459 -12.8264 -0.377 -0.770 0.514 119 42 24 0 0
-0.3996 -0.8352 -12.8156 -0.154 -0.355 0.922 117 42 22 0 0
-0.4055 -0.8482 -12.8412 0.251 -0.517 0.819 114 38 22 0 0
-0.4167 -0.8730 -12.8937 -0.795 -0.552 0.253 110 35 15 0 0
-0.5256 -1.1201 -13.2688 -0.524 -0.749 0.405 96 48 34 0 0
-0.5296 -1.1283 -13.3000 -0.387 -0.839 0.382 98 50 36 0 0
-0.5330 -1.1255 -13.5033 -0.273 -0.859 0.432 104 53 36 0 0
-0.5380 -1.1362 -13.5323 -0.265 -0.806 0.529 109 58 38 0 0
-0.5503 -1.0380 -15.8832 -0.591 -0.745 0.309 98 36 26 0 0
-0.5534 -1.0434 -15.9243 -0.503 -0.590 0.632 104 38 29 0 0
-0.5733 -1.0903 -15.9620 -0.370 -0.582 0.724 47 37 35 0 0
-0.5811 -1.1079 -15.9880 -0.411 -0.466 0.783 36 35 36 0 0
0.7803 2.1460 -12.7565 -0.373 0.409 0.833 118 75 69 0 0
-0.1402 -0.1276 -12.6775 -0.268 -0.737 0.620 128 50 28 0 0
-0.1996 -0.2730 -12.6943 -0.132 -0.525 0.841 130 52 30 0 0
-0.2044 -0.2832 -12.7229 -0.231 -0.636 0.736 130 52 30 0 0
-0.5386 -1.0614 -13.5184 0.335 -0.820 0.464 94 44 32 0 0
-0.5461 -1.0786 -13.5407 0.279 -0.806 0.521 92 41 28 0 0
-0.6154 -1.2150 -14.1369 -0.215 -0.930 0.297 104 55 39 0 0
-0.5736 -1.0193 -15.7488 0.158 -0.984 0.079 78 42 32 0 0
-0.5920 -1.0532 -15.9447 -0.534 -0.418 0.735 84 48 42 0 0
0.7381 2.1269 -12.7697 -0.423 0.430 0.797 113 54 44 0 0
-0.0100 0.2679 -12.6092 0.169 -0.369 0.914 129 52 34 0 0
-0.1702 -0.1268 -12.6295 -0.297 -0.837 0.460 129 51 29 0 0
-0.1914 -0.1752 -12.6987 0.034 -0.562 0.826 130 52 30 0 0
-0.2322 -0.2748 -12.7199 -0.089 -0.923 0.375 132 53 31 0 0
-0.4543 -0.8207 -12.7692 -0.103 -0.743 0.661 122 45 24 0 0
-0.6077 -1.1354 -13.8356 -0.426 -0.858 0.286 100 49 29 0 0
-0.6342 -1.1893 -14.0262 -0.605 -0.651 0.458 79 16 5 0 0
-0.6493 -1.1990 -14.4837 -0.258 -0.801 0.540 40 40 43 0 0
-0.6245 -1.1132 -14.8895 -0.330 -0.547 0.769 102 53 41 0 0
-0.6094 -1.0126 -15.9316 -0.557 -0.493 0.668 95 42 30 0 0
-0.9772 -1.8770 -16.6739 0.562 0.211 0.800 178 179 181 0 0
0.7516 2.2482 -12.8180 -0.335 0.484 0.808 109 57 47 0 0
-0.2631 -0.2742 -12.7096 -0.304 -0.441 0.845 130 49 28 0 0
-0.3141 -0.4012 -12.7043 0.210 -0.466 0.859 128 50 28 0 0
-0.4784 -0.7961 -12.8974 -0.377 -0.926 0.028 124 49 29 0 0
-0.4662 -0.7586 -13.0120 -0.330 -0.737 0.589 123 40 20 0 0
-0.4753 -0.7801 -13.0296 -0.302 -0.381 0.874 147 68 48 0 0
-0.6839 -1.2266 -14.1402 -0.613 -0.494 0.617 105 57 47 0 0
-0.6872 -1.2297 -14.2214 -0.487 -0.873 0.010 98 50 40 0 0
-0.6596 -1.1016 -15.1584 -0.606 -0.790 -0.089 99 55 44 0 0
-0.6467 -1.0578 -15.3471 -0.359 -0.921 -0.150 81 44 28 0 0
-0.6448 -1.0495 -15.4030 -0.359 -0.921 -0.150 114 66 50 0 0
-0.6297 -0.9798 -15.9089 -0.503 -0.775 0.382 99 39 30 0 0
-0.6464 -1.0183 -15.9570 -0.413 -0.389 0.823 71 43 40 0 0
-0.6189 -0.9241 -16.3648 -0.759 -0.520 -0.391 33 32 30 0 0
-0.6898 -1.1671 -14.0669 -0.423 -0.852 0.309 95 26 10 0 0
-0.6737 -1.0414 -15.3521 0.002 -0.993 -0.117 86 48 33 0 0
-0.6647 -0.9799 -15.9412 -0.335 -0.744 0.578 91 44 35 0 0
-0.6723 -0.9971 -15.9678 -0.335 -0.744 0.578 65 41 40 0 0
-0.6908 -1.0366 -16.0628 0.130 -0.524 0.842 34 34 34 0 0
-0.7152 -1.1507 -14.0721 -0.304 -0.930 0.208 98 30 14 0 0
-0.7319 -1.1832 -14.2048 -0.767 -0.605 0.216 100 52 41 0 0
-0.7342 -1.1862 -14.2439 -0.733 -0.674 -0.090 113 61 44 0 0
-0.7052 -1.0581 -15.0457 -0.801 -0.561 0.209 111 61 47 0 0
-0.7092 -1.0657 -15.0818 -0.801 -0.561 0.209 117 64 48 0 0
-0.7069 -1.0386 -15.3868 -0.068 -0.991 -0.112 114 62 46 0 0
-0.7060 -1.0327 -15.4399 -0.068 -0.991 -0.112 101 56 44 0 0
-0.6856 -0.9701 -15.6077 -0.769 -0.317 0.555 105 57 42 0 0
-0.6234 -0.7419 -16.6607 0.590 -0.767 0.251 28 27 25 0 0
-0.6851 -1.0669 -13.0958 -0.048 -0.998 -0.035 65 44 41 0 0
-0.7387 -1.1425 -13.9015 -0.213 -0.455 0.865 88 29 19 0 0
-0.7301 -1.0408 -15.0070 0.114 -0.929 0.353 102 55 42 0 0
-0.7359 -1.0387 -15.2351 -0.386 -0.922 0.026 110 66 52 0 0
-0.7112 -0.9491 -15.6181 -0.664 -0.548 0.509 109 60 48 0 0
-0.7204 -0.9481 -15.9496 -0.417 -0.732 0.539 90 50 40 0 0
-0.7262 -0.9602 -15.9825 -0.261 -0.831 0.492 52 38 37 0 0
-0.1895 0.2174 -12.6247 -0.469 -0.548 0.692 130 52 32 0 0
-0.3473 -0.1770 -12.6431 0.124 -0.647 0.753 125 43 22 0 0
-0.7191 -1.0831 -12.9900 0.588 -0.707 0.394 83 46 42 0 0
-0.7088 -1.0520 -13.0604 -0.268 -0.961 0.072 64 44 43 0 0
-0.7080 -1.0466 -13.1051 -0.281 -0.959 0.042 53 47 48 0 0
-0.7655 -1.1306 -13.9019 -0.261 -0.535 0.804 84 23 12 0 0
-0.7721 -1.0959 -14.5770 -0.544 -0.075 0.836 45 41 42 0 0
-0.7613 -1.0370 -14.9974 -0.280 -0.959 0.048 105 57 44 0 0
-0.7488 -0.9214 -16.1109 -0.708 -0.704 -0.048 35 35 38 0 0
-0.7360 -0.8657 -16.4235 0.320 -0.921 -0.223 26 26 24 0 0
0.5027 2.0393 -12.6382 -0.404 -0.310 0.860 114 50 38 0 0
0.4824 1.9878 -12.6351 -0.052 -0.078 0.996 115 50 38 0 0
-0.1081 0.5032 -12.6416 0.097 -0.610 0.786 128 51 33 0 0
-0.2071 0.2516 -12.6070 0.125 -0.842 0.525 130 51 34 0 0
-0.2141 0.2356 -12.6305 0.236 -0.773 0.588 130 52 33 0 0
-0.3895 -0.2045 -12.6448 0.180 -0.753 0.633 136 54 33 0 0
-0.4404 -0.3296 -12.6795 0.021 -0.239 0.971 136 54 33 0 0
-0.7390 -1.0615 -12.9231 -0.633 -0.681 0.368 93 30 17 0 0
-0.7280 -1.0281 -12.9955 0.212 -0.510 0.834 90 49 39 0 0
-0.7484 -1.0773 -13.0232 -0.028 -0.916 0.400 52 47 50 0 0
-0.7952 -1.1265 -13.8938 0.003 -0.615 0.789 79 19 5 0 0
-0.7960 -1.0159 -15.3245 -0.362 -0.930 -0.055 104 61 50 0 0
-0.7801 -0.9269 -15.9451 -0.133 -0.813 0.567 78 45 38 0 0
-0.7873 -0.9427 -15.9733 -0.131 -0.832 0.539 44 35 34 0 0
-0.7700 -0.8652 -16.4083 0.071 -0.970 -0.233 26 26 24 0 0
-1.1997 -1.9083 -16.8840 0.596 -0.697 0.398 194 194 194 0 0
-0.2379 0.2528 -12.5976 0.125 -0.842 0.525 130 51 34 0 0
-0.4006 -0.1538 -12.6432 -0.572 -0.283 0.770 129 47 26 0 0
-0.8080 -1.0531 -14.2124 -0.393 -0.812 0.432 111 62 48 0 0
-0.7988 -0.8721 -16.1407 -0.698 -0.709 -0.096 35 34 37 0 0
0.5229 2.2649 -12.6826 -0.278 0.396 0.875 109 53 43 0 0
-0.3650 0.0146 -12.6360 -0.295 -0.515 0.805 130 49 28 0 0
-0.6856 -0.7100 -13.6549 -0.828 0.159 0.537 3 3 3 0 0
-0.6886 -0.7146 -13.6909 -0.933 0.009 0.361 3 3 3 0 0
-0.7331 -0.8230 -13.7408 -0.659 0.018 0.752 37 17 14 0 0
-0.8420 -1.0521 -14.2854 -0.364 -0.845 0.393 116 64 49 0 0
-0.8342 -0.9126 -15.6961 -0.865 -0.473 0.165 105 55 44 0 0
-0.2900 0.2851 -12.6432 0.021 -0.141 0.990 128 50 28 0 0
-0.3087 0.2372 -12.6380 -0.119 -0.306 0.944 129 51 29 0 0
-0.3793 0.0570 -12.6262 -0.112 -0.380 0.918 134 53 32 0 0
-0.6961 -0.6520 -13.7028 -0.340 0.064 0.938 3 3 3 0 0
-0.7074 -0.6796 -13.7150 -0.722 -0.209 0.660 3 3 3 0 0
-0.7229 -0.7190 -13.7149 0.202 0.122 0.972 3 3 3 0 0
-0.7123 -0.6854 -13.7908 -0.448 0.402 0.798 3 3 4 0 0
-0.8709 -1.0445 -14.2808 -0.598 -0.751 0.279 117 66 51 0 0
-0.8751 -0.9065 -15.9719 -0.072 -0.938 0.339 39 34 35 0 0
0.3934 2.1054 -12.6506 -0.414 -0.008 0.910 118 52 39 0 0
-0.2877 0.3707 -12.6335 -0.014 -0.101 0.995 131 53 31 0 0
-0.3027 0.3329 -12.6376 -0.014 -0.101 0.995 131 53 31 0 0
-0.8268 -0.9744 -12.9268 -0.150 -0.653 0.742 86 22 7 0 0
-0.7028 -0.5909 -13.6724 -0.479 -0.861 -0.170 42 42 47 0 0
-0.7059 -0.5955 -13.7084 -0.523 -0.847 0.098 28 28 30 0 0
-0.7927 -0.8107 -13.7701 -0.367 0.296 0.882 37 9 6 0 0
-0.8915 -0.8815 -15.7506 -0.923 -0.117 0.367 85 42 32 0 0
-0.8785 -0.7953 -16.3345 -0.345 -0.834 -0.430 35 34 32 0 0
0.5386 2.5784 -12.8225 0.008 0.447 0.895 109 65 59 0 0
-0.3407 0.3103 -12.5692 -0.177 -0.652 0.737 130 52 30 0 0
-0.3493 0.2902 -12.5889 -0.074 -0.765 0.640 130 52 30 0 0
-0.3587 0.2679 -12.6067 -0.235 -0.608 0.758 131 51 30 0 0
-0.7449 -0.6042 -13.8099 0.369 -0.792 0.486 4 3 3 0 0
-0.9015 -0.9919 -13.9351 -0.678 -0.383 0.627 110 52 19 0 0
-0.9225 -1.0077 -14.3380 -0.732 -0.542 0.413 57 32 26 0 0
-0.8908 -0.8038 -15.6418 0.335 -0.929 0.157 106 60 42 0 0
-0.9069 -0.8251 -15.8508 -0.648 -0.630 0.429 76 21 6 0 0
-0.8978 -0.7633 -16.2611 -0.264 -0.930 -0.257 35 33 34 0 0
-0.9290 -0.8380 -16.3145 -0.386 -0.869 -0.309 29 27 28 0 0
-0.3625 0.3367 -12.5822 -0.301 -0.554 0.776 128 49 28 0 0
-0.3706 0.3178 -12.6031 -0.564 -0.743 0.361 129 50 28 0 0
-0.3853 0.2809 -12.6078 -0.270 -0.577 0.771 129 51 29 0 0
-0.5015 -0.0131 -12.6437 -0.368 -0.592 0.717 133 52 31 0 0
-0.8879 -0.9727 -12.9443 -0.642 -0.348 0.683 94 55 44 0 0
-0.9700 -1.0346 -14.4661 -0.164 -0.982 0.099 113 55 44 0 0
-0.9279 -0.8151 -15.6137 0.116 -0.960 0.254 104 56 39 0 0
-0.9286 -0.7543 -16.2566 -0.218 -0.948 -0.233 35 33 34 0 0
-0.9362 -0.7711 -16.2844 -0.088 -0.941 -0.327 35 34 33 0 0
-0.9585 -0.8250 -16.3149 -0.048 -0.932 -0.359 28 26 29 0 0
-1.6898 -2.6448 -16.8505 0.428 -0.418 0.802 206 206 207 0 0
-0.9723 -1.0028 -14.0227 -0.252 -0.690 0.678 68 11 7 0 0
-0.9840 -0.9185 -15.1573 -0.647 -0.762 -0.028 81 48 39 0 0
-0.9650 -0.7615 -16.2322 -0.566 -0.800 -0.199 35 33 34 0 0
-0.9687 -0.7670 -16.2739 -0.479 -0.801 -0.358 36 34 33 0 0
-1.2894 -1.5295 -16.8770 0.339 -0.632 0.697 182 182 184 0 0
-0.7142 -0.3958 -12.6822 -0.085 -0.369 0.926 133 53 31 0 0
-0.9162 -0.8994 -12.8415 -0.263 -0.710 0.653 87 20 10 0 0
-0.8050 -0.5296 -13.6466 0.269 -0.637 0.722 43 44 49 0 0
-0.9997 -0.9920 -14.0218 -0.252 -0.690 0.678 70 12 8 0 0
-1.3145 -1.5041 -16.8943 -0.229 -0.735 0.638 183 183 185 0 0
0.2948 2.2831 -12.6266 0.418 -0.776 0.472 112 49 39 0 0
-1.0398 -0.8471 -15.5780 0.442 -0.303 0.844 112 60 44 0 0
-0.5815 0.1017 -12.6304 -0.057 -0.566 0.822 133 51 30 0 0
-0.9962 -0.9534 -12.8038 -0.356 -0.845 0.399 101 24 6 0 0
-0.9447 -0.7097 -13.8024 -0.223 -0.231 0.947 29 4 5 0 0
-1.0747 -0.8531 -15.5562 0.127 -0.863 0.489 108 57 42 0 0
-1.0753 -0.8012 -16.0414 -0.798 -0.342 0.497 38 34 35 0 0
-0.5292 0.3134 -12.5844 -0.401 -0.182 0.898 132 50 29 0 0
-0.8526 -0.5147 -12.6882 -0.115 -0.126 0.985 132 50 29 0 0
-0.9135 -0.6683 -12.7300 0.324 -0.583 0.745 123 42 25 0 0
-0.9602 -0.6690 -13.7919 0.099 -0.277 0.956 35 11 9 0 0
-0.9731 -0.7016 -13.7986 -0.283 -0.317 0.905 32 6 5 0 0
-1.0776 -0.9466 -14.0330 -0.419 -0.671 0.612 72 12 4 0 0
-0.5248 0.4066 -12.5816 -0.403 0.071 0.913 131 49 28 0 0
-0.5607 0.3169 -12.6147 -0.528 -0.201 0.825 131 49 28 0 0
-1.1047 -0.9346 -14.0333 -0.303 -0.700 0.647 74 14 4 0 0
-1.1093 -0.8088 -15.2141 -0.492 -0.866 -0.089 59 46 47 0 0
-0.3953 0.8248 -12.5602 0.223 -0.579 0.784 129 52 34 0 0
-0.6053 0.2821 -12.6107 0.429 -0.658 0.620 132 50 29 0 0
-0.6889 0.0674 -12.6428 -0.160 -0.451 0.878 130 48 27 0 0
-1.1237 -0.9042 -14.0119 -0.381 -0.454 0.805 68 14 7 0 0
-1.1324 -0.9246 -14.0315 -0.258 -0.679 0.688 83 22 10 0 0
-1.1224 -0.6987 -15.6953 -0.561 -0.449 0.696 105 55 40 0 0
-1.5357 -1.6360 -16.8843 -0.372 -0.928 -0.028 191 191 193 0 0
-0.4244 0.8317 -12.5558 -0.109 -0.428 0.897 129 52 34 0 0
-1.1497 -0.8891 -14.0157 -0.381 -0.454 0.805 66 13 5 0 0
-1.1666 -0.7857 -15.2126 -0.376 -0.926 -0.002 56 45 51 0 0
-1.1504 -0.6832 -15.6990 -0.314 -0.682 0.661 103 57 40 0 0
-1.1657 -0.7236 -15.6978 -0.304 -0.924 0.231 91 52 42 0 0
-1.5592 -1.6128 -16.8483 -0.287 -0.956 0.057 191 191 193 0 0
-1.5738 -1.6365 -16.9685 0.308 -0.737 0.601 194 194 194 0 0
-0.6306 0.3793 -12.6012 -0.198 -0.591 0.782 134 53 32 0 0
-1.0326 -0.5358 -13.7182 -0.237 -0.794 0.561 40 32 30 0 0
-1.0475 -0.5691 -13.7652 -0.318 -0.775 0.546 46 38 35 0 0
-1.0690 -0.6222 -13.7917 0.102 -0.348 0.932 41 14 9 0 0
-1.1932 -0.8591 -14.5000 -0.292 -0.893 0.342 101 55 41 0 0
-1.2019 -0.8474 -14.7731 -0.196 -0.971 0.135 116 68 52 0 0
-1.1783 -0.6675 -15.7029 -0.505 -0.698 0.508 104 58 42 0 0
-1.1912 -0.6151 -16.3846 -0.288 -0.827 -0.483 27 26 24 0 0
-0.9691 -0.4190 -12.6872 -0.443 -0.229 0.867 129 47 26 0 0
-1.0560 -0.5185 -13.6833 -0.102 -0.723 0.684 50 44 40 0 0
-1.0603 -0.5256 -13.7166 -0.404 -0.719 0.566 34 28 23 0 0
-1.0975 -0.6146 -13.7874 -0.586 -0.264 0.766 40 12 8 0 0
-1.2412 -0.8096 -15.2018 0.143 -0.986 0.086 53 46 45 0 0
-1.1964 -0.6283 -15.6880 -0.194 -0.933 0.302 113 61 45 0 0
-1.2050 -0.6480 -15.7113 -0.511 -0.745 0.429 103 59 45 0 0
-1.2288 -0.6642 -16.0688 -0.088 -0.995 -0.042 37 36 34 0 0
-1.2069 -0.5657 -16.3809 -0.374 -0.846 -0.379 33 32 30 0 0
-1.1952 -0.5217 -16.4837 -0.488 -0.776 -0.399 27 26 24 0 0
-0.6651 0.4499 -12.5678 -0.172 0.036 0.984 132 51 30 0 0
-0.7572 0.2019 -12.5347 -0.430 -0.674 0.600 134 52 31 0 0
-0.7644 0.1861 -12.5579 0.049 -0.808 0.587 135 53 32 0 0
-0.7716 0.1699 -12.5808 0.108 -0.816 0.568 131 49 28 0 0
-0.9872 -0.3887 -12.6674 -0.534 -0.424 0.732 132 50 27 0 0
-1.1608 -0.8284 -12.8115 -0.476 -0.820 0.317 105 23 3 0 0
-1.1319 -0.7169 -13.0752 0.074 -0.926 -0.370 61 48 46 0 0
-1.1125 -0.5654 -13.8263 0.028 -0.849 0.528 41 12 8 0 0
-1.2394 -0.8071 -14.5313 -0.197 -0.500 0.843 104 58 43 0 0
-1.2608 -0.8329 -14.7624 -0.043 -0.980 0.193 123 68 50 0 0
-1.2599 -0.7742 -15.1837 -0.082 -0.924 0.373 52 47 47 0 0
-1.2727 -0.8071 -15.1906 0.133 -0.953 0.272 53 46 46 0 0
-1.2267 -0.6198 -15.6834 -0.138 -0.981 0.138 112 61 45 0 0
-1.2328 -0.6316 -15.7160 -0.511 -0.745 0.429 101 57 44 0 0
-1.2308 -0.6179 -15.7788 0.095 -0.789 0.608 87 48 40 0 0
-1.2614 -0.6618 -16.0564 -0.088 -0.995 -0.042 37 36 34 0 0
-1.7180 -1.7725 -16.7816 -0.275 0.320 0.907 196 196 196 0 0
-0.7933 0.1913 -12.5520 -0.544 -0.561 0.624 135 53 32 0 0
-0.8009 0.1741 -12.5741 -0.544 -0.561 0.624 128 46 25 0 0
-0.8122 0.1456 -12.5859 -0.164 -0.382 0.909 131 49 28 0 0
-0.8235 0.1172 -12.5977 0.107 -0.268 0.957 134 53 31 0 0
-1.1743 -0.7788 -12.8492 -0.017 -0.721 0.693 104 23 3 0 0
-1.2584 -0.8358 -14.0642 -0.183 -0.742 0.645 81 19 6 0 0
-1.2846 -0.8150 -14.7254 -0.463 -0.886 0.015 103 62 48 0 0
-1.2859 -0.8118 -14.7726 -0.574 -0.739 0.354 124 67 48 0 0
-1.3123 -0.8305 -15.1495 -0.123 -0.924 0.363 53 46 48 0 0
-1.2485 -0.5920 -15.6551 -0.467 -0.871 0.151 119 66 47 0 0
-1.2531 -0.5990 -15.6933 -0.741 -0.574 0.349 111 60 44 0 0
-1.2608 -0.6159 -15.7198 -0.523 -0.825 0.215 100 56 42 0 0
-1.2931 -0.6721 -15.9341 -0.249 -0.960 0.130 40 35 37 0 0
-1.3016 -0.6838 -16.0148 0.235 -0.932 0.277 37 36 34 0 0
-0.8283 0.1835 -12.5720 -0.624 -0.460 0.632 128 46 25 0 0
-1.1282 -0.4678 -13.6184 -0.465 -0.768 0.441 56 52 48 0 0
-1.2864 -0.8266 -14.0615 -0.183 -0.742 0.645 83 21 9 0 0
-1.2964 -0.7881 -14.5259 -0.666 -0.513 0.542 98 55 41 0 0
-1.2936 -0.7723 -14.5864 -0.426 -0.904 -0.016 98 56 42 0 0
-0.8481 0.2102 -12.5482 -0.163 -0.561 0.812 131 49 28 0 0
-0.8599 0.1804 -12.5588 -0.151 -0.413 0.898 132 50 29 0 0
-1.0641 -0.3606 -12.5866 -0.086 -0.626 0.775 134 53 28 0 0
-1.0729 -0.3815 -12.6045 -0.086 -0.626 0.775 133 51 27 0 0
-1.0985 -0.4419 -12.6601 -0.204 -0.293 0.934 123 44 26 0 0
-1.2693 -0.7379 -13.7730 -0.071 -0.754 0.653 144 93 54 0 0
-1.2760 -0.7520 -13.7990 -0.070 -0.817 0.573 89 39 14 0 0
-1.3012 -0.7966 -13.9569 -0.442 -0.411 0.797 71 14 5 0 0
-1.3144 -0.8173 -14.0589 -0.183 -0.742 0.645 83 21 8 0 0
-1.3212 -0.8176 -14.1838 -0.405 -0.836 0.370 101 60 50 0 0
-1.3212 -0.7668 -14.5362 -0.666 -0.513 0.542 96 53 38 0 0
-1.3320 -0.7494 -14.8596 -0.823 -0.539 0.180 101 57 45 0 0
-1.3613 -0.6707 -15.9530 -0.005 -0.986 0.164 37 35 36 0 0
-1.3229 -0.5384 -16.1597 -0.393 -0.919 -0.021 37 35 35 0 0
0.1144 2.8939 -12.7134 -0.943 0.091 0.321 106 63 57 0 0
-0.8604 0.2602 -12.5451 -0.249 -0.432 0.867 137 55 34 0 0
-0.8754 0.2202 -12.5467 -0.163 -0.561 0.812 133 51 30 0 0
-0.8868 0.1914 -12.5582 -0.151 -0.413 0.898 133 51 30 0 0
-1.1001 -0.3731 -12.6016 -0.194 -0.516 0.835 133 53 28 0 0
-1.1313 -0.4510 -12.6408 -0.502 -0.542 0.674 125 46 28 0 0
-1.1789 -0.4331 -13.6298 -0.518 -0.591 0.618 53 48 45 0 0
-1.1880 -0.4477 -13.6957 -0.068 -0.905 0.419 44 37 32 0 0
-1.2087 -0.4918 -13.7722 0.129 -0.781 0.611 49 32 23 0 0
-1.3356 -0.7935 -14.0303 -0.155 -0.761 0.630 72 13 9 0 0
-1.3462 -0.7462 -14.5458 -0.495 -0.689 0.528 93 47 34 0 0
-1.3782 -0.6181 -16.0012 0.159 -0.943 0.291 37 35 36 0 0
-1.3511 -0.4872 -16.3991 0.029 -0.926 0.377 28 27 25 0 0
-1.2046 -0.4168 -13.6345 -0.517 -0.500 0.695 53 48 44 0 0
-1.2153 -0.4433 -13.6478 -0.481 -0.460 0.746 44 39 34 0 0
-1.3563 -0.4985 -15.7993 0.089 -0.068 0.994 89 52 41 0 0
0.0925 3.0261 -12.7561 -0.973 -0.057 0.225 115 79 75 0 0
-1.1901 -0.4418 -12.6655 -0.199 -0.690 0.696 124 47 29 0 0
-1.3065 -0.7208 -12.8887 -0.148 -0.787 0.598 94 34 18 0 0
-1.2029 -0.3202 -13.6800 0.095 -0.444 0.891 18 12 14 0 0
-1.2244 -0.3813 -13.6585 -0.225 -0.756 0.615 52 45 43 0 0
-1.3933 -0.7579 -14.1682 -0.374 -0.758 0.534 104 58 47 0 0
-1.4262 -0.8563 -14.1038 0.034 -0.677 0.735 96 55 45 0 0
-1.3778 -0.4696 -15.7719 0.310 -0.503 0.807 107 61 43 0 0
-1.3958 -0.4213 -16.3997 0.277 -0.468 0.839 33 32 30 0 0
-1.4025 -0.4345 -16.4322 -0.110 -0.994 0.012 29 27 26 0 0
0.0809 3.0943 -12.7981 -0.963 -0.026 0.268 107 67 61 0 0
-0.7423 0.8280 -12.5252 -0.006 -0.262 0.965 127 49 27 0 0
-1.0474 0.0142 -12.5910 -0.209 -0.235 0.949 134 52 31 0 0
-1.3180 -0.5227 -13.8262 -0.113 -0.374 0.921 43 7 2 0 0
-1.4206 -0.7460 -14.1684 -0.412 -0.459 0.787 105 60 48 0 0
-1.4100 -0.4668 -15.7606 0.373 -0.744 0.555 107 61 45 0 0
-1.4176 -0.4832 -15.7879 0.072 -0.406 0.911 86 47 38 0 0
-1.4423 -0.4643 -16.3321 -0.688 -0.611 0.392 35 34 32 0 0
-1.4500 -0.4806 -16.3607 -0.765 -0.581 0.276 31 29 27 0 0
-0.9657 0.3123 -12.5499 0.157 -0.395 0.905 134 52 31 0 0
-1.2876 -0.3786 -13.6778 -0.536 -0.392 0.748 12 7 7 0 0
-1.3471 -0.5168 -13.8201 -0.236 -0.433 0.870 46 10 4 0 0
-1.4264 -0.7038 -13.9934 -0.269 -0.844 0.464 58 9 2 0 0
-1.4353 -0.4599 -15.6614 -0.380 -0.917 -0.118 99 52 40 0 0
-1.4831 -0.4694 -16.4073 -0.614 -0.729 0.301 34 30 29 0 0
-1.3298 -0.4857 -13.2021 -0.131 -0.826 -0.548 57 51 52 0 0
-1.3777 -0.5162 -13.8087 -0.026 -0.547 0.837 48 7 2 0 0
-1.4662 -0.7171 -14.0494 -0.384 -0.745 0.545 76 16 5 0 0
-1.4740 -0.7179 -14.1733 -0.250 -0.525 0.814 106 64 50 0 0
-1.4984 -0.4173 -16.4066 -0.915 -0.323 0.243 31 29 27 0 0
-1.0026 0.3818 -12.5536 -0.234 -0.483 0.843 134 52 31 0 0
-1.0247 0.3255 -12.5783 0.145 -0.175 0.974 134 52 31 0 0
-1.1273 0.0479 -12.5902 0.001 -0.506 0.863 133 52 31 0 0
-1.2748 -0.3536 -12.5935 -0.426 -0.806 0.410 131 50 26 0 0
-1.2850 -0.3792 -12.6068 -0.153 -0.535 0.831 128 48 27 0 0
-1.2644 -0.1329 -13.7397 -0.863 -0.220 0.455 29 27 28 0 0
-1.3664 -0.4022 -13.7917 -0.131 -0.394 0.910 50 26 21 0 0
-1.4158 -0.5320 -13.8208 -0.134 -0.639 0.757 87 26 9 0 0
-1.4997 -0.7093 -14.1282 -0.520 -0.724 0.453 100 54 38 0 0
-1.5012 -0.7057 -14.1738 -0.250 -0.525 0.814 106 65 48 0 0
-1.5226 -0.5902 -15.2100 -0.214 -0.973 0.085 110 54 45 0 0
-1.4979 -0.4209 -15.8169 -0.490 -0.149 0.859 75 37 28 0 0
-1.5238 -0.3895 -16.4248 -0.887 -0.401 0.228 29 28 26 0 0
-1.0317 0.3861 -12.5470 -0.094 -0.665 0.741 134 52 31 0 0
-1.0545 0.3277 -12.5699 0.210 -0.237 0.949 133 51 30 0 0
-1.3064 -0.3523 -12.6214 -0.014 -0.704 0.710 130 50 26 0 0
-1.4455 -0.7071 -12.7712 -0.398 -0.439 0.806 97 21 5 0 0
-1.2919 -0.1043 -13.8377 -0.553 0.161 0.818 4 2 3 0 0
-1.3796 -0.3689 -13.6922 0.030 -0.839 0.544 5 1 2 0 0
-1.3955 -0.3966 -13.7855 -0.109 -0.410 0.905 36 12 7 0 0
-1.5183 -0.6857 -14.0578 -0.253 -0.777 0.576 84 22 9 0 0
-1.5276 -0.6906 -14.1773 -0.304 -0.885 0.354 106 64 50 0 0
-1.5280 -0.4114 -15.8134 -0.563 -0.411 0.717 73 32 23 0 0
-1.5586 -0.4961 -15.8073 0.015 -0.476 0.879 99 48 28 0 0
-1.5353 -0.3344 -16.3791 -0.351 -0.084 0.933 35 35 33 0 0
-1.5497 -0.3737 -16.3801 -0.643 -0.765 -0.021 28 28 26 0 0
-1.5486 -0.3592 -16.4461 -0.755 -0.653 -0.058 29 28 26 0 0
-1.0341 0.4616 -12.5289 -0.095 0.058 0.994 134 52 31 0 0
-1.2000 0.0150 -12.5766 -0.046 -0.264 0.963 133 48 28 0 0
-1.4309 -0.6094 -12.6292 -0.024 -0.279 0.960 160 94 70 0 0
-1.4405 -0.6329 -12.6440 -0.619 -0.675 0.402 184 121 81 0 0
-1.4646 -0.6808 -12.7480 -0.433 -0.455 0.778 98 21 7 0 0
-1.4701 -0.6912 -12.7757 -0.344 -0.454 0.822 93 18 5 0 0
-1.4229 -0.3850 -13.7853 0.088 -0.315 0.945 34 11 6 0 0
-1.5632 -0.5963 -14.7785 -0.425 -0.905 -0.031 115 60 44 0 0
-1.5740 -0.5661 -15.1204 -0.374 -0.918 0.135 110 58 47 0 0
-1.5706 -0.4752 -15.5859 0.218 -0.258 0.941 99 55 42 0 0
-1.5755 -0.4617 -15.7401 -0.291 -0.723 0.627 73 30 21 0 0
-1.5859 -0.4773 -15.8147 -0.178 -0.750 0.637 99 49 28 0 0
-1.5627 -0.3130 -16.3895 -0.328 -0.098 0.939 35 35 33 0 0
-0.1158 3.0901 -12.6206 -0.791 -0.302 0.532 197 187 182 0 0
-0.4865 2.0561 -12.5412 0.268 -0.687 0.676 122 50 35 0 0
-1.0629 0.4669 -12.5232 -0.402 0.056 0.914 135 52 31 0 0
-1.0877 0.4016 -12.5401 -0.094 -0.665 0.741 132 50 29 0 0
-1.4399 -0.3476 -13.7708 -0.298 -0.645 0.704 26 11 10 0 0
-1.4497 -0.3716 -13.7869 -0.030 -0.408 0.913 32 8 4 0 0
-1.6014 -0.6949 -14.3149 -0.415 -0.862 0.291 125 64 44 0 0
-1.5903 -0.5809 -14.7823 -0.485 -0.873 -0.046 114 58 44 0 0
-1.5891 -0.5573 -14.8958 -0.529 -0.848 -0.037 106 64 49 0 0
-1.5919 -0.4467 -15.5587 -0.497 -0.784 0.373 108 59 44 0 0
-1.5969 -0.4536 -15.5966 -0.371 -0.494 0.786 100 54 41 0 0
-1.6059 -0.3361 -16.3947 -0.558 -0.817 -0.145 27 26 23 0 0
-0.1405 3.1185 -12.6321 -0.618 -0.624 0.479 182 167 162 0 0
-0.1145 3.2098 -12.7391 -0.829 -0.524 -0.194 111 72 66 0 0
-1.4863 -0.4006 -13.7050 -0.774 -0.317 0.548 29 12 10 0 0
-1.5860 -0.6208 -14.0067 -0.270 -0.852 0.449 62 10 6 0 0
-1.6193 -0.4290 -15.5649 -0.773 -0.506 0.383 106 57 42 0 0
-1.6314 -0.3076 -16.4136 -0.082 -0.990 -0.117 29 27 25 0 0
-0.1523 3.1882 -12.6747 -0.565 -0.777 0.277 158 135 132 0 0
-0.5623 2.0275 -12.5362 -0.305 -0.491 0.816 123 51 36 0 0
-0.5723 2.0032 -12.5545 -0.305 -0.491 0.816 124 53 35 0 0
-1.4331 -0.3467 -12.7339 -0.093 -0.642 0.761 132 52 34 0 0
-1.6440 -0.5382 -14.8464 -0.614 -0.776 -0.146 119 65 46 0 0
-0.1678 3.2469 -12.7090 -0.800 -0.559 0.217 131 104 101 0 0
-0.5813 2.0621 -12.5163 0.150 -0.359 0.921 119 47 32 0 0
-0.5867 2.0529 -12.5466 -0.135 -0.729 0.671 124 52 36 0 0
-1.1824 0.3977 -12.5430 -0.043 -0.719 0.694 136 54 33 0 0
-1.4536 -0.3329 -12.6611 -0.034 -0.354 0.935 123 46 24 0 0
-1.4670 -0.3697 -12.6640 -0.417 -0.803 0.425 121 44 26 0 0
-1.6726 -0.6098 -14.4109 -0.751 -0.616 0.238 109 55 38 0 0
-1.6779 -0.6081 -14.4977 -0.513 -0.847 0.140 119 66 48 0 0
-1.6953 -0.6178 -14.7015 -0.725 -0.470 0.504 108 58 44 0 0
-1.6664 -0.4953 -14.9244 -0.714 -0.694 -0.098 85 53 41 0 0
-1.6695 -0.4206 -15.3642 -0.253 -0.944 -0.210 112 63 43 0 0
-1.6649 -0.3380 -15.7332 -0.770 -0.142 0.622 92 51 43 0 0
-0.6192 2.0517 -12.5357 -0.299 -0.410 0.861 123 51 35 0 0
-0.6299 2.0251 -12.5521 -0.299 -0.410 0.861 124 53 35 0 0
-0.9758 1.0348 -12.4138 0.029 -0.393 0.919 128 53 33 0 0
-1.1925 0.4481 -12.5028 -0.164 -0.586 0.794 138 56 35 0 0
-1.2016 0.4263 -12.5208 -0.164 -0.586 0.794 140 58 37 0 0
-1.2463 0.3106 -12.5670 0.319 -0.280 0.905 134 52 31 0 0
-1.3689 -0.0244 -12.6001 0.074 -0.479 0.875 139 57 35 0 0
-1.4348 -0.2040 -12.6213 0.080 -0.562 0.823 131 44 24 0 0
-1.4764 -0.3102 -12.6718 -0.384 -0.718 0.581 121 43 25 0 0
-1.6976 -0.4172 -15.3091 -0.382 -0.915 -0.127 105 55 39 0 0
-1.2368 0.4185 -12.5407 0.016 -0.772 0.635 134 52 31 0 0
-1.3702 0.0549 -12.5873 -0.139 -0.412 0.901 134 49 29 0 0
-1.4970 -0.2884 -12.6441 -0.533 -0.469 0.704 119 38 19 0 0
-1.6087 -0.3717 -13.8078 0.024 -0.188 0.982 55 8 3 0 0
-1.6975 -0.5927 -13.9459 -0.440 -0.521 0.732 61 12 5 0 0
-1.7287 -0.3906 -15.4156 -0.376 -0.897 -0.232 78 43 33 0 0
-1.5122 -0.2481 -12.6337 -0.239 -0.613 0.753 120 38 18 0 0
-1.5195 -0.2643 -12.6559 -0.281 -0.571 0.772 129 49 29 0 0
-1.6243 -0.5153 -12.8694 -0.457 -0.844 0.280 93 33 19 0 0
-1.7238 -0.5777 -13.9493 -0.316 -0.680 0.661 60 12 6 0 0
-1.7496 -0.5530 -14.4338 -0.608 -0.793 -0.042 110 54 36 0 0
-1.7511 -0.5476 -14.4820 -0.559 -0.825 0.087 120 68 49 0 0
-1.7559 -0.5537 -14.5180 -0.453 -0.855 0.252 75 42 36 0 0
-1.7433 -0.4305 -14.9559 -0.517 -0.835 -0.186 73 42 41 0 0
-1.7506 -0.4114 -15.1538 -0.391 -0.902 0.184 101 55 41 0 0
-1.7579 -0.4031 -15.2972 -0.396 -0.896 -0.201 109 61 47 0 0
-1.7573 -0.3892 -15.3580 -0.379 -0.899 -0.218 94 53 38 0 0
-1.7564 -0.3745 -15.4198 -0.379 -0.899 -0.218 85 46 33 0 0
-1.7556 -0.3597 -15.4820 -0.379 -0.899 -0.218 115 66 51 0 0
-1.7355 -0.2506 -15.7445 0.151 -0.888 0.435 96 54 47 0 0
-0.9032 1.5109 -12.4442 -0.039 -0.426 0.904 125 52 35 0 0
-1.2363 0.5810 -12.4771 -0.583 -0.118 0.804 132 50 29 0 0
-1.3549 0.2572 -12.5256 0.328 -0.616 0.716 132 50 29 0 0
-1.4791 -0.0876 -12.5482 -0.473 -0.532 0.702 137 55 32 0 0
-1.5456 -0.2523 -12.6565 -0.281 -0.571 0.772 123 43 24 0 0
-1.7116 -0.4782 -13.8367 -0.007 -0.445 0.896 58 9 2 0 0
-1.7963 -0.5652 -14.5778 -0.390 -0.689 0.610 78 49 44 0 0
-1.7774 -0.3930 -15.1607 -0.203 -0.974 0.103 101 55 41 0 0
-0.9330 1.5161 -12.4385 -0.062 -0.502 0.862 125 52 35 0 0
-1.0154 1.2914 -12.4766 0.292 -0.289 0.912 128 53 34 0 0
-1.0194 1.2870 -12.5101 -0.172 -0.088 0.981 128 53 34 0 0
-1.1014 1.0446 -12.4560 -0.177 -0.530 0.829 129 52 32 0 0
-1.3706 0.3065 -12.5592 -0.666 -0.600 0.444 134 52 31 0 0
-1.6843 -0.5485 -12.7028 -0.497 -0.499 0.709 64 7 1 0 0
-1.5584 0.0713 -13.9756 -0.657 0.448 0.606 6 0 0 0 0
-1.8074 -0.3862 -15.1547 -0.203 -0.974 0.103 101 54 40 0 0
-1.7847 -0.1913 -15.7838 -0.368 -0.920 0.134 94 54 45 0 0
-0.9595 1.5324 -12.4419 0.010 -0.606 0.796 125 52 35 0 0
-1.0063 1.4004 -12.4453 -0.113 -0.861 0.497 129 57 42 0 0
-1.0133 1.3859 -12.4705 -0.120 -0.841 0.528 125 52 36 0 0
-1.0468 1.2998 -12.5107 -0.120 -0.077 0.990 127 52 33 0 0
-1.2482 0.7205 -12.4664 -0.383 -0.279 0.881 132 51 30 0 0
-1.2587 0.6935 -12.4801 -0.259 -0.297 0.919 134 52 31 0 0
-1.6968 -0.4893 -12.7486 -0.438 -0.597 0.672 72 14 6 0 0
-1.8028 -0.4995 -14.1179 -0.769 -0.335 0.545 106 52 38 0 0
-1.7965 -0.4653 -14.1955 -0.752 -0.590 0.295 106 60 48 0 0
-1.8099 -0.4912 -14.2514 -0.548 -0.836 0.025 112 63 48 0 0
-1.8145 -0.4854 -14.3414 -0.589 -0.808 0.002 114 57 44 0 0
-1.8179 -0.4862 -14.3827 -0.618 -0.785 -0.052 109 52 40 0 0
-1.8499 -0.3380 -15.5098 -0.479 -0.877 0.034 97 53 42 0 0
-1.0356 1.4069 -12.4407 -0.203 -0.798 0.568 126 54 39 0 0
-1.0429 1.3914 -12.4650 -0.203 -0.798 0.568 125 53 36 0 0
-1.5508 -0.0276 -12.5716 -0.595 -0.226 0.771 128 45 21 0 0
-1.8207 -0.4411 -14.2086 -0.752 -0.590 0.295 107 61 50 0 0
-1.8403 -0.4667 -14.3488 -0.589 -0.808 0.002 110 57 44 0 0
-1.8614 -0.4000 -14.9358 0.017 -0.987 -0.157 78 47 43 0 0
-1.8819 -0.3373 -15.4965 -0.623 -0.692 0.365 100 57 46 0 0
-1.8224 0.1782 -17.1049 -0.457 -0.727 -0.513 86 85 85 0 0
-0.3892 3.3761 -12.6128 0.434 0.376 0.819 202 191 188 0 0
-1.0247 1.5228 -12.4144 -0.363 -0.045 0.931 125 53 35 0 0
-1.0705 1.3935 -12.4198 -0.090 -0.546 0.833 124 53 33 0 0
-1.0728 1.3955 -12.4585 -0.283 -0.785 0.551 125 52 33 0 0
-1.5874 0.2371 -13.8595 -0.972 -0.050 0.229 27 22 26 0 0
-1.8537 -0.5081 -13.9199 -0.582 -0.664 0.468 62 11 3 0 0
-1.8558 -0.4455 -14.2331 -0.470 -0.866 0.173 106 61 47 0 0
-1.8696 -0.4488 -14.3973 -0.538 -0.838 -0.096 119 62 43 0 0
-1.9103 -0.3230 -15.4987 -0.729 -0.516 0.449 102 58 45 0 0
-1.0922 1.4160 -12.3914 -0.029 -0.186 0.982 127 54 37 0 0
-1.0896 1.4349 -12.4438 0.087 -0.551 0.830 125 54 34 0 0
-1.0999 1.4092 -12.4598 0.087 -0.551 0.830 126 53 34 0 0
-1.1962 1.1323 -12.4525 -0.076 -0.875 0.479 129 51 30 0 0
-1.4530 0.4292 -12.5896 -0.203 -0.581 0.788 132 50 29 0 0
-1.8767 -0.4807 -13.9363 -0.818 -0.423 0.390 62 10 3 0 0
-1.8816 -0.4391 -14.1857 -0.397 0.028 0.917 106 63 52 0 0
-1.8932 -0.4702 -14.1944 -0.689 -0.684 0.240 111 64 49 0 0
-1.8940 0.1513 -16.9906 -0.492 -0.702 -0.514 77 75 71 0 0
-1.1411 1.3836 -12.4659 -0.415 -0.454 0.789 127 52 33 0 0
-1.1528 1.3526 -12.4775 -0.434 -0.399 0.808 127 52 33 0 0
-1.2254 1.1378 -12.4471 -0.076 -0.875 0.479 129 51 30 0 0
-1.6381 -0.0231 -12.5444 0.265 -0.601 0.754 134 51 27 0 0
-1.7816 -0.1567 -13.7684 -0.470 -0.303 0.829 46 12 6 0 0
-1.9101 -0.4434 -14.1273 -0.678 -0.673 0.297 103 56 46 0 0
-1.9628 -0.2778 -15.5219 -0.623 -0.692 0.365 103 58 45 0 0
-1.9714 -0.2409 -15.7933 -0.347 -0.331 0.878 98 45 31 0 0
-1.9474 -0.0309 -16.4154 -0.128 -0.988 0.092 37 33 32 0 0
-1.9206 0.1808 -17.0103 -0.427 -0.734 -0.528 79 77 73 0 0
-1.9584 0.0785 -17.0363 -0.408 -0.808 -0.425 119 120 122 0 0
-1.1631 1.4154 -12.4822 0.244 -0.527 0.814 129 54 35 0 0
-1.1834 1.3541 -12.4687 -0.519 -0.380 0.766 129 54 35 0 0
-1.5896 0.2060 -12.5558 -0.372 -0.312 0.874 131 48 24 0 0
-1.7048 -0.1155 -12.5977 -0.134 -0.492 0.860 130 45 24 0 0
-1.8752 -0.3202 -13.8334 -0.653 -0.352 0.671 96 50 24 0 0
-1.8997 -0.3755 -13.8986 -0.700 -0.615 0.364 125 74 45 0 0
-1.9150 -0.4085 -13.9459 -0.702 -0.348 0.622 75 19 4 0 0
-1.9574 -0.2166 -15.3065 -0.295 -0.956 0.006 112 66 51 0 0
-2.0026 -0.1174 -16.2984 0.099 -0.179 0.979 37 33 32 0 0
-0.5120 3.4026 -12.5558 0.309 0.291 0.905 191 182 179 0 0
-1.1930 1.4193 -12.4754 0.269 -0.539 0.798 131 56 37 0 0
-1.2063 1.3824 -12.4821 0.081 -0.721 0.688 128 52 32 0 0
-1.2150 1.3620 -12.5024 0.081 -0.721 0.688 127 50 30 0 0
-1.6025 0.2565 -12.5536 -0.147 -0.667 0.731 131 49 25 0 0
-1.8455 -0.4037 -12.7280 -0.383 -0.538 0.751 67 11 5 0 0
-1.8774 -0.4767 -12.8085 -0.267 -0.169 0.949 82 52 46 0 0
-1.9870 -0.2074 -15.3029 -0.295 -0.956 0.006 107 62 47 0 0
-2.0349 -0.1145 -16.2867 0.201 -0.428 0.881 36 32 31 0 0
-1.1424 1.6573 -12.4743 0.200 -0.724 0.660 121 51 33 0 0
-1.2240 1.4192 -12.4655 0.388 -0.516 0.764 132 57 38 0 0
-1.9961 -0.3423 -14.4473 -0.686 -0.721 -0.096 47 45 48 0 0
-2.0167 -0.1985 -15.2991 -0.219 -0.971 0.100 105 59 43 0 0
-2.0307 -0.1803 -15.5448 -0.633 -0.455 0.627 112 66 50 0 0
-2.0603 -0.0841 -16.3074 0.337 -0.133 0.932 34 30 29 0 0
-1.2560 1.4153 -12.4523 0.215 -0.362 0.907 128 52 34 0 0
-1.8239 -0.2089 -12.5544 -0.018 -0.433 0.901 123 44 23 0 0
-1.9346 -0.2247 -13.8137 0.156 -0.637 0.755 92 30 4 0 0
-2.0171 -0.3172 -14.4190 -0.705 -0.695 -0.139 51 42 42 0 0
-2.0440 -0.1803 -15.3056 -0.519 -0.852 0.065 108 61 45 0 0
-1.9263 -0.3790 -12.7193 -0.149 -0.717 0.681 64 12 2 0 0
-2.0327 -0.3543 -14.0762 -0.287 -0.627 0.724 100 41 24 0 0
-2.0411 -0.3325 -14.2646 -0.586 -0.798 -0.137 109 58 44 0 0
-2.0857 -0.0965 -15.7487 -0.812 -0.365 0.455 76 26 16 0 0
-2.0883 -0.0911 -15.8009 0.034 -0.784 0.620 87 29 15 0 0
-1.3243 1.4022 -12.4588 0.272 -0.312 0.910 127 52 31 0 0
-1.9459 -0.0860 -13.7682 0.077 -0.687 0.723 31 6 2 0 0
-2.0986 -0.1900 -15.1343 -0.304 -0.938 -0.165 104 55 42 0 0
-2.1107 -0.0661 -15.7689 -0.812 -0.365 0.455 74 24 15 0 0
-2.1148 -0.0670 -15.8141 -0.254 -0.172 0.952 90 32 20 0 0
-2.1230 -0.0841 -15.8407 -0.466 -0.559 0.686 98 46 30 0 0
-2.1223 -0.0322 -16.0399 -0.610 -0.758 -0.231 41 35 36 0 0
-1.3541 1.4058 -12.4519 -0.605 -0.130 0.785 127 52 31 0 0
-1.9457 -0.2799 -12.6421 0.058 -0.336 0.940 175 95 66 0 0
-1.9747 -0.3420 -12.7329 -0.493 -0.589 0.640 68 11 3 0 0
-1.9755 -0.0830 -13.7594 0.087 -0.709 0.700 31 6 2 0 0
-2.1438 -0.2759 -14.9387 0.481 -0.843 0.239 107 59 47 0 0
-0.7650 3.2543 -12.5401 0.159 -0.930 0.333 113 50 37 0 0
-1.4391 1.2514 -12.4622 0.302 -0.186 0.935 130 53 30 0 0
-1.4835 1.1094 -12.4177 -0.511 -0.415 0.753 131 53 31 0 0
-1.9123 0.1069 -13.4175 -0.851 -0.388 -0.354 53 48 48 0 0
-2.1388 -0.3710 -14.1455 -0.510 0.241 0.826 106 60 49 0 0
-2.1312 -0.2662 -14.4645 -0.505 -0.795 0.335 50 44 43 0 0
-2.1498 -0.3114 -14.5009 0.026 -0.875 0.483 50 44 48 0 0
-2.1655 -0.2367 -14.9683 -0.570 -0.820 0.058 109 60 48 0 0
-1.4723 1.2413 -12.4439 0.078 -0.087 0.993 130 54 31 0 0
-1.5087 1.1289 -12.4240 -0.511 -0.415 0.753 130 52 30 0 0
-1.5376 1.0566 -12.4739 -0.237 -0.297 0.925 130 49 27 0 0
-1.5486 1.0274 -12.4862 -0.275 -0.385 0.881 133 51 29 0 0
-1.9140 -0.0334 -12.5524 -0.275 -0.319 0.907 124 41 18 0 0
-2.0054 -0.2736 -12.6641 -0.394 -0.736 0.550 127 51 11 0 0
-2.0334 -0.0718 -13.7470 -0.032 -0.597 0.802 32 6 3 0 0
-2.1960 -0.1023 -15.4582 -0.579 -0.776 0.251 100 55 39 0 0
-1.5869 1.0096 -12.4981 -0.365 -0.231 0.902 134 54 31 0 0
-1.5979 0.9802 -12.5101 -0.365 -0.231 0.902 135 55 32 0 0
-1.6100 0.9464 -12.5184 0.107 -0.392 0.914 132 50 28 0 0
-1.8733 0.1743 -12.5455 -0.028 -0.455 0.890 133 51 27 0 0
-2.1921 -0.1518 -14.8603 -0.543 -0.812 0.214 124 64 45 0 0
-2.2245 -0.0878 -15.4605 -0.278 -0.852 0.444 102 56 41 0 0
-1.5741 1.1234 -12.4363 0.200 -0.526 0.827 132 54 31 0 0
-1.5938 1.0732 -12.4679 -0.392 -0.529 0.753 129 51 28 0 0
-1.6038 1.0477 -12.4833 -0.270 -0.432 0.861 130 52 29 0 0
-2.0567 -0.2475 -12.6673 -0.439 -0.788 0.432 118 39 8 0 0
-2.2206 -0.1407 -14.8592 -0.455 -0.847 0.275 121 62 42 0 0
-2.2480 -0.2058 -14.9186 -0.525 -0.818 0.234 93 50 34 0 0
-2.2479 -0.0689 -15.4227 -0.440 -0.888 0.132 103 57 42 0 0
-2.2539 -0.0771 -15.4586 -0.278 -0.852 0.444 102 56 40 0 0
-2.2569 -0.0016 -15.7708 -0.693 -0.484 0.534 83 31 16 0 0
-2.2626 -0.0077 -15.8099 -0.750 -0.600 0.280 98 46 35 0 0
-2.2887 0.0451 -16.2915 -0.027 -0.119 0.993 30 29 27 0 0
-2.0823 -0.2342 -12.6691 -0.439 -0.788 0.432 108 33 5 0 0
-2.1022 -0.2864 -12.6947 -0.066 -0.749 0.659 71 11 2 0 0
-2.2021 -0.2245 -14.0020 -0.388 -0.708 0.590 62 13 7 0 0
-2.2409 -0.1781 -14.5917 -0.788 -0.573 0.225 60 45 44 0 0
-2.2482 -0.1252 -14.8627 -0.493 -0.830 0.259 122 60 44 0 0
-2.2693 -0.1640 -14.9509 -0.683 -0.719 0.132 93 49 36 0 0
-2.2765 -0.0550 -15.4244 -0.440 -0.888 0.132 105 58 44 0 0
-2.2804 -0.0539 -15.4706 -0.408 -0.772 0.487 102 55 40 0 0
-2.2872 0.0810 -16.0357 -0.698 -0.713 -0.059 35 35 39 0 0
-2.3181 0.0599 -16.2939 -0.247 -0.182 0.952 30 29 27 0 0
-1.9555 0.1968 -12.5347 0.127 -0.745 0.655 139 57 34 0 0
-1.9637 0.1779 -12.5547 0.127 -0.745 0.655 130 48 27 0 0
-2.1300 -0.2820 -12.6882 -0.001 -0.745 0.667 72 12 3 0 0
-2.2287 -0.2095 -14.0053 -0.475 -0.698 0.536 63 12 6 0 0
-2.2408 -0.2439 -14.0108 -0.438 -0.259 0.861 80 19 6 0 0
-2.2408 -0.2119 -14.1257 -0.698 -0.638 0.326 101 54 40 0 0
-2.2745 -0.1727 -14.6271 -0.795 -0.585 0.159 59 45 42 0 0
-2.2743 -0.1037 -14.8728 -0.549 -0.812 0.198 119 58 42 0 0
-2.2804 0.0296 -15.4147 -0.604 -0.767 0.217 98 51 43 0 0
-2.2891 0.0097 -15.4376 -0.529 -0.799 0.286 99 52 42 0 0
-2.3058 -0.0260 -15.4879 -0.486 -0.767 0.418 102 55 41 0 0
-1.5964 1.3232 -12.3887 0.206 -0.407 0.890 127 52 33 0 0
-1.9717 0.2354 -12.5223 0.258 -0.441 0.860 132 48 24 0 0
-1.9838 0.2008 -12.5281 0.151 -0.690 0.708 134 51 29 0 0
-1.9924 0.1801 -12.5464 0.151 -0.690 0.708 131 49 27 0 0
-2.0927 -0.0982 -12.6258 -0.274 -0.582 0.766 164 100 91 0 0
-2.1015 -0.1197 -12.6430 -0.294 -0.530 0.795 158 83 61 0 0
-2.1308 -0.2105 -12.6331 -0.287 -0.590 0.755 121 47 13 0 0
-2.1640 -0.2886 -12.7086 -0.300 -0.705 0.643 87 26 12 0 0
-2.1688 -0.2937 -12.7411 -0.718 -0.555 0.420 103 50 34 0 0
