ply
format ascii 1.0
element vertex 705
property float x
property float y
property float z
property uchar diffuse_red
property uchar diffuse_green
property uchar diffuse_blue
end_header
1.6197807390981573 -1.0970013713815483 -13.665011226044083 124 49 23
1.6304659987469892 -1.1145038108437015 -13.68131381708837 123 51 24
1.6356529817891872 -1.1237777207027158 -13.708108105595976 121 49 27
1.664095826997361 -1.167851959963607 -13.690438990562235 115 43 26
1.678009679428512 -1.190181451955434 -13.700465590133094 120 58 29
1.6911662268792078 -1.2113765012463213 -13.711910886504565 147 92 50
1.7043292779575077 -1.2325799951565033 -13.723312489429869 133 66 30
1.7192622259744548 -1.256428944275842 -13.731256422943376 131 52 27
1.7321663472165354 -1.2772423012245175 -13.743088217959048 162 91 50
1.7527395627414006 -1.309519575149877 -13.739961080413494 179 113 59
1.7729952222156515 -1.3413175300788405 -13.737340943152585 154 77 43
1.7945955010952894 -1.3751205202825352 -13.731978390639421 127 49 28
1.8075618551442165 -1.3960167064311362 -13.743441206623686 137 57 26
1.826292578865452 -1.4255240034262116 -13.743524738590288 157 75 35
1.8441824033883 -1.4537712390250972 -13.745173988578848 160 82 51
1.8549489536139618 -1.4713755446100691 -13.760840964340607 154 77 54
1.8755538463718722 -1.5036719842425752 -13.756967703710448 138 55 24
1.89485315638884 -1.5340141875745577 -13.755577314721496 167 88 42
1.9140988011179307 -1.564272050723062 -13.754191566573667 171 109 72
1.9333079220694693 -1.594471178410953 -13.752776568632488 151 88 66
1.9487617333013927 -1.6190614518803574 -13.758799587041102 131 60 37
1.9728655220020568 -1.6565569321010614 -13.7473445451262 150 83 49
1.9988082869039188 -1.696789597917447 -13.732017135434763 157 95 67
2.0176836408369785 -1.7264719839362188 -13.73082051069838 133 72 53
2.0343413182533765 -1.752842516854983 -13.734026644452051 116 49 32
2.064875210377728 -1.7999032879160461 -13.708898999347094 115 45 30
2.094153908982461 -1.8450828000722561 -13.686098994144903 119 53 37
2.1139626741218125 -1.8761353024167473 -13.682470705974538 121 57 38
2.1236055584592886 -1.892030166386851 -13.699606819598056 119 52 37
2.201376299752964 -2.0155270154259703 -13.723779531228663 139 63 39
2.196322532519176 -2.0095305100621177 -13.771463367027188 148 74 48
2.20410611669225 -2.022654578043845 -13.792433076196637 149 75 50
2.258089800785068 -2.1045548083527112 -13.716375496608599 154 78 55
2.2324654864822535 -2.0679456789723583 -13.807500794950274 157 83 60
2.2437724993632413 -2.086313157890266 -13.821027778515303 154 82 59
2.2464362577851764 -2.091819684909262 -13.852850182987751 155 83 62
2.2516021944268205 -2.1010521771166424 -13.87944377382481 155 85 65
2.2464204931388925 -2.094895952544772 -13.928142412167727 155 87 70
2.28007953865725 -2.1465093747257367 -13.89403242141373 156 89 73
2.468746793999449 -2.445491092579533 -13.937757052375366 135 70 48
2.4871656151722097 -2.4743879496891648 -13.934947863449406 128 62 41
2.507335463921356 -2.5058781136924013 -13.928136517685438 119 49 29
2.5052672061119736 -2.504376702895634 -13.97078106766919 110 36 17
2.542309048595934 -2.5608839247305903 -13.926118330486592 104 29 9
2.508084491710535 -2.511703626646195 -14.040929826610288 97 25 6
2.5601723074624863 -2.590506991413859 -13.962187631528943 93 23 6
2.562070493866697 -2.5948937868568054 -13.996102068429462 89 22 6
2.5550752541393136 -2.586104747574688 -14.050234285255128 84 18 4
2.5534003711616924 -2.585207990508848 -14.092515280034403 82 16 4
2.550905406126772 -2.583102463500559 -14.136811186277155 82 16 4
2.568535169847915 -2.6108121675800717 -14.135355257858482 83 18 6
2.585808197126735 -2.6379893819863307 -14.13461378692778 90 23 6
2.5971322040284592 -2.656354141095779 -14.147424823288553 94 27 7
2.6107356962025277 -2.6780925981925323 -14.15497085694072 96 33 12
2.616630352232259 -2.688419073902671 -14.180256649579833 94 37 17
2.627663641147428 -2.706352031830056 -14.193701996972766 73 23 7
2.6287623963545763 -2.7095855601530197 -14.230189146639944 58 13 1
2.627508511793168 -2.7093436535112048 -14.272268896886537 61 15 3
2.611918498753644 -2.6879045558525023 -14.347962768410284 69 16 3
2.617296252658589 -2.6974853249892696 -14.37491159293424 72 18 5
2.6210445125747954 -2.7046594675244178 -14.40574714227307 73 21 7
2.624140740079465 -2.7108732216161755 -14.438201286097868 72 21 5
2.6256899616574403 -2.7148044704677616 -14.474401082817774 72 21 3
2.6251230929441247 -2.7156136453555666 -14.515726302288927 74 24 6
2.6271427512852124 -2.7202499110382856 -14.551052154925518 76 27 9
2.6284973534456384 -2.7239083380213343 -14.588070999428478 75 30 11
2.6295175892633034 -2.727077868117779 -14.626007186632368 77 34 16
2.631055753355992 -2.73101721401079 -14.662826451050641 78 37 18
2.632340918112249 -2.7345879134819846 -14.700370877155478 79 40 20
2.6351582969182585 -2.7404250335913805 -14.734344823542692 79 46 23
2.637242901222624 -2.7451849975258353 -14.770190204382544 83 51 29
2.639800694028601 -2.75064766633169 -14.805000272226977 82 52 29
2.624757730646663 -2.730152660612778 -14.882694800857042 85 52 29
2.6261793082406726 -2.7339534965138794 -14.920609839429035 85 51 30
2.6247462900157923 -2.733550383070554 -14.965626331668041 79 46 26
2.624825604361901 -2.735383476382193 -15.007099114313146 72 38 20
2.623277703090724 -2.734824151048243 -15.052716446538525 67 35 19
2.6250977181818644 -2.739234649711489 -15.090195930686319 63 31 16
2.6294979404283936 -2.7474514968516903 -15.121414136657757 63 31 16
2.6347940265740792 -2.756991390008112 -15.15049379344585 63 32 15
2.6385712847567824 -2.764297429731788 -15.183422703749969 56 26 9
2.641226559857791 -2.769955306494575 -15.219244192348887 50 21 9
2.642826386840024 -2.774063994893269 -15.257816747704325 45 10 5
2.646130847023319 -2.7806867640611745 -15.292237886529044 57 12 5
2.6459074654156765 -2.782122509293618 -15.335639554658405 102 52 36
2.673927290161167 -2.82511595476978 -15.307907448320835 126 76 50
2.682189975604655 -2.8390379714653466 -15.329928163742036 118 63 29
2.6915464392903923 -2.854569705678453 -15.349201530477455 111 50 14
2.706128203423012 -2.8777846689555044 -15.35518332541786 105 38 6
2.710967921902218 -2.8866764052869307 -15.385979389223285 102 31 4
2.717003807750444 -2.897329450380333 -15.413792891117547 101 29 4
2.7260296026989184 -2.9123783637038336 -15.43398971120957 98 26 2
2.7575117483072913 -2.960417532961067 -15.39635217588075 99 36 11
2.7187276581850357 -2.905240833134278 -15.539948739685883 90 37 20
2.720565660608489 -2.909745275150149 -15.579021193526339 50 10 3
2.723066392088096 -2.915228002929922 -15.616500507467618 27 6 6
2.7248417435500802 -2.919650957373957 -15.655990505738066 19 4 4
2.7324307783157806 -2.932610803273101 -15.68041330171258 15 2 2
2.744664092566676 -2.95421629905955 -15.737131667673873 11 2 3
2.822112623865308 -3.0696332105674013 -15.577452387854432 13 4 5
2.8092811025234856 -3.052637990156388 -15.655545431375264 28 22 26
2.856387954616346 -3.123520356283593 -15.574977635070034 49 47 51
2.881517013600534 -3.162169160288217 -15.552314357974527 75 75 74
2.8094089959011894 -3.0639008851789065 -15.924108465841153 12 11 16
2.8291859735350835 -3.0947226234956515 -15.916093078971983 12 11 16
2.8193658975026374 -3.0822199497563503 -15.988093094367922 11 11 14
2.8302806029368583 -3.1000712312705474 -16.00409046179909 11 11 13
2.837181076633499 -3.1120496372885844 -16.0310177272098 12 11 13
2.848373456225768 -3.1303077624239277 -16.046273676743997 14 12 15
2.8582761703549275 -3.146679556466209 -16.06505244847028 24 22 25
2.875290973032678 -3.1734491069144326 -16.06428865736241 15 13 17
2.8825532194753953 -3.1859599498317257 -16.090307577622124 19 17 22
2.889492243235411 -3.1980006345061076 -16.117272626350633 22 20 25
2.9438073551509754 -3.2811505192838464 -16.05888067289701 23 20 23
2.9629553643923816 -3.3110125035884224 -16.051617233035618 26 22 26
2.9479292752144275 -3.2909780971904796 -16.139849416793616 28 25 26
2.9933725840639864 -3.359218929020848 -16.05876713906541 30 27 26
3.020753000784328 -3.401078184298907 -16.027951056888938 34 30 29
2.981334370835533 -3.367053426040977 -16.70936702856377 117 114 115
3.022100424420288 -3.4283577255528632 -16.63874630892034 122 121 121
3.038114024373453 -3.4536448019854564 -16.640278817116872 130 130 132
3.0559744830438227 -3.4816129324788454 -16.636274672759868 140 140 142
3.0638274588183094 -3.495030090352386 -16.66170658730524 149 148 150
3.0574459821904454 -3.487765117891187 -16.72936942851289 155 153 156
3.0693695107581287 -3.507104988886403 -16.74292754345963 164 162 165
3.068551231738098 -3.507938182390922 -16.79445074936537 168 168 171
3.1215339392188235 -3.586898172779912 -16.6852874245428 173 173 177
3.1317074111479326 -3.6036840243923827 -16.703764433705693 178 177 182
3.1360271248209415 -3.611974976480333 -16.739860786033983 183 182 186
3.1614790052941646 -3.6509303388086076 -16.71229464758438 188 188 190
3.1873169550216427 -3.6904343583169803 -16.683284793730138 188 189 191
3.192286031456849 -3.699664868460723 -16.717358903305893 191 192 194
3.2106757022687837 -3.728355582465271 -16.71065953822225 192 193 195
3.254134141961311 -3.7974277780917607 -16.725670641258194 198 199 201
3.2562793122131652 -3.8025738531413573 -16.768574233540797 199 200 202
3.275833826142071 -3.834978594690936 -16.807500718079805 202 202 204
3.3057508932287627 -3.88032383601963 -16.76431098083891 203 203 205
3.3371370821663295 -3.9298268321282848 -16.765883725564336 204 204 206
-1.3759261129486324 3.617551962322895 -12.405281608674157 106 50 39
-1.3115307783948644 3.518204704299292 -12.361896876412045 108 51 40
-1.2575578439518713 3.4347148624202632 -12.330674180831313 108 51 41
-0.9235573273852196 2.9100403050910413 -12.323063797212782 115 53 38
-0.9106208866039576 2.8889633159568624 -12.340262696662975 116 54 39
-0.8925858790794852 2.8601478014323662 -12.351076314337094 117 54 37
-0.877905751075434 2.836426055124594 -12.366050156886828 118 53 37
-0.855680668547425 2.801255343599527 -12.371513581489085 116 50 34
-0.4172091358759027 2.1105656114688265 -12.405611247536443 122 49 32
-0.41340719917790025 2.1033693080209144 -12.43386832356277 123 50 32
-0.3776685242940143 2.0478054837961466 -12.419684177697043 122 49 32
-0.34965580994140844 2.003948596965156 -12.41562517227121 124 51 34
-0.3073086593495513 1.9383937120501127 -12.39225742182363 123 50 31
-0.2800664998594691 1.8957166982961642 -12.388924051640112 121 47 27
-0.3109705506310645 1.9410639799883924 -12.463717109229986 126 51 31
-0.2969503460267964 1.9184006275293548 -12.4782026756357 125 49 31
-0.2891456482981418 1.905144930680592 -12.501077794323919 124 47 29
-0.27753885445898385 1.8861345783194658 -12.518818283651417 122 45 27
-0.23164816282581668 1.815249565671205 -12.489896404754358 121 44 24
-0.21135421378549246 1.7831021424648315 -12.495642120511913 124 46 26
-0.18899813637900253 1.7478382605557297 -12.498494795301504 126 47 27
-0.16173002978006323 1.7051482059050356 -12.494518915757997 124 45 27
-0.1454821529895569 1.6791308977434891 -12.505585397506305 122 43 26
-0.17308573545158756 1.7194303238653617 -12.577135625232838 125 47 25
-0.15142661795691215 1.6852268393668575 -12.580801807896915 125 46 24
-0.12467835395133875 1.6433324835153424 -12.577322039461349 126 45 26
-0.046968259471503515 1.52440134423387 -12.5027872208269 125 44 25
-0.04603720912327525 1.521551256668642 -12.534898398480554 126 45 26
-0.046747491781257366 1.5211785200349435 -12.569385610207956 127 45 25
-0.014536386364712772 1.4710492944811238 -12.557754850417771 127 45 24
0.0012201704154408688 1.4457914661920102 -12.569117943265642 129 47 26
0.03931556181607743 1.3867832726446796 -12.548911124147473 130 48 27
0.06121682365547665 1.35224949059348 -12.551411982155798 133 51 30
0.051251753928269306 1.3658557655404984 -12.599058799736703 129 47 26
0.08292357879111378 1.3165666235117248 -12.587603852787492 127 45 24
0.12768417522479503 1.2475176474450178 -12.557299864986252 127 45 24
0.14373624534371165 1.2218317347919143 -12.56781948618636 126 45 24
0.16970954860580179 1.1811677648616792 -12.564055949313698 127 46 25
0.18467134438596666 1.1571331731728725 -12.5760215968727 127 46 25
0.20370014146080084 1.1269607565885549 -12.582083176719351 128 46 25
0.16741940330421468 1.1802729759585437 -12.668142220986697 127 45 24
0.2164386352742418 1.104835625817132 -12.630760656917332 127 45 24
0.23980043974082044 1.068128858968647 -12.63041795581912 127 45 24
0.269565725934763 1.021764743645921 -12.620625570310278 127 45 24
0.29551838695177723 0.9811592448212032 -12.616259358357663 127 45 24
0.3080607485989084 0.9607882236149337 -12.63145439759817 128 46 25
0.350183195367876 0.8958022387248592 -12.603091519084238 129 47 25
0.36683860030393145 0.8692347754187244 -12.612063961324807 131 47 25
0.3763832041468955 0.8533921034574501 -12.631513535176662 130 46 22
0.39304815399788273 0.8268132157459664 -12.640403096775637 128 44 20
0.41589938920452507 0.7909101155078 -12.640034424200685 129 44 23
0.42694747246127074 0.772803500629772 -12.657183899564892 131 47 25
0.44762250464505193 0.7401870450433403 -12.659919558944221 134 51 27
0.46051804539188135 0.7192982264443195 -12.674249597105646 139 56 33
0.4743901327640634 0.6969386891313452 -12.687091048361504 139 56 32
0.49968893288998384 0.657363909311945 -12.682656774387086 140 64 41
0.49582897596543685 0.6617220702172579 -12.722237856263916 143 70 52
0.500225582430526 0.6536379393075427 -12.749408533026788 149 82 65
0.6666882413366646 0.39131164685026576 -12.764918318797292 169 91 68
0.6730009135969981 0.3803480440071034 -12.789024668524402 177 102 81
0.7087607849505799 0.32508066302560756 -12.767203862593934 147 70 46
0.7002469959115465 0.3364224475249742 -12.814463370887962 115 34 8
0.6985560594208318 0.33749489208589356 -12.851180079596265 97 19 2
0.6960720828256814 0.33975534673840535 -12.889252480774989 85 14 4
0.700283222733705 0.3319433561689875 -12.916872142020758 88 21 9
0.7116662021383209 0.31334596003049864 -12.933196498588746 105 51 30
0.7122259011780288 0.3110197643685009 -12.966693034503717 82 40 27
0.6834683294658657 0.3527575004182033 -13.046941545904655 21 4 3
0.7368553496241246 0.2710215808345895 -12.996429381203248 7 2 3
0.7423310374610304 0.26130082201680427 -13.0222212078195 44 43 44
0.5956999185434007 0.4583506151351404 -13.79649769125742 12 9 8
0.6314494614108055 0.40315244766519953 -13.773450000173236 10 8 7
0.6711135727280912 0.3420947390646818 -13.743602480409006 7 6 4
0.8114828856535454 0.12381393808407193 -13.688935741112822 141 73 45
0.8528146245960171 0.06031616283078378 -13.654891589960162 147 62 32
0.8822115165686077 0.014708969599149135 -13.640980371851548 140 61 36
0.9221151134740615 -0.04662713459251666 -13.608862356497056 131 59 40
0.927219106854595 -0.05583677827527733 -13.636347918799414 154 89 69
0.9552354569528805 -0.09935659449553924 -13.624350634393101 182 133 107
0.9378658749395257 -0.07492001993344477 -13.690722720840062 149 114 94
0.918591637989048 -0.047644024219908765 -13.760671264632256 132 81 67
0.9407838201485892 -0.08244442146668973 -13.758756515935547 128 72 52
0.9726235675058859 -0.1316777756677503 -13.739897003376079 125 61 30
1.0016881698489275 -0.17674981664559208 -13.725688472788669 117 43 18
1.0418217262679144 -0.2383743352652381 -13.691878742540782 122 45 21
1.107405949839253 -0.3380576248935503 -13.612998595050646 119 47 23
1.1303525950040925 -0.3739458705544081 -13.60881285691182 146 76 50
1.1569728775421622 -0.4153226410048436 -13.59800547812586 190 140 116
1.1578220663378929 -0.41815850158588574 -13.632767064473711 148 105 89
1.1243559701898196 -0.36969614464436873 -13.728682906236754 134 74 51
1.135571446614779 -0.38804340752307276 -13.745311990313024 128 58 37
1.1455807139961802 -0.4045876314008474 -13.764093782914784 116 38 17
1.1694469333125035 -0.44183974866352305 -13.75801895693268 123 50 26
1.212449667488293 -0.5076793139697244 -13.717379684093402 168 106 86
1.2222267336363415 -0.5238673150261484 -13.736364476339594 167 124 102
1.2374678160814128 -0.5482174536605751 -13.745471168057055 120 78 57
1.2516365130092408 -0.5709639399954263 -13.756476625259022 133 73 48
1.2658082107148036 -0.5937133393711047 -13.767440310438065 114 44 24
1.2883548512399217 -0.6289655876713836 -13.763086798155012 108 39 16
1.31000606880984 -0.6628758253290652 -13.760249494530907 115 47 22
1.332659520187152 -0.6982771308067433 -13.755459800979192 128 59 34
1.3579541938613242 -0.7376148638128663 -13.745686169621159 129 61 35
1.3842527275569676 -0.7784439826441609 -13.733908316194292 118 51 28
1.3984311529081332 -0.8011832489828876 -13.744392442892282 123 53 29
1.426696994345436 -0.8449356835535928 -13.72870032272305 132 57 31
1.4505428980172512 -0.8820877144594084 -13.72104720059493 135 56 27
1.490099964716991 -0.9426636989901391 -13.683940420918553 146 63 31
1.5050422653032292 -0.9665242171434567 -13.692584500383923 140 58 28
1.5203947997270313 -0.9909942685373174 -13.700411136216948 127 50 27
1.5367822912819924 -1.0170047873861812 -13.706238209901898 121 47 29
1.5553773270695692 -1.0463026674328653 -13.707836679978133 117 45 29
1.5894976493709336 -1.0987319564221458 -13.679972873160246 112 44 24
1.60015064517376 -1.116185654299584 -13.696383754076745 117 53 24
1.608882875685247 -1.1307778302338791 -13.716445719120204 116 50 23
1.6227784466674935 -1.153061383865161 -13.726672691197546 113 40 24
1.6375944417587656 -1.176714017380207 -13.735100249929868 141 75 41
1.6538893165819624 -1.2025666287040506 -13.740641860593442 172 116 59
1.6710625896415268 -1.2297241946287363 -13.744428837619985 160 94 46
1.689694359637096 -1.2590495901211396 -13.74532733607704 136 60 31
1.7033192610816106 -1.280919314169691 -13.75582354377137 143 67 33
1.7291641881851674 -1.3209717777781336 -13.742571728883206 170 97 46
1.7492745864692227 -1.352484854644528 -13.74030866946693 167 91 49
1.7719289807663272 -1.387777733373623 -13.732973689102245 149 75 49
1.783794499276521 -1.4070177153215386 -13.746614021731872 134 54 27
1.8043077450949099 -1.4391172016647875 -13.743266887202054 149 66 27
1.8209144117784883 -1.465403122233262 -13.74749346297893 164 89 52
1.8347721105587644 -1.4875992194296597 -13.75707370874885 171 102 77
1.8486636222912773 -1.5098438162168808 -13.766546274879676 140 61 37
1.872824126156984 -1.5473481219572145 -13.755599283232039 161 76 34
1.8949946028371594 -1.581888639831412 -13.748456319391945 164 97 57
1.916719708585033 -1.6157616621077668 -13.74206753934488 148 87 62
1.9426830264420154 -1.6559247007960307 -13.72706684369218 117 48 31
1.9678136127914745 -1.6948432517786856 -13.71355874801785 119 45 28
1.9980481889796624 -1.7413336812145168 -13.689608726856427 127 58 41
2.0201627654256207 -1.775758351712586 -13.681817801513699 126 60 45
2.0383660005716737 -1.8043708238362006 -13.681805602665982 117 48 33
2.063698850083532 -1.8435612013146514 -13.66722983362972 118 47 33
2.0879844982627223 -1.8811899824069638 -13.654610026446678 123 52 37
2.103071445917484 -1.905163301906465 -13.660601013373288 127 57 39
2.160425447940691 -1.9997872900101097 -13.764148803736784 144 66 42
2.1552533996416714 -1.9937276586619825 -13.81208900485336 154 81 56
2.1634380726453997 -2.007466598599967 -13.83232348894899 153 80 56
2.1799925678535494 -2.0336060281490553 -13.835056720830284 149 76 54
2.2084199840811696 -2.0773283423822315 -13.81278551234561 150 78 56
2.1712134096967777 -2.025468494917769 -13.96618058935125 155 83 64
2.377009703930788 -2.3494866767978513 -13.978559117279799 137 61 37
2.4073863280018797 -2.3960031263737696 -13.950040925317115 137 69 46
2.4363868654036307 -2.4404760664612546 -13.924290381907596 133 69 48
2.4604887264808983 -2.47770463900547 -13.909092601533306 125 59 41
2.474528040533772 -2.50170542976128 -13.95385515611413 104 32 13
2.4848884879309043 -2.5186388313609536 -13.968866123261478 100 29 11
2.484715689713692 -2.5200286305461432 -14.00734141052516 96 25 8
2.489666714407513 -2.528983436999656 -14.034493695729566 94 25 7
2.498683711261079 -2.5439386166459554 -14.052596247753163 91 24 7
2.500254446877216 -2.5479123836058575 -14.087444291553524 87 23 7
2.5142236317935107 -2.5701727329106436 -14.09445424022677 85 20 7
2.520001729564942 -2.58035499367001 -14.119925438450002 85 19 6
2.5334412941564457 -2.601832388457246 -14.128082555866474 87 21 6
2.5495208449673146 -2.627198328185804 -14.1301918582441 89 22 6
2.562863014134644 -2.6485274515487083 -14.13846061826879 93 27 9
2.5705785590063615 -2.661565799097848 -14.159547622190114 99 35 14
2.5705430474077913 -2.6631891505971863 -14.198434117290686 93 35 15
2.5693927033292003 -2.6631764312587975 -14.240013755501677 83 32 16
2.5661586905021303 -2.660102215121154 -14.286543352004852 65 20 9
2.5653974813258342 -2.6606754572433093 -14.327527699587158 57 15 7
2.5680074293243096 -2.6662161904704247 -14.360834947449082 59 16 7
2.5752736289780076 -2.6786124620426373 -14.38340947638778 57 14 6
2.58060869034489 -2.6881692915706754 -14.410524011213177 53 12 4
2.584691611940066 -2.695887068967746 -14.440629202200832 50 12 3
2.588684491649448 -2.7034758332535143 -14.471024343270697 49 11 2
2.590789842446307 -2.7082928917829197 -14.505940692962199 50 11 1
2.5901774098021138 -2.7091194635793485 -14.547376005968928 54 11 2
2.5917732094720747 -2.713197644307928 -14.583729711784322 56 10 2
2.5850021856287158 -2.704986651728441 -14.640053393010184 61 13 3
2.5863523059791604 -2.708716282358436 -14.677278406457422 65 16 5
2.5877062092007703 -2.712456613343906 -14.714613518364422 65 15 5
2.589064026569484 -2.716207860400721 -14.752058945677536 65 16 5
2.5950536373843334 -2.7267647022282864 -14.778505367483632 67 18 2
2.597681031180741 -2.7323885864339372 -14.813103186001975 73 24 6
2.6006639401762217 -2.7385387031227495 -14.846946307141101 73 24 7
2.600097591867014 -2.7394852837877943 -14.88948326711072 73 25 8
2.589471656628029 -2.725680939321027 -14.95659962468148 74 28 10
2.586954262206123 -2.7237819340773353 -15.004258983751528 74 27 10
2.5861611535129 -2.724419124353574 -15.047885441158673 74 28 11
2.5864533006851005 -2.7266540982113847 -15.08900872505616 74 31 12
2.5891027051126168 -2.7323503611327267 -15.124481481971493 74 31 12
2.59097357557702 -2.7369103652560884 -15.161980351094687 76 33 13
2.5945588259482544 -2.743987372646325 -15.195362447731773 78 37 16
2.5968549389391518 -2.749180115279316 -15.232034926312219 79 45 19
2.6039808118735897 -2.761451178332319 -15.256817953600695 75 42 20
2.604523989448919 -2.7640856472514255 -15.298054933862266 55 13 3
2.6088892694969377 -2.772321438242402 -15.32987810495657 91 39 22
2.6139955110473085 -2.7816454249884854 -15.359929804694566 149 101 73
2.6234362171288916 -2.79731523955554 -15.379158350032746 158 123 86
2.6375083183151538 -2.819761183036552 -15.386720015270317 147 108 69
2.673450737320903 -2.874193343509037 -15.338912045967563 127 69 26
2.6857293887385323 -2.894004910060482 -15.350750584294783 115 43 4
2.6924659492233554 -2.9057125895666616 -15.376658227958035 106 31 3
2.705392268556286 -2.926470035945938 -15.386825543018755 99 26 2
2.7175724939795156 -2.9461354492251637 -15.398862290695918 100 25 2
2.707407805678864 -2.9331527134780506 -15.468215529959998 97 30 6
2.6933905775060354 -2.9145557473205628 -15.547791610653544 92 34 19
2.6946996519125586 -2.9183570540267993 -15.588170641546212 53 10 3
2.710138870858971 -2.9427952224426512 -15.59210348404091 25 3 4
2.7188024442302225 -2.9573393766434934 -15.613552574048864 16 3 3
2.7080910163280674 -2.943608559240901 -15.685483739636268 14 2 2
2.759902753454836 -3.0211179510833164 -15.594435590971656 12 1 2
2.7224494662729306 -2.96838465566936 -15.736583931303965 12 2 3
2.8090576679664294 -3.0966163767935324 -15.553529382726472 11 2 3
2.7880851968486686 -3.0679357695018172 -15.652767906854544 22 16 20
2.876594030010188 -3.2007621612812667 -15.506931696487992 81 81 80
2.8342479356100827 -3.144801042223393 -15.752434891446677 16 16 19
2.804282769953657 -3.103102362597454 -15.87754605027569 14 13 18
2.806910316411138 -3.108876832067689 -15.915625588209672 13 12 17
2.782589754158933 -3.075437261989652 -16.02653070527616 14 14 16
2.8003725272382374 -3.1032829245301077 -16.024066042948082 18 18 20
2.8032778272285945 -3.1094816310113185 -16.061859494365805 21 20 23
2.8073824574567996 -3.11742980903374 -16.09651011237918 24 22 25
2.8186849385783277 -3.135847955902487 -16.111613641423876 30 28 31
2.8373838135056437 -3.1650171434552394 -16.106451935672798 32 30 34
2.84808110442438 -3.1825520361296107 -16.123130731538566 25 21 25
2.854444116104686 -3.193789386912365 -16.15174414978664 25 20 24
2.962808347770213 -3.385562169439172 -16.648232104807555 113 111 111
2.9753354330512307 -3.405769749096824 -16.660198221668807 120 118 116
2.999348230497147 -3.442583812055088 -16.638643210636605 124 124 122
3.005380066329005 -3.4533946779810414 -16.669435309292822 132 133 133
3.016687092156058 -3.4718327366102404 -16.684834524040475 142 142 144
3.0057560870024953 -3.458140314588193 -16.765647786444788 151 150 153
3.0219775856225066 -3.483684462332799 -16.766716950870087 159 157 160
3.033811387640756 -3.502888246034842 -16.78067352536108 167 165 168
3.046362323146815 -3.5231263847963366 -16.792479151786626 172 172 175
3.112194525430868 -3.6244801475894457 -16.743257291189142 184 183 188
3.1470972740368897 -3.676934504706167 -16.687492562431068 186 186 188
3.1595607388883313 -3.6970189320687217 -16.698922575682854 189 190 192
3.1806102548718607 -3.7294768796487947 -16.684355728495703 190 191 193
3.1917685778327924 -3.7476741734411805 -16.699592274690612 193 194 196
3.204447166927214 -3.7680608657601127 -16.710191351082763 195 196 198
3.204675379741148 -3.770516001168927 -16.758740473186062 197 198 200
3.2172901242202228 -3.7908122441328143 -16.76956894632455 198 199 201
3.241940781231447 -3.8284299501252015 -16.743405808866143 199 200 202
3.2401253181323644 -3.8279544396527427 -16.798479357482268 200 201 203
3.264142609208732 -3.8646487582302695 -16.773987713164303 201 201 203
-1.350600070742638 3.526220720519061 -12.310561500410557 105 51 39
-1.3485172012034692 3.5215536276514903 -12.341554792110035 107 53 40
-1.3815233275798908 3.570029521065157 -12.41454185063538 109 53 41
-0.9588524189004168 2.912109585915481 -12.302247206068495 114 52 37
-0.9545318272618113 2.904072625389794 -12.330137213275567 115 53 37
-0.9374522539437513 2.876736560071047 -12.342212301140048 115 52 36
-0.9244650815269493 2.855591012663384 -12.359351242562305 116 52 35
-0.8936861781479548 2.8075432241069525 -12.35423014133723 115 49 33
-0.5913020072994244 2.3280669005155303 -12.468537786347728 120 50 32
-0.5436206323774444 2.254580472648775 -12.439635056074167 120 50 32
-0.5200547411669127 2.217503926760248 -12.442105998141283 121 51 33
-0.49734635001840033 2.181725586577181 -12.445614143335945 125 53 36
-0.46863512202520496 2.136892957809424 -12.441116251147328 123 50 33
-0.42635677540607286 2.0715960399803306 -12.418535503081069 121 48 30
-0.40057104358040796 2.0311909882108647 -12.417608419899075 121 48 30
-0.38188702101497807 2.001503586898677 -12.426022459077146 121 48 30
-0.34493166294959643 1.9442600758011466 -12.409997362871572 121 48 29
-0.3093720681300689 1.8891303228408174 -12.395646078690241 122 48 29
-0.3489104125624096 1.9472536003519996 -12.481892285701345 121 46 27
-0.34597628203996056 1.941320044788334 -12.511362281793382 123 47 28
-0.31815142402308627 1.8978579579312718 -12.50730270346312 126 49 31
-0.29451767028157994 1.8607194566708882 -12.50878863700865 130 52 34
-0.26707067277234087 1.8178376466851436 -12.505004172707482 123 46 26
-0.24022580329888132 1.7758689349663617 -12.501914568103713 122 44 25
-0.21851225020249787 1.74163819976375 -12.505707772029986 125 45 27
-0.1948524895273418 1.704478688938126 -12.506755702992157 125 46 27
-0.16660610014554367 1.6604134175792473 -12.501411622401173 127 48 29
-0.20750151578592035 1.7205099528872143 -12.591098518647 126 47 26
-0.1901314852483602 1.6928269551028268 -12.600767726000226 124 44 23
-0.15617563822719838 1.640166935415384 -12.587431951015258 125 44 24
-0.05385655181495741 1.4845678632170394 -12.479031695180042 125 44 24
-0.06937345879294154 1.5064274599296215 -12.533933402123527 125 44 24
-0.07360124068812457 1.5112815928706667 -12.573284604476118 126 44 23
-0.03958656899643387 1.458561903388306 -12.559227074371822 126 44 23
-0.007898127256432907 1.4093517654931027 -12.548253955979211 128 46 25
0.02429434628388094 1.3593904281126852 -12.536408264837782 128 46 25
0.05176785238779935 1.3165378689097045 -12.531055670282228 130 48 27
0.08175697715914376 1.2699061222563355 -12.522011282664234 129 47 26
0.0841779641524476 1.2647564716428832 -12.55194620850504 127 45 24
0.1006844295622975 1.2384152325458357 -12.56189902432861 124 42 21
0.11958123620505257 1.2084807008520233 -12.568394996928511 127 46 25
0.1424026298733021 1.1726467912918714 -12.56920920012029 128 46 25
0.16420874189369217 1.1383439349340634 -12.571384834508148 128 46 25
0.17301798376281896 1.123586641237651 -12.592180131819642 126 44 23
0.18003792346169822 1.1115186123349172 -12.61557441919189 127 45 24
0.19337953149085063 1.089946485207725 -12.629849032263532 127 45 24
0.20367423834528786 1.0729548086763074 -12.648525981158691 126 44 23
0.2324914767834283 1.0281267186144518 -12.640246233073274 126 44 23
0.26706419617601806 0.9746567905367094 -12.623419072814968 129 47 26
0.28339148323524865 0.9486086899494062 -12.633104377749302 130 48 27
0.3230618251334869 0.8874949058627326 -12.60848075937123 129 46 25
0.32580446401618657 0.8818606299824507 -12.637974883715625 129 45 23
0.35187352490413026 0.8411892938842227 -12.633103998453361 125 41 18
0.37587227960826963 0.8036326875939643 -12.631171085816888 121 37 13
0.3937649779778769 0.7752494852028144 -12.63819158744758 132 47 25
0.4138164286754056 0.7436279417803222 -12.641939300787222 132 47 24
0.4319286837822083 0.7149209506787217 -12.648503672800182 133 50 26
0.4357849932742863 0.7076144977280574 -12.676343980768937 135 52 29
0.448719106058876 0.686681678380408 -12.6906159423174 147 63 40
0.48993895268805465 0.6233043783339935 -12.662295071962028 141 63 39
0.48093278440796405 0.6352978721461415 -12.709525718443746 143 69 47
0.47746009792145294 0.6389824972909892 -12.748546650403924 149 80 62
0.6654075581037868 0.3449567803693778 -12.731178610866706 153 77 54
0.6584746727372366 0.35381914420275873 -12.77573099430887 168 94 71
0.6701622993800065 0.33477592564762126 -12.791455480845148 167 90 66
0.6751692254546509 0.32574139996657614 -12.817596433361617 130 49 22
0.6736679814091273 0.32645319934388883 -12.853970993252915 103 23 4
0.6730894836419381 0.3257782511509344 -12.88900279160858 89 14 1
0.6691704445370323 0.3301013282012484 -12.929389401597378 93 24 9
0.680391893156338 0.31174886840806515 -12.946010019453253 108 56 33
0.6979083328653308 0.2839724348385202 -12.952663506999704 78 33 17
0.6541564187848259 0.34791119280938787 -13.056484237849642 33 9 6
0.5805402819199297 0.43062895150781255 -13.781639942895453 14 10 9
0.6267144432857785 0.36002389900369636 -13.741287137318878 12 10 9
0.6621716173173073 0.30543413157771493 -13.718537907677163 10 8 6
0.7130895879741335 0.22777483823273315 -13.669621939913952 7 5 3
0.7680810389090356 0.140775831639961 -13.68601875569686 22 5 3
0.7974993251478373 0.09524005252320666 -13.672534135262278 136 72 46
0.8291723708277798 0.046348686550889084 -13.655038422035151 137 54 23
0.8636059692753335 -0.006651185984957841 -13.632635955356431 137 59 30
0.8926776363906668 -0.0516446371353263 -13.619181689745453 134 64 39
0.9034391710844449 -0.06932814022225475 -13.636963581205475 159 92 66
0.9240820066916773 -0.1017434289052801 -13.637747166950245 180 122 95
0.9526551207447516 -0.14597577616154478 -13.624755944260365 174 140 117
0.9371826496178755 -0.12455301448131362 -13.687785577536872 125 79 65
0.9497243519417662 -0.1448890465864876 -13.702472401621367 150 93 75
0.9586739541761538 -0.15987205159890738 -13.723390462379463 122 55 28
0.9919680148009022 -0.2111238895746954 -13.70186069222924 120 44 18
1.014090535428556 -0.24572507453640124 -13.699653210634768 135 57 33
1.074053746273837 -0.33667913716830355 -13.630958518357907 116 46 21
1.1141889193908403 -0.39808500274649283 -13.596659278864283 139 66 42
1.1413825370174502 -0.44020906597791676 -13.584898168723324 179 121 96
1.106543971002012 -0.3899795677567077 -13.682696675549781 161 121 101
1.0968970116801278 -0.3772669809663167 -13.73625986910439 120 64 44
1.1198648555606332 -0.4131019715649398 -13.732012298624282 130 63 46
1.1588678964417118 -0.47444109046992544 -13.735550379844689 130 57 31
1.176558450708935 -0.5024107414665542 -13.74043508748126 163 97 77
1.205764995286053 -0.5475053371985537 -13.72453622219474 171 123 102
1.2208718064880157 -0.5716236678731308 -13.733881506913637 137 96 78
1.2345886307552347 -0.593673197880797 -13.745695319526614 130 70 52
1.2469537358389053 -0.6137117599877984 -13.75992910552382 131 66 42
1.2669342223046045 -0.6450691935236126 -13.760294068490612 120 49 20
1.2918829285425057 -0.6838060559833892 -13.75150216651332 134 58 28
1.3259799800702705 -0.7361304204601034 -13.725831826832097 136 58 27
1.3557546993518312 -0.7820220768003239 -13.707848241685038 140 62 31
1.4178411452065331 -0.8759039822862729 -13.63024007890397 137 58 30
1.4331111959823932 -0.9002269019252331 -13.638445986958082 132 54 26
1.4269408129925383 -0.8927076917958017 -13.686255203928635 133 56 28
1.4406110939092134 -0.9146557267337121 -13.697438320285478 132 55 29
1.4582607203251126 -0.9425098578464954 -13.701186831531139 135 57 31
1.481273354066471 -0.9783210937536779 -13.694857963178329 126 49 27
1.4948183193168458 -1.0000754202340314 -13.706104372759542 116 46 27
1.5108056431421075 -1.0254523810559037 -13.712737150439212 113 47 27
1.5314252612878243 -1.057699281630672 -13.710599077403817 110 42 22
1.5522928670464218 -1.0903091733270607 -13.707885465929062 117 51 23
1.5642499501585219 -1.1096984021102951 -13.72191293769649 161 102 56
1.575108521007769 -1.1274578603680645 -13.738006661667294 162 99 56
1.596305308700646 -1.1605452565002743 -13.734433109351624 128 52 29
1.6110293320586124 -1.184031997109062 -13.743088601811158 144 70 34
1.628483645405756 -1.211563423405594 -13.74647534055083 178 110 48
1.6456966278080927 -1.2387337544051809 -13.750248426188541 174 104 51
1.665525943968965 -1.2697773692592857 -13.74891542082742 152 82 54
1.6856902769970854 -1.301312656662355 -13.746833513543576 133 56 28
1.706516356029777 -1.3338233074914232 -13.743364901351613 163 85 37
1.7276572489089905 -1.3667950163585996 -13.739171197574942 180 106 57
1.7480396223368726 -1.3986382130770467 -13.736334266120704 176 108 76
1.7616428201072583 -1.420439962453325 -13.746608351548328 133 58 31
1.7850354042011274 -1.456730626087806 -13.737699111200978 149 75 32
1.801690912552028 -1.4830439722521245 -13.741858666251321 173 108 64
1.8254331197398725 -1.5198405625556326 -13.732008870462167 168 104 75
1.8397153772552346 -1.5426344995544605 -13.740667473486539 139 65 45
1.8590796379034016 -1.572943869861633 -13.739228892913278 143 61 28
1.8812916495656395 -1.6074604073459735 -13.732039700353504 151 80 46
1.9135840540719107 -1.656877109656297 -13.704666155548331 139 76 53
1.9324582126773096 -1.6864439604367867 -13.70380858005436 123 52 37
1.940541477912808 -1.7000549334554274 -13.724436290285595 120 44 30
1.9673106760263046 -1.7412842874288383 -13.707605952449917 120 45 30
2.0109276127614484 -1.8074014056504897 -13.656698924605566 122 48 32
2.0307394797385947 -1.8399876421712502 -13.690123751372447 126 53 34
2.0508139286103853 -1.8712992485645623 -13.686211166086318 130 57 37
2.123797458822028 -1.9873625383445832 -13.72125568147412 150 74 51
2.1235570976722338 -1.9886774401048815 -13.758713012302785 150 73 50
2.12370978495817 -1.9905774943486296 -13.795475745658322 146 68 44
2.127927750632027 -1.9984784645726261 -13.82391892573256 154 80 57
2.1344578693632794 -2.009791987595049 -13.847619093235929 160 87 65
2.1532689785315795 -2.039213661609595 -13.845736957589487 151 79 57
2.183413825139777 -2.0853373726184774 -13.820037562860895 146 74 52
2.1847358709545395 -2.0889711655045247 -13.854575534962379 150 78 57
2.199299471445826 -2.1121214849203307 -13.86135397459708 155 83 63
2.2166960222220653 -2.1394430244176075 -13.862099952440095 155 84 65
2.375898835899433 -2.392428638924013 -13.934352517721557 136 66 44
2.404677463813223 -2.436441105195973 -13.909356599291804 134 68 49
2.4307617929626444 -2.4764831767056545 -13.890024300774002 122 56 39
2.4303753666275827 -2.4776195970333825 -13.928602592419892 112 42 26
2.438836465379176 -2.49175995275247 -13.947829387101788 108 36 17
2.4466251402268755 -2.5049133880962424 -13.968557835341306 99 30 9
2.454419082254527 -2.5180757134727934 -13.989300187913186 94 26 8
2.4622182980259266 -2.5312469396679145 -14.010056455664746 93 26 7
2.4642095858494377 -2.535893310046352 -14.04377128964489 93 27 8
2.490093720036124 -2.5756119357268528 -14.02423034464323 91 26 9
2.495930174124059 -2.585902930448098 -14.049381463896484 87 23 7
2.5027526926289902 -2.597642911433918 -14.072368896471232 86 20 6
2.5074411536043018 -2.606254300337403 -14.100201269304005 87 20 7
2.52073932447077 -2.6274952818585913 -14.108653118311222 90 22 7
2.5372008905472043 -2.653372618638307 -14.10989486414106 94 27 10
2.550060296061206 -2.673965420420477 -14.119233548684406 98 36 16
2.540547848594052 -2.661766517526469 -14.179497988301295 96 38 18
2.534047112419523 -2.6539922986606266 -14.233133620351442 84 32 15
2.5375624511907815 -2.6609021659518337 -14.264034702057565 71 26 12
2.534806952601195 -2.6586303266908686 -14.3094276588314 59 17 9
2.536391973704686 -2.6627226702043734 -14.344985200996177 55 13 7
2.538679046931399 -2.667847918887923 -14.379030255429754 54 12 5
2.5394474012508796 -2.670754485272883 -14.41669604330895 49 10 6
2.5423116698464634 -2.67673412940084 -14.449612449393499 44 9 6
2.5442199765551243 -2.681319184802584 -14.484851485360133 35 6 3
2.547588783179567 -2.6880458105120963 -14.516784359566916 29 4 1
2.5468640873667403 -2.688788909569217 -14.558401890014263 28 5 3
2.5461377570852517 -2.689536134118903 -14.600167513570547 31 5 3
2.5479519998993356 -2.6940044358118804 -14.636088267686656 36 6 3
2.5504612265749333 -2.6994936756238763 -14.670477053374494 42 9 4
2.5452469805767963 -2.6936999244902955 -14.723282649732568 45 10 5
2.5470939274094704 -2.6982331226636775 -14.759504440993336 45 8 4
2.547168996460891 -2.7001829611643595 -14.800064752351627 45 7 3
2.556196193816784 -2.7152139681851173 -14.819350914022298 47 8 2
2.559039365489003 -2.7212155495107977 -14.853485607410523 52 11 6
2.5618836048567593 -2.7272232304347845 -14.887718261588613 55 12 7
2.5600532345700584 -2.7264123971509555 -14.933329733752121 56 12 4
2.541561609720635 -2.7012955049911227 -15.019420245877242 59 13 3
2.541476567685178 -2.7030514148300515 -15.061247299355138 62 14 4
2.551053044201396 -2.7189066811226548 -15.079707065070945 65 16 6
2.547849358656939 -2.7161245518176846 -15.12936675730475 66 16 8
2.5510036197891264 -2.7226209994404993 -15.163654170362364 67 16 7
2.5522282995822954 -2.7263092363279977 -15.202778653868219 67 16 4
2.5562437036757 -2.734070417239475 -15.235161317480319 70 21 6
2.558199118572216 -2.7388341118741613 -15.272719318573003 77 32 16
2.5633647205597367 -2.7482795784796084 -15.302447771327653 63 19 5
2.5629647801526265 -2.749622675046905 -15.34607093570789 76 28 16
2.576973011888082 -2.7719522337644937 -15.353964696200592 133 84 52
2.585812267146724 -2.786754618507941 -15.374715997163584 152 101 64
2.60042540883958 -2.8099614488074547 -15.38102512958709 154 107 74
2.6118411556116685 -2.8285129296065366 -15.395304546087093 167 119 90
2.6297281651508824 -2.85647787157974 -15.393262792846183 129 70 37
2.6653401127519083 -2.9102175979819567 -15.346319877455787 114 41 8
2.671820144342324 -2.9215796403536105 -15.372833560198135 106 29 3
2.67903437968782 -2.934011566384358 -15.397536902366973 100 27 2
2.690535080653321 -2.9526756357237884 -15.41135873688851 99 25 1
2.689138022027054 -2.952597147339457 -15.458136081847076 99 31 7
2.7084519960999605 -2.982614731861686 -15.451983974996537 95 35 17
2.714577846129113 -2.993471460066619 -15.479610073000604 55 12 5
2.673282796235432 -2.935471876785515 -15.629599001247481 23 1 3
2.6866295039581676 -2.956833248151593 -15.639030627740281 15 2 2
2.6852866875608683 -2.9568721940347737 -15.686524189320377 14 2 3
2.7385722018960665 -3.0361880249324935 -15.592065512443028 12 2 2
2.7000010955900735 -2.9822167095354164 -15.736642603994035 11 2 3
2.7917661941365384 -3.1173145293653564 -15.540871324685583 10 1 3
2.753487530966466 -3.0637898247533197 -15.685180335952872 17 11 14
2.8428210703311065 -3.1992550310923322 -15.581982169825338 62 62 65
2.7982765647398415 -3.138731861163217 -15.788944067844849 21 21 23
2.779905051699676 -3.1141527868680727 -15.882770188046257 16 16 19
2.783226302070496 -3.1209956236565253 -15.9189273061988 17 16 20
2.7564989502884165 -3.0843572607415126 -16.035943767439274 18 18 21
2.778226302672767 -3.1178516819647797 -16.022956619146715 31 31 33
2.8036454712869334 -3.156678141941957 -15.999810781502417 35 35 37
2.831108210946801 -3.1984490386757596 -15.970885295862969 36 35 37
2.8585369609217874 -3.2401584457856707 -15.941778843712488 35 34 37
2.809036500082949 -3.170662663593058 -16.12220044201352 33 32 35
2.8163585941947926 -3.183320679226381 -16.148163589976086 28 25 28
2.935797502828082 -3.3916263741830397 -16.612115896396443 107 106 107
2.9632230439483087 -3.4332431359882465 -16.581069815330967 113 111 111
2.9667614392026898 -3.440501273793253 -16.618880537143095 122 120 119
2.984267389909087 -3.4678422817334997 -16.616258444923613 128 127 126
2.9765023713210046 -3.45886264291709 -16.687111587380958 135 135 135
2.9847493579306907 -3.472900950775939 -16.711514529104065 144 144 146
2.9850590385857134 -3.4755412903484215 -16.759214500727367 153 153 156
3.000346393677753 -3.499695352273357 -16.763081173030223 160 160 163
3.0156575644431003 -3.523879858433844 -16.766794810432003 167 167 170
3.0168227941907557 -3.527760707494715 -16.812248000930136 174 174 178
3.0462282151008386 -3.572163343850927 -16.774123661496716 177 177 182
3.0677807968438433 -3.60528802006859 -16.75901995753371 181 180 184
3.096575370663272 -3.6487874226209085 -16.722111648206365 184 184 187
3.135559206812159 -3.706877235554458 -16.654380718176824 187 187 189
3.152801596143472 -3.7337883236849043 -16.651393262253467 189 190 192
3.175796632233284 -3.768934961255617 -16.630962050679614 190 191 193
3.187679290330067 -3.7881564452505847 -16.64386036631976 193 194 196
3.194907682923326 -3.80071298214893 -16.670830818855467 196 197 199
3.2017513385974232 -3.8127215114675623 -16.699029584559344 198 199 201
3.191605335026135 -3.8004223138266893 -16.779074813448165 199 200 202
3.2011707716395006 -3.816337534062929 -16.79924526847071 199 200 202
3.228355808120929 -3.8574508166297425 -16.76540462164983 200 201 203
3.224684693668853 -3.8566811303551454 -16.875849685783685 202 202 204
-1.822559565141761 4.20087172907324 -12.494116315971098 100 54 48
-0.9861847108789283 2.899053641158729 -12.338005872154692 115 52 35
-0.9699270621154148 2.8729860145912016 -12.35114429718054 116 51 34
-0.9601049078349599 2.8566160666361613 -12.372252966723009 116 50 34
-0.6050662673296925 2.2985830023605813 -12.420829511278665 121 50 32
-0.6078180790741836 2.3011502910619344 -12.457734244004204 120 50 32
-0.5857476099995589 2.2663855905803625 -12.462352462053278 120 51 32
-0.5690929384563983 2.23976783037095 -12.473978183502801 121 52 33
-0.52960507364805 2.178823879829542 -12.455601993318588 123 52 34
-0.49906089974504164 2.1313344008120643 -12.448786387779393 121 48 31
-0.4662032151327633 2.0803742806378844 -12.438774702754376 121 48 30
-0.4342210975241372 2.0307376366449064 -12.429760864684503 120 47 28
-0.42476241446075447 2.0149548867948184 -12.450482359946637 120 47 28
-0.3682493997059062 1.9284699731295403 -12.408596321962335 120 47 28
-0.3364861040231295 1.8791844318984268 -12.399400509577982 124 51 32
-0.3581938240079481 1.9102302568256349 -12.461610271525856 123 48 29
-0.3677115574417522 1.922954832239681 -12.507707049250165 123 46 28
-0.3336150842692258 1.870170384186836 -12.495261738918352 125 48 30
-0.30329164892636307 1.8230599561124303 -12.487735058654554 127 48 31
-0.27943907461906203 1.7856722978077855 -12.488820552313772 127 49 29
-0.24410928205297822 1.7310583908632302 -12.474231995633772 122 44 25
-0.2381201323924742 1.720497217755455 -12.499392123796012 125 45 27
-0.21281948335492018 1.6809486933071427 -12.498233640349007 126 45 26
-0.18823056666244753 1.64247345658955 -12.497940194257886 126 45 24
-0.15064414579496477 1.5829295126738283 -12.512994852922494 126 45 24
-0.18127205608508934 1.6273043968357532 -12.58864480200543 126 45 24
-0.09686959998968314 1.499114078865679 -12.505403329392097 126 45 24
-0.1314470953514446 1.5494033696032092 -12.58673461651005 127 46 25
-0.09798739701091375 1.4976424512709832 -12.573721248251914 131 49 28
-0.06400601746097223 1.4451075287545816 -12.559804749134898 132 50 29
-0.028910632511169876 1.390910848125456 -12.54414926380953 128 46 25
0.0051465600328515215 1.3382794612188853 -12.529761822142364 127 45 24
0.028446104541999695 1.301781649229845 -12.530334338639467 128 46 25
0.05806295588761978 1.2558203891953585 -12.52189251100987 127 45 24
0.06292184660165301 1.2469674477475436 -12.548345580590844 127 45 24
0.07614789900460739 1.2255751144302565 -12.562970048792714 125 43 22
0.09730501750877929 1.1923014329672217 -12.5662871557514 126 44 23
0.12510876751831201 1.1490749562282367 -12.560035428608984 121 39 18
0.14583258713105796 1.1164592652281247 -12.563782063258998 125 43 22
0.1614473258671798 1.09149878668544 -12.574782717794937 127 45 24
0.16199084557828547 1.0891082854343477 -12.607437395860153 127 45 24
0.16886081998920188 1.0772416366949402 -12.631043378595841 126 44 23
0.17271414764838333 1.0698895682086729 -12.659047534356839 133 51 30
0.17382771427566146 1.0666358885359593 -12.691084697298418 130 48 27
0.2289034151387246 0.9826148231776619 -12.644659741769962 129 47 26
0.24781107163244487 0.9527355092242926 -12.650664318612353 128 46 25
0.30410657259948604 0.8669162848856757 -12.60188110626508 129 44 24
0.32284689212737927 0.8373007714811402 -12.607846072567998 128 43 22
0.3331246616520809 0.8203475109882721 -12.626200603209783 128 43 22
0.3567466707382625 0.7834349716676163 -12.624863820383013 130 46 22
0.3695391700763526 0.7627231443468583 -12.639448743075615 129 45 21
0.39276804635209706 0.7264063993335652 -12.638527153840059 131 47 23
0.4123314536449998 0.6955748834413304 -12.64295711834622 133 50 25
0.4137928111961364 0.6918081416911317 -12.67432971266432 130 47 24
0.43009481058172794 0.665854977909289 -12.683568294147198 138 53 33
0.4563229140903444 0.6250690957619911 -12.677863047300434 145 63 40
0.4618081744955598 0.6152862057605155 -12.703244918653429 149 73 48
0.4610545021511778 0.614823122883557 -12.738085694061745 148 77 56
0.6270595906197238 0.35259117992832767 -12.788643500196297 144 74 53
0.6383034443634186 0.3342151777971445 -12.805100510118063 143 68 43
0.646890477080408 0.3198032396624537 -12.82568593565398 139 59 28
0.6418374459398963 0.32573773682146356 -12.867572320679404 115 36 12
0.6450041354314804 0.3194059351611358 -12.896732932734153 94 17 4
0.6523085037674665 0.306900489548414 -12.919465976932631 84 15 1
0.6535575425997937 0.30342284816545817 -12.951755660892463 99 43 21
0.6779649719745033 0.2654143935443871 -12.947587507098008 95 47 26
0.6508107747313034 0.30427441992727466 -13.024879996154837 49 19 10
0.6387980281403061 0.32055059010196274 -13.078481325453197 11 3 5
0.5852420454142946 0.37519284975738376 -13.697523911628188 14 10 9
0.5879314609526665 0.36947724991152775 -13.729460149273141 14 10 9
0.6267908031147176 0.309977983094317 -13.701310089716841 14 10 9
0.6703986106803304 0.24343154461117944 -13.664982000635483 12 8 7
0.6887301963176289 0.21447085393172483 -13.670628191226449 9 5 4
0.764034426595321 0.09913878893716177 -13.616722047449896 7 4 2
0.7726762915147023 0.08459316725922505 -13.638322376742078 12 2 1
