ply
format ascii 1.0
element vertex 840
property float x
property float y
property float z
property float nx
property float ny
property float nz
property uchar diffuse_red
property uchar diffuse_green
property uchar diffuse_blue
property uchar class
property uchar detection
end_header
-4.2989 1.3065 -12.6213 -0.012 0.182 0.983 156 112 102 0 0
-4.3263 1.3406 -12.6166 -0.436 -0.249 0.865 148 97 85 0 0
-4.3483 1.3678 -12.6198 -0.436 -0.249 0.865 137 83 66 0 0
-4.3703 1.3950 -12.6231 -0.436 -0.249 0.865 129 74 55 0 0
-4.7214 1.8219 -12.9270 -0.545 0.132 0.828 91 35 23 0 0
-4.7414 1.8466 -12.9320 -0.760 0.114 0.639 85 34 23 0 0
-4.7538 1.8616 -12.9495 -0.760 0.114 0.639 82 31 26 0 0
-4.8828 2.0102 -13.3498 -0.985 -0.026 0.169 97 62 60 0 0
-4.9379 2.0677 -13.7318 -0.944 0.235 0.230 83 54 49 0 0
-4.8664 1.9347 -15.2880 -0.627 0.631 0.457 63 18 12 0 0
-4.8784 1.9424 -15.5404 -0.729 -0.048 0.683 72 33 25 0 0
-4.8678 1.8940 -16.7781 -0.890 -0.252 0.379 113 108 106 0 0
-4.8679 1.8927 -16.8287 -0.793 -0.361 0.491 120 118 116 0 0
-4.8676 1.8908 -16.8804 -0.653 -0.423 0.629 128 127 125 0 0
-4.8782 1.9032 -16.9083 -0.717 0.605 -0.347 137 135 136 0 0
-4.1109 1.1169 -12.5779 0.411 0.761 0.502 202 201 200 0 0
-4.1259 1.1351 -12.5925 0.351 0.720 0.599 198 191 189 0 0
-4.1441 1.1573 -12.6024 0.095 0.257 0.962 188 176 174 0 0
-4.1669 1.1856 -12.6051 -0.125 -0.033 0.992 174 155 149 0 0
-4.1902 1.2144 -12.6071 -0.125 -0.033 0.992 155 126 119 0 0
-4.2158 1.2461 -12.6055 -0.023 0.325 0.945 146 102 94 0 0
-4.2358 1.2706 -12.6123 0.056 0.342 0.938 140 86 76 0 0
-4.2574 1.2973 -12.6165 0.162 0.248 0.955 128 66 54 0 0
-4.2799 1.3250 -12.6195 0.221 0.331 0.917 123 54 42 0 0
-4.3100 1.3625 -12.6106 -0.172 0.034 0.984 117 54 38 0 0
-4.3311 1.3886 -12.6152 -0.172 0.034 0.984 109 48 32 0 0
-4.3560 1.4194 -12.6141 -0.298 -0.053 0.953 108 48 32 0 0
-4.4612 1.5500 -12.5994 -0.070 0.243 0.967 107 43 30 0 0
-4.4790 1.5719 -12.6085 -0.026 0.399 0.917 106 44 31 0 0
-4.4966 1.5935 -12.6181 0.033 0.500 0.866 105 43 30 0 0
-4.5875 1.7008 -12.8099 -0.987 0.127 0.101 109 40 25 0 0
-4.8443 1.9474 -15.4726 -0.447 0.268 0.854 67 24 15 0 0
-4.0421 1.0744 -12.5755 0.423 0.569 0.705 199 188 189 0 0
-4.0643 1.1017 -12.5797 0.245 0.570 0.784 186 169 168 0 0
-4.0781 1.1183 -12.5961 -0.019 0.095 0.995 174 147 141 0 0
-4.1016 1.1474 -12.5981 -0.125 -0.033 0.992 157 117 106 0 0
-4.1251 1.1763 -12.6001 -0.125 -0.033 0.992 145 95 81 0 0
-4.1485 1.2051 -12.6021 -0.125 -0.033 0.992 138 83 65 0 0
-4.1764 1.2397 -12.5972 -0.080 0.201 0.976 123 64 48 0 0
-4.1921 1.2588 -12.6105 0.062 0.479 0.876 115 51 39 0 0
-4.2188 1.2919 -12.6073 0.044 0.227 0.973 115 48 37 0 0
-4.3591 1.4650 -12.6152 -0.259 -0.019 0.966 103 41 30 0 0
-4.5363 1.6778 -12.8598 -0.986 0.102 -0.133 107 38 23 0 0
-4.8835 2.0983 -13.2010 -0.881 0.411 0.236 89 54 49 0 0
-4.9543 2.1688 -13.8728 -0.784 -0.342 0.518 83 40 31 0 0
-4.8255 1.9984 -14.3181 -0.953 0.274 -0.130 100 70 65 0 0
-4.8210 1.9916 -14.3689 -0.952 0.263 -0.158 100 71 67 0 0
-4.7644 1.9059 -14.9979 -0.932 0.322 0.165 75 28 19 0 0
-4.9254 2.0922 -15.4961 -0.636 0.256 0.728 75 40 34 0 0
-4.9887 2.1667 -15.6455 -0.956 0.275 0.097 77 47 39 0 0
-4.7678 1.8662 -16.7444 0.599 0.210 0.773 88 82 79 0 0
-4.8675 1.9896 -16.7303 -0.402 0.899 -0.173 117 115 114 0 0
-4.0163 1.0849 -12.5832 0.324 0.641 0.696 150 109 102 0 0
-4.0347 1.1073 -12.5930 0.245 0.570 0.784 138 85 75 0 0
-4.0836 1.1675 -12.5945 0.327 0.390 0.861 119 56 42 0 0
-4.1356 1.2317 -12.5908 -0.056 0.225 0.973 114 49 36 0 0
-4.1557 1.2563 -12.5976 -0.056 0.225 0.973 110 46 33 0 0
-4.1667 1.2694 -12.6181 0.062 0.479 0.876 109 47 33 0 0
-4.8029 2.0476 -12.8828 -0.873 0.448 0.195 84 32 24 0 0
-4.8089 2.0544 -12.9106 -0.533 0.727 0.433 78 31 23 0 0
-4.8252 2.0742 -12.9212 -0.603 0.203 0.772 75 31 25 0 0
-4.8373 2.0887 -12.9389 -0.549 0.247 0.799 75 34 27 0 0
-4.8450 2.0977 -12.9639 -0.617 0.374 0.692 81 41 35 0 0
-4.8627 2.1093 -13.3979 -0.710 0.448 0.544 90 57 52 0 0
-4.9268 2.1768 -13.8859 -0.872 0.446 -0.203 104 60 47 0 0
-4.9222 2.1700 -13.9353 -0.868 0.467 -0.169 93 57 48 0 0
-4.8190 2.0344 -14.2915 -0.953 0.282 -0.110 102 71 66 0 0
-4.8150 2.0283 -14.3411 -0.953 0.282 -0.110 101 70 67 0 0
-4.8197 2.0333 -14.3748 -0.975 0.191 -0.117 101 71 67 0 0
-4.8142 2.0252 -14.4277 -0.972 0.197 -0.128 100 71 67 0 0
-4.8149 2.0252 -14.4690 -0.990 0.076 -0.120 103 74 70 0 0
-4.8073 2.0144 -14.5261 -0.980 0.132 -0.151 104 75 71 0 0
-4.7743 1.9610 -15.0710 -0.804 0.302 0.513 63 20 11 0 0
-4.7964 1.9796 -15.4354 -0.613 -0.052 0.788 69 25 16 0 0
-4.8267 2.0163 -15.4668 -0.550 0.337 0.764 71 31 23 0 0
-4.9219 2.1328 -15.5054 -0.579 0.799 0.162 76 39 33 0 0
-4.9142 2.1218 -15.5675 -0.679 0.679 0.279 75 40 34 0 0
-4.9465 2.1620 -15.5480 -0.448 0.233 0.863 75 41 34 0 0
-4.9391 2.1515 -15.6096 -0.608 0.048 0.793 75 42 35 0 0
-4.7671 1.9079 -16.9505 -0.896 0.437 0.077 126 124 125 0 0
-3.9667 1.0661 -12.5890 0.239 0.539 0.808 122 68 55 0 0
-4.1150 1.2485 -12.5910 -0.121 0.205 0.971 105 48 34 0 0
-4.1346 1.2726 -12.5985 -0.121 0.205 0.971 106 46 32 0 0
-4.1481 1.2887 -12.6153 -0.053 0.412 0.910 109 45 33 0 0
-4.3914 1.5890 -12.5773 -0.816 0.162 0.554 109 43 28 0 0
-4.8202 2.1096 -12.8965 -0.647 0.683 0.340 79 34 28 0 0
-4.8267 2.1169 -12.9236 -0.647 0.683 0.340 81 39 32 0 0
-4.8308 2.1213 -12.9545 -0.725 0.644 0.244 84 43 36 0 0
-4.8325 2.1227 -12.9897 -0.806 0.589 0.061 83 44 37 0 0
-4.7602 1.9885 -15.0567 -0.509 0.054 0.859 80 45 36 0 0
-4.8526 2.1002 -15.1451 -0.585 0.801 -0.130 67 24 17 0 0
-4.7851 2.0124 -15.3689 0.251 0.783 0.570 67 25 16 0 0
-4.6555 1.8197 -16.8874 0.209 -0.088 0.974 86 81 78 0 0
-3.8290 0.9399 -12.5745 0.319 0.631 0.707 149 111 106 0 0
-3.8736 0.9944 -12.5839 0.308 0.392 0.867 125 67 56 0 0
-3.8959 1.0218 -12.5883 0.308 0.392 0.867 119 56 44 0 0
-3.9213 1.0529 -12.5882 0.245 0.436 0.866 112 50 40 0 0
-4.8039 2.1204 -13.3909 -0.479 0.827 0.295 88 54 45 0 0
-4.8258 2.0986 -15.7994 -0.376 0.926 -0.032 74 41 34 0 0
-4.8254 2.0971 -15.8474 -0.376 0.926 -0.032 75 42 35 0 0
-5.4663 2.8627 -16.8968 -0.687 0.681 -0.253 196 196 196 0 0
-3.7388 0.8722 -12.5636 0.456 0.615 0.644 155 125 116 0 0
-3.7573 0.8947 -12.5740 0.453 0.681 0.576 136 89 81 0 0
-3.7775 0.9193 -12.5819 0.359 0.638 0.681 126 67 58 0 0
-3.8926 1.0600 -12.5999 0.245 0.436 0.866 107 47 37 0 0
-4.5173 1.8265 -12.5406 -0.719 0.472 0.510 120 49 29 0 0
-4.5343 1.8472 -12.5506 -0.486 0.510 0.710 125 54 30 0 0
-4.5653 1.8846 -12.5754 -0.389 0.336 0.858 117 45 26 0 0
-4.7944 2.1612 -12.7989 -0.543 0.471 0.695 108 36 14 0 0
-4.1964 1.4759 -12.4885 -0.193 0.070 0.979 109 45 33 0 0
-4.2110 1.4935 -12.5032 -0.043 0.255 0.966 109 45 33 0 0
-4.2365 1.5247 -12.5014 -0.032 0.809 0.587 110 46 31 0 0
-4.3834 1.7036 -12.5341 -0.425 0.024 0.905 113 45 27 0 0
-4.8720 2.2838 -13.5568 -0.893 0.393 0.219 111 75 63 0 0
-4.7920 2.1584 -15.1828 -0.881 0.473 0.014 51 20 17 0 0
-5.4378 2.9213 -16.7579 -0.423 0.812 0.401 193 193 193 0 0
-5.4466 2.9316 -16.7881 -0.423 0.812 0.401 193 193 193 0 0
-3.7884 1.0175 -12.6169 -0.222 0.148 0.964 106 48 36 0 0
-3.8085 1.0419 -12.6248 -0.167 0.163 0.973 105 47 34 0 0
-4.1779 1.4947 -12.4861 -0.505 -0.093 0.858 110 45 33 0 0
-4.1975 1.5185 -12.4932 -0.296 0.106 0.949 111 45 33 0 0
-4.2257 1.5530 -12.4875 -0.617 0.604 0.505 112 45 31 0 0
-4.4858 1.8697 -12.5280 -0.661 0.218 0.718 125 54 33 0 0
-4.4997 1.8865 -12.5428 -0.657 0.150 0.739 120 49 27 0 0
-4.5133 1.9028 -12.5582 -0.657 0.150 0.739 118 47 26 0 0
-4.5269 1.9192 -12.5735 -0.447 0.280 0.849 114 41 22 0 0
-4.5240 1.9150 -12.6148 -0.805 0.146 0.576 114 40 21 0 0
-4.7843 2.1944 -15.1114 -0.147 0.682 0.716 35 6 5 0 0
-4.6788 2.0446 -16.4951 -0.143 0.979 -0.147 66 59 55 0 0
-4.1485 1.5001 -12.4998 -0.299 0.301 0.905 112 44 33 0 0
-4.1795 1.5380 -12.4900 -0.670 0.313 0.673 112 44 33 0 0
-4.3510 1.7464 -12.5225 -0.228 0.214 0.950 117 49 31 0 0
-4.4895 1.9149 -12.5279 0.179 0.453 0.873 120 49 27 0 0
-4.5042 1.9326 -12.5415 -0.199 0.480 0.855 114 42 21 0 0
-4.5177 1.9489 -12.5569 -0.441 0.290 0.849 114 41 22 0 0
-4.7300 2.2039 -12.8078 -0.689 0.405 0.600 120 42 10 0 0
-4.7580 2.2376 -12.8365 -0.724 0.423 0.545 105 40 20 0 0
-4.8366 2.3273 -13.2745 -0.660 0.751 0.008 88 52 45 0 0
-4.8084 2.2907 -13.4401 -0.589 0.748 0.305 90 53 44 0 0
-4.7563 2.2043 -15.1242 -0.118 0.528 0.841 57 28 24 0 0
-4.6027 1.9963 -16.6567 -0.554 0.755 -0.352 74 64 63 0 0
-4.1593 1.5547 -12.4901 -0.523 0.503 0.688 113 43 32 0 0
-4.4153 1.8656 -12.5028 -0.185 0.347 0.919 116 45 27 0 0
-4.4467 1.9035 -12.5271 -0.391 0.328 0.860 120 48 28 0 0
-4.4615 1.9213 -12.5406 -0.391 0.328 0.860 118 43 24 0 0
-4.8014 2.3311 -12.8071 -0.719 0.635 0.283 78 28 21 0 0
-4.5173 1.9373 -16.8378 -0.548 0.727 -0.414 79 73 73 0 0
-4.7693 2.3324 -12.7906 -0.681 0.006 0.732 87 31 19 0 0
-4.7912 2.3510 -13.5575 -0.575 0.584 0.574 90 53 44 0 0
-4.8011 2.3628 -13.5796 -0.575 0.584 0.574 89 50 42 0 0
-4.8061 2.3685 -13.6105 -0.535 0.745 0.397 84 45 38 0 0
-4.8128 2.3738 -13.8790 -0.769 0.636 0.060 106 71 58 0 0
-4.8061 2.3634 -14.0954 -0.682 0.732 -0.006 95 59 52 0 0
-4.8031 2.3593 -14.1420 -0.640 0.763 -0.091 93 58 51 0 0
-4.6851 2.2054 -15.1792 0.374 0.183 0.909 100 65 59 0 0
-4.7228 2.2514 -15.1508 -0.330 0.803 0.497 47 27 25 0 0
-3.2203 0.5004 -12.5549 0.499 0.721 0.482 184 164 163 0 0
-3.2372 0.5208 -12.5688 0.528 0.738 0.419 157 123 118 0 0
-3.2561 0.5435 -12.5800 0.458 0.722 0.519 128 79 70 0 0
-4.1187 1.5880 -12.4905 -0.146 0.369 0.918 113 44 30 0 0
-4.3905 1.9167 -12.5162 -0.504 0.224 0.834 118 44 26 0 0
-4.5007 2.0495 -12.5639 -0.726 0.388 0.568 126 51 28 0 0
-4.7931 2.3917 -13.8780 0.122 0.804 0.582 113 75 57 0 0
-4.7130 2.2834 -15.1728 0.354 0.580 0.734 26 10 8 0 0
-4.7191 2.2905 -15.2055 -0.202 0.855 0.478 8 2 3 0 0
-3.1622 0.4737 -12.5675 0.479 0.686 0.548 151 109 101 0 0
-3.1813 0.4967 -12.5785 0.427 0.649 0.630 131 80 70 0 0
-3.2006 0.5199 -12.5893 0.427 0.649 0.630 120 62 50 0 0
-3.4529 0.8249 -12.5387 -0.187 0.009 0.982 105 47 35 0 0
-3.4721 0.8480 -12.5488 -0.588 0.039 0.808 106 48 36 0 0
-3.9368 1.4097 -12.4734 -0.465 0.377 0.802 110 46 34 0 0
-4.3715 1.9342 -12.5149 -0.447 0.298 0.843 118 42 24 0 0
-4.7376 2.3743 -12.7784 -0.493 0.686 0.535 89 29 17 0 0
-4.7575 2.3980 -12.8200 -0.355 0.762 0.543 67 25 19 0 0
-4.7826 2.4273 -12.9651 -0.191 -0.014 0.982 82 42 35 0 0
-4.7757 2.4147 -13.5539 -0.482 0.258 0.838 87 49 40 0 0
-4.7499 2.3786 -14.2467 -0.832 0.552 -0.054 91 57 49 0 0
-4.7099 2.3245 -15.0491 -0.996 0.082 -0.036 91 56 48 0 0
-4.7200 2.3360 -15.1622 -0.228 0.810 0.540 17 4 3 0 0
-3.4150 0.8221 -12.5254 -0.175 -0.219 0.960 106 48 37 0 0
-3.4334 0.8443 -12.5365 -0.809 -0.096 0.580 106 48 37 0 0
-3.8955 1.4016 -12.4314 -0.564 0.079 0.822 113 47 35 0 0
-3.8953 1.4012 -12.4678 -0.131 0.258 0.957 113 46 35 0 0
-3.9332 1.4467 -12.4854 -0.263 0.381 0.886 113 47 34 0 0
-4.0799 1.6234 -12.4882 0.122 0.219 0.968 115 47 28 0 0
-4.0978 1.6450 -12.4980 0.031 0.170 0.985 117 49 30 0 0
-4.1488 1.7065 -12.4947 -0.183 0.068 0.981 119 48 30 0 0
-4.2508 1.8292 -12.5230 0.014 0.386 0.923 118 46 28 0 0
-4.3166 1.9084 -12.5321 -0.147 0.705 0.694 119 44 25 0 0
-4.7388 2.4153 -12.8556 -0.500 0.556 0.664 72 27 18 0 0
-4.7440 2.4211 -12.9218 -0.501 0.538 0.678 73 32 25 0 0
-4.7542 2.4333 -12.9423 -0.688 0.423 0.589 74 34 26 0 0
-4.7720 2.4545 -12.9877 -0.657 0.301 0.691 83 44 37 0 0
-4.7752 2.4570 -13.2481 -0.581 0.777 0.243 86 49 41 0 0
-4.7446 2.4169 -13.8115 -0.779 0.029 0.627 78 31 22 0 0
-4.7472 2.4194 -13.9277 -0.196 0.746 0.636 105 76 64 0 0
-4.7767 2.4547 -13.9560 -0.573 0.257 0.778 90 58 53 0 0
-4.7220 2.3868 -14.3432 -0.411 0.907 0.091 92 58 53 0 0
-4.7110 2.3722 -14.5742 -0.403 0.913 -0.069 99 64 59 0 0
-5.2690 3.0321 -16.7952 0.498 0.852 0.160 191 191 191 0 0
-5.3434 3.1209 -16.9267 0.470 0.772 0.428 195 195 195 0 0
-3.8815 1.4262 -12.4224 -0.593 0.020 0.805 114 49 37 0 0
-4.2726 1.8960 -12.5325 -0.275 0.620 0.734 120 46 28 0 0
-4.4019 2.0514 -12.5526 -0.313 0.664 0.679 118 43 22 0 0
-4.4290 2.0840 -12.5471 -0.118 0.305 0.945 118 43 22 0 0
-4.4279 2.0826 -12.5850 -0.042 0.597 0.801 121 46 25 0 0
-4.4421 2.0995 -12.5995 -0.099 0.583 0.806 124 49 28 0 0
-4.7442 2.4612 -13.0012 -0.405 0.589 0.699 79 40 33 0 0
-4.7409 2.4533 -13.9836 -0.417 0.622 0.663 91 60 56 0 0
-4.7845 2.5058 -13.9459 -0.824 0.298 0.482 92 57 52 0 0
-4.6797 2.3750 -15.1577 -0.956 0.249 -0.156 103 63 55 0 0
-4.6616 2.3529 -15.2370 -0.338 0.778 0.530 45 22 20 0 0
-5.1424 2.9243 -16.9346 0.395 0.919 -0.010 186 186 186 0 0
-5.3055 3.1203 -16.9642 0.458 0.779 0.428 195 195 195 0 0
-3.3819 0.8679 -12.5131 -0.566 0.094 0.819 109 51 40 0 0
-4.2161 1.8688 -12.5152 -0.681 0.211 0.701 119 43 27 0 0
-4.3840 2.0702 -12.5136 -0.599 0.403 0.692 118 43 21 0 0
-4.4115 2.1031 -12.5437 -0.442 0.307 0.843 120 45 23 0 0
-4.7011 2.4502 -12.7425 -0.608 0.245 0.755 106 41 15 0 0
-4.7270 2.4807 -12.9971 -0.573 0.563 0.595 79 40 33 0 0
-4.7661 2.5252 -13.9829 -0.123 0.304 0.945 91 58 51 0 0
-4.6495 2.3839 -14.5683 0.007 0.678 0.735 98 64 55 0 0
-4.6294 2.3596 -14.6479 -0.826 0.419 0.377 99 65 56 0 0
-4.6306 2.3609 -14.6883 -0.732 0.622 0.278 100 66 57 0 0
-3.3647 0.8900 -12.4717 -0.444 0.571 0.691 108 49 38 0 0
-4.6625 2.4437 -12.6999 -0.499 0.021 0.866 115 42 13 0 0
-4.6754 2.4591 -12.7159 -0.548 0.116 0.829 113 45 13 0 0
-4.6805 2.4652 -12.7443 -0.806 0.127 0.578 110 46 18 0 0
-4.6964 2.4842 -12.8660 -0.889 0.168 0.426 72 30 24 0 0
-4.7106 2.5011 -12.9171 -0.687 0.235 0.688 72 31 25 0 0
-4.6945 2.4812 -13.8324 -0.330 0.931 0.154 90 38 24 0 0
-4.6570 2.4357 -14.5581 -0.694 0.697 -0.181 99 65 56 0 0
-4.5714 2.3325 -15.3728 -0.593 0.701 -0.395 50 34 28 0 0
-4.3655 2.0856 -15.9549 -0.982 0.100 -0.158 19 15 14 0 0
-3.3121 0.8697 -12.4782 -0.078 -0.130 0.988 111 51 40 0 0
-3.3472 0.9116 -12.4668 -0.146 0.475 0.868 108 48 37 0 0
-3.3645 0.9323 -12.4795 -0.217 0.470 0.855 107 47 36 0 0
-3.3804 0.9514 -12.4940 -0.217 0.470 0.855 109 48 37 0 0
-3.8660 1.5315 -12.4650 -0.543 0.100 0.834 118 51 34 0 0
-4.4072 2.1781 -12.5258 -0.721 0.540 0.434 123 48 27 0 0
-4.6207 2.4334 -12.6991 -0.783 0.140 0.606 111 41 16 0 0
-4.6478 2.4658 -12.7655 -0.322 0.526 0.787 111 49 21 0 0
-4.7103 2.5410 -13.3772 -0.245 0.839 0.485 90 51 44 0 0
-4.7514 2.5902 -13.5005 -0.543 0.798 0.262 85 46 39 0 0
-4.2846 2.0348 -16.3051 -0.917 -0.318 0.239 20 16 15 0 0
-4.2983 2.0513 -16.4215 -0.809 0.551 -0.205 23 19 18 0 0
-5.0860 2.9928 -16.9628 -0.639 -0.062 0.766 186 186 186 0 0
-5.3364 3.2919 -16.9417 -0.207 -0.417 0.885 197 197 197 0 0
-5.3330 3.2880 -17.0006 -0.056 -0.303 0.951 198 198 198 0 0
-3.3231 0.9253 -12.4710 -0.021 0.467 0.884 107 47 36 0 0
-3.3416 0.9475 -12.4820 -0.190 0.363 0.912 110 48 37 0 0
-4.3640 2.1666 -12.5257 -0.459 0.148 0.876 121 45 25 0 0
-4.3983 2.2075 -12.5452 -0.646 0.401 0.649 123 48 27 0 0
-4.4004 2.2101 -12.5781 -0.761 0.268 0.591 124 49 28 0 0
-4.6083 2.4582 -12.6878 -0.706 0.447 0.549 106 35 13 0 0
-4.6136 2.4647 -12.7158 -0.730 0.525 0.437 108 34 11 0 0
-4.6210 2.4735 -12.7406 -0.382 0.485 0.786 109 39 14 0 0
-4.6300 2.4843 -12.7627 -0.291 0.487 0.824 121 63 33 0 0
-4.6494 2.5075 -12.8049 -0.837 0.408 0.364 82 36 25 0 0
-4.6947 2.5622 -13.0655 -0.080 0.877 0.474 80 41 34 0 0
-4.6729 2.5371 -13.4457 -0.346 0.314 0.884 89 50 42 0 0
-4.7300 2.6054 -13.5029 -0.541 0.819 0.192 86 48 39 0 0
-2.6563 0.1752 -12.6626 0.356 0.756 0.549 102 49 41 0 0
-3.2977 0.9376 -12.4769 -0.021 0.467 0.884 107 47 36 0 0
-3.3194 0.9634 -12.4837 -0.190 0.363 0.912 109 47 36 0 0
-3.6763 1.3880 -12.4603 -0.420 0.233 0.877 117 49 38 0 0
-3.6909 1.4055 -12.4757 -0.416 0.053 0.908 114 48 36 0 0
-4.2913 2.1200 -12.5344 -0.393 0.562 0.728 127 50 30 0 0
-4.3197 2.1538 -12.5272 -0.187 0.197 0.962 122 46 25 0 0
-4.4079 2.2590 -12.5722 -0.664 0.022 0.747 123 49 29 0 0
-4.5889 2.4747 -12.6875 -0.617 0.253 0.745 108 37 12 0 0
-4.5967 2.4841 -12.7116 -0.665 0.486 0.567 107 33 10 0 0
-4.6233 2.5159 -12.7421 -0.514 0.214 0.831 115 59 28 0 0
-4.6423 2.5389 -12.8215 -0.864 0.273 0.424 72 32 23 0 0
-4.6420 2.5387 -12.8959 -0.602 0.665 0.442 70 29 23 0 0
-4.6492 2.5495 -13.4520 -0.167 0.338 0.926 89 49 41 0 0
-4.6336 2.5348 -14.4027 -0.074 0.942 0.328 99 62 54 0 0
-4.5590 2.4491 -15.1840 -0.978 0.144 -0.150 93 54 48 0 0
-2.5162 0.0529 -12.6285 0.492 0.670 0.556 116 61 53 0 0
-3.2908 0.9717 -12.4579 -0.664 0.191 0.723 109 48 35 0 0
-3.6586 1.4084 -12.4564 -0.400 0.239 0.885 115 47 36 0 0
-4.2194 2.0739 -12.3978 -0.928 0.132 0.348 121 46 27 0 0
-4.6151 2.5458 -12.7605 -0.678 0.350 0.646 108 64 36 0 0
-4.6253 2.5582 -12.8174 -0.772 0.524 0.358 72 30 25 0 0
-4.6263 2.5629 -13.4569 -0.141 0.521 0.842 88 48 40 0 0
-4.6512 2.5927 -13.4920 0.076 0.536 0.841 89 49 39 0 0
-4.2889 2.1762 -15.9305 -0.387 0.921 -0.044 34 32 32 0 0
-4.2819 2.1682 -15.9903 -0.296 0.947 0.128 31 29 30 0 0
-2.4120 -0.0260 -12.6208 0.499 0.703 0.507 132 84 79 0 0
-2.4301 -0.0046 -12.6350 0.503 0.681 0.532 118 65 55 0 0
-3.0598 0.7405 -12.4845 -0.318 0.335 0.887 107 46 35 0 0
-3.2718 0.9914 -12.4552 -0.662 0.067 0.746 110 48 35 0 0
-3.6579 1.4490 -12.4645 -0.396 0.142 0.907 120 50 38 0 0
-3.6946 1.4927 -12.4847 -0.119 0.009 0.993 117 48 33 0 0
-3.9551 1.8012 -12.4709 -0.483 0.285 0.828 122 46 27 0 0
-3.9780 1.8284 -12.4735 -0.586 0.291 0.756 121 45 26 0 0
-3.9893 1.8419 -12.4928 -0.581 0.119 0.805 121 45 27 0 0
-4.0976 1.9703 -12.5132 -0.566 0.148 0.811 122 47 27 0 0
-4.3603 2.2818 -12.5490 -0.190 0.100 0.977 120 42 24 0 0
-4.5653 2.5258 -12.6995 -0.588 0.491 0.642 102 28 7 0 0
-4.5991 2.5663 -12.7549 -0.678 0.350 0.646 110 71 40 0 0
-4.6102 2.5795 -12.7737 -0.678 0.350 0.646 85 36 24 0 0
-4.6297 2.6030 -12.8154 -0.821 0.151 0.551 65 24 20 0 0
-4.6101 2.5846 -13.4891 -0.249 0.409 0.878 88 48 39 0 0
-4.6200 2.5965 -13.5110 -0.425 0.140 0.894 90 50 40 0 0
-4.6377 2.6174 -13.5197 -0.465 0.048 0.884 90 50 40 0 0
-4.5862 2.5619 -14.2895 -0.537 0.814 0.221 95 58 50 0 0
-4.3188 2.2558 -15.7843 -0.745 0.543 -0.388 37 34 34 0 0
-4.2815 2.2125 -15.9018 -0.961 0.276 -0.011 32 30 32 0 0
-3.3011 1.0693 -12.5675 -0.523 0.787 0.327 114 50 38 0 0
-3.6684 1.5027 -12.4568 -0.357 0.280 0.891 119 49 35 0 0
-3.6849 1.5222 -12.4696 -0.357 0.280 0.891 121 52 37 0 0
-3.7135 1.5563 -12.5009 -0.342 0.183 0.922 120 49 31 0 0
-4.5474 2.5440 -12.6969 -0.379 0.659 0.650 101 27 8 0 0
-4.5847 2.5887 -12.7466 -0.390 0.494 0.777 107 62 34 0 0
-4.5975 2.6039 -12.7627 -0.390 0.494 0.777 85 36 23 0 0
-4.6103 2.6191 -12.7787 -0.390 0.494 0.777 71 27 24 0 0
-4.5995 2.6072 -12.8696 -0.629 0.518 0.580 65 24 20 0 0
-4.5876 2.6088 -14.6663 -0.528 0.753 0.393 118 71 48 0 0
-4.5958 2.6187 -14.6935 -0.468 0.804 0.367 120 70 50 0 0
-3.0190 0.7778 -12.4821 0.039 0.298 0.954 109 48 36 0 0
-3.2663 1.0692 -12.4422 -0.462 0.806 0.370 114 49 37 0 0
-3.2931 1.1020 -12.5498 -0.609 0.716 0.341 115 49 36 0 0
-4.1156 2.0716 -12.4635 -0.488 0.092 0.868 124 47 27 0 0
-4.3400 2.3373 -12.5558 -0.573 0.437 0.693 125 49 29 0 0
-4.5262 2.5585 -12.6995 -0.271 0.672 0.689 94 23 8 0 0
-4.5906 2.6352 -12.7791 -0.390 0.494 0.777 64 24 18 0 0
-4.6000 2.6516 -13.2854 -0.728 0.677 0.112 89 47 37 0 0
-4.6106 2.6687 -13.7316 -0.817 0.144 0.558 53 13 7 0 0
-4.6423 2.7059 -13.7161 -0.622 0.001 0.783 67 17 7 0 0
-4.6682 2.7365 -13.7104 -0.796 0.177 0.578 105 55 37 0 0
-4.6821 2.7530 -13.7255 -0.820 0.327 0.470 113 69 53 0 0
-4.5607 2.6196 -14.6772 -0.187 0.967 0.174 117 65 41 0 0
-2.9393 0.7268 -12.4861 -0.467 0.020 0.884 113 51 40 0 0
-3.0619 0.8701 -12.3984 0.168 0.472 0.865 111 48 37 0 0
-3.1028 0.9189 -12.4521 -0.664 0.646 0.377 111 48 36 0 0
-3.1361 0.9580 -12.4441 -0.602 0.365 0.710 111 48 36 0 0
-3.1458 0.9697 -12.4670 -0.420 0.477 0.772 112 48 36 0 0
-4.1446 2.1461 -12.4983 -0.658 0.296 0.692 125 48 28 0 0
-4.1780 2.1856 -12.5200 -0.237 0.080 0.968 127 49 27 0 0
-4.2003 2.2120 -12.5223 -0.437 0.190 0.879 131 54 32 0 0
-4.3413 2.3780 -12.5239 -0.353 0.698 0.623 121 44 27 0 0
-4.5065 2.5746 -12.6998 -0.374 0.541 0.753 88 19 7 0 0
-4.5768 2.6582 -12.7700 -0.296 0.387 0.873 65 23 18 0 0
-4.6649 2.7733 -13.7205 -0.984 0.157 0.085 114 67 49 0 0
-4.5330 2.6295 -14.6896 -0.286 0.949 0.132 110 59 36 0 0
-4.3385 2.4153 -15.9396 -0.986 0.151 0.072 43 41 42 0 0
-2.0372 -0.2888 -12.6018 0.512 0.549 0.661 193 189 189 0 0
-2.3344 0.0600 -12.5703 0.305 0.163 0.938 103 51 40 0 0
-2.8273 0.6376 -12.4589 -0.504 0.627 0.594 107 47 36 0 0
-2.9208 0.7474 -12.4464 -0.105 0.601 0.792 109 47 36 0 0
-2.9319 0.7607 -12.4680 -0.105 0.230 0.967 111 49 38 0 0
-3.0228 0.8669 -12.4216 -0.170 0.424 0.890 111 49 37 0 0
-3.0449 0.8929 -12.4287 -0.113 0.010 0.994 113 48 36 0 0
-3.0773 0.9314 -12.4577 -0.326 0.631 0.704 113 48 36 0 0
-3.1370 1.0014 -12.4509 -0.537 0.337 0.773 113 49 37 0 0
-3.5204 1.4516 -12.4341 -0.478 0.276 0.834 117 48 31 0 0
-3.5774 1.5191 -12.4622 -0.573 0.049 0.818 118 45 29 0 0
-3.6131 1.5608 -12.4484 -0.296 0.228 0.928 120 47 31 0 0
-3.6325 1.5837 -12.4570 -0.375 0.128 0.918 121 48 32 0 0
-3.6473 1.6013 -12.4720 -0.413 0.324 0.851 121 48 31 0 0
-3.6592 1.6156 -12.4909 -0.442 0.055 0.896 122 49 32 0 0
-3.8178 1.8013 -12.4452 -0.099 0.212 0.972 124 49 30 0 0
-3.8376 1.8246 -12.4526 -0.074 0.169 0.983 121 46 27 0 0
-3.9164 1.9171 -12.4464 -0.491 0.222 0.843 124 47 29 0 0
-4.1424 2.1835 -12.5077 -0.360 0.061 0.931 125 47 27 0 0
-4.3125 2.3837 -12.5379 -0.711 0.472 0.520 124 47 30 0 0
-4.3713 2.4521 -12.4841 -0.740 0.576 0.348 129 54 38 0 0
-4.5546 2.6714 -12.7743 -0.481 0.402 0.779 68 25 20 0 0
-4.5619 2.6884 -13.3969 -0.789 0.543 0.287 94 50 40 0 0
-4.6073 2.7459 -13.7070 -0.569 0.808 0.154 56 10 5 0 0
-4.6598 2.8080 -13.7338 -0.949 0.311 -0.056 112 71 58 0 0
-4.6523 2.7998 -13.7863 -0.840 0.542 -0.029 100 68 59 0 0
-4.5447 2.6803 -14.2981 -0.824 0.557 -0.101 94 57 48 0 0
-4.5291 2.6656 -14.5746 -0.467 0.852 0.238 80 48 43 0 0
-4.3243 2.4432 -15.9243 -0.867 0.496 -0.043 36 34 36 0 0
-4.3234 2.4428 -15.9720 -0.824 0.567 -0.011 44 43 42 0 0
-4.3186 2.4398 -16.1673 -0.723 -0.521 0.453 33 28 25 0 0
-5.1962 3.4810 -16.9131 0.558 0.638 0.531 197 197 197 0 0
-2.8443 0.7003 -12.4456 -0.111 0.139 0.984 106 46 35 0 0
-3.2086 1.1273 -12.4353 -0.597 -0.189 0.779 115 49 37 0 0
-3.3965 1.3476 -12.4326 -0.350 0.377 0.857 119 51 36 0 0
-3.4121 1.3661 -12.4471 -0.350 0.377 0.857 118 51 35 0 0
-3.5003 1.4694 -12.4333 -0.340 0.321 0.884 118 49 31 0 0
-3.6283 1.6200 -12.4699 -0.413 0.324 0.851 120 47 30 0 0
-3.6417 1.6359 -12.4869 -0.569 0.323 0.757 119 46 29 0 0
-3.8613 1.8931 -12.4610 -0.173 0.127 0.977 123 47 28 0 0
-4.1260 2.2040 -12.5027 -0.360 0.061 0.931 127 48 28 0 0
-4.5529 2.7104 -12.8920 -0.811 0.457 0.366 70 30 22 0 0
-4.5404 2.6972 -12.9859 -0.767 0.639 0.050 85 41 34 0 0
-4.5282 2.7031 -14.3316 -0.553 0.818 0.155 93 56 47 0 0
-4.4886 2.6620 -14.6943 -0.587 0.809 0.000 90 41 22 0 0
-4.4894 2.6636 -14.7350 -0.598 0.798 0.074 116 72 49 0 0
-4.4943 2.6699 -14.7682 -0.556 0.775 0.301 98 64 54 0 0
-4.3072 2.4676 -15.9146 -0.824 0.567 -0.011 30 28 32 0 0
-2.8567 0.7575 -12.4381 -0.519 0.167 0.838 111 49 36 0 0
-3.0699 1.0071 -12.4478 -0.169 0.226 0.959 116 52 40 0 0
-3.0979 1.0399 -12.4467 -0.138 0.550 0.824 117 52 40 0 0
-3.1770 1.1318 -12.4138 -0.182 0.235 0.955 115 49 37 0 0
-3.6165 1.6469 -12.4579 -0.394 0.252 0.884 120 47 30 0 0
-3.6243 1.6564 -12.4826 -0.569 0.323 0.757 119 46 29 0 0
-3.7562 1.8100 -12.4397 -0.189 0.454 0.871 122 48 29 0 0
-3.8872 1.9631 -12.4307 0.005 0.597 0.802 122 47 28 0 0
-4.1081 2.2227 -12.4998 -0.200 0.477 0.856 127 49 29 0 0
-4.3388 2.4929 -12.5096 -0.439 0.725 0.530 125 53 34 0 0
-4.5357 2.7295 -12.8883 -0.650 0.522 0.552 71 32 24 0 0
-4.5236 2.7170 -12.9813 -0.767 0.639 0.050 91 44 37 0 0
-4.5093 2.7018 -13.0787 -0.909 0.375 0.180 99 53 41 0 0
-4.5137 2.7075 -13.1088 -0.957 0.197 0.213 82 41 27 0 0
-4.5276 2.7461 -14.4604 -0.493 0.022 0.870 87 53 47 0 0
-4.4597 2.6721 -14.7932 -0.925 0.344 0.160 107 67 58 0 0
-3.6146 1.6856 -12.4677 -0.575 0.069 0.815 120 47 30 0 0
-4.0968 2.2497 -12.5228 -0.187 0.257 0.948 127 46 25 0 0
-4.2511 2.4309 -12.5773 -0.250 0.089 0.964 127 52 32 0 0
-4.5138 2.7433 -12.8919 -0.632 0.490 0.601 73 34 26 0 0
-4.5069 2.7367 -12.9766 -0.767 0.639 0.050 97 50 41 0 0
-4.4982 2.7283 -13.0646 -0.921 0.324 0.216 69 29 20 0 0
-4.5042 2.7357 -13.0921 -0.957 0.197 0.213 37 8 2 0 0
-4.5371 2.7927 -14.1210 -0.739 0.670 0.077 96 59 51 0 0
-4.4922 2.7546 -14.9072 -0.774 0.356 0.524 74 27 17 0 0
-4.8811 3.2444 -16.8777 -0.838 0.456 0.299 181 181 181 0 0
-1.8640 -0.3104 -12.6264 0.579 0.545 0.607 116 64 52 0 0
-3.1549 1.1892 -12.3876 -0.323 0.308 0.895 114 48 36 0 0
-3.5829 1.6891 -12.4479 -0.555 0.000 0.832 120 47 30 0 0
-3.8219 1.9672 -12.4312 -0.283 0.128 0.951 121 46 27 0 0
-3.8738 2.0283 -12.4633 -0.488 0.478 0.730 122 45 25 0 0
-4.0811 2.2709 -12.5167 -0.080 0.317 0.945 126 45 24 0 0
-4.2305 2.4463 -12.5787 -0.372 0.190 0.909 127 52 32 0 0
-4.4964 2.7622 -12.8885 -0.539 0.496 0.680 74 33 27 0 0
-4.4901 2.7565 -12.9720 -0.767 0.639 0.050 97 52 39 0 0
-4.4892 2.7569 -13.0474 -0.933 0.223 0.282 39 12 7 0 0
-4.4882 2.7594 -13.2357 -0.565 0.816 0.121 13 3 2 0 0
-4.4910 2.7656 -13.3822 -0.231 0.810 0.539 46 6 0 0 0
-4.4411 2.7246 -14.2537 -0.592 0.648 0.479 96 59 51 0 0
-4.4766 2.7786 -14.8972 -0.494 0.585 0.643 79 35 22 0 0
-4.4871 2.7913 -14.9205 -0.306 0.923 0.234 118 73 53 0 0
-4.8466 3.2522 -17.0542 -0.281 0.954 -0.103 186 186 186 0 0
1.1580 -3.7228 -15.2828 -0.743 -0.316 0.590 127 104 96 0 0
-3.1591 1.2365 -12.4255 -0.113 0.764 0.636 118 51 36 0 0
-3.8546 2.0460 -12.4620 -0.488 0.478 0.730 122 45 25 0 0
-4.0126 2.2302 -12.4816 -0.198 0.504 0.841 123 42 22 0 0
-4.0592 2.2852 -12.5197 -0.080 0.317 0.945 124 43 22 0 0
-4.2125 2.4646 -12.5762 -0.176 0.201 0.964 127 51 31 0 0
-4.4717 2.7720 -12.8602 -0.876 0.452 0.171 66 25 19 0 0
-4.4779 2.7798 -12.8867 -0.539 0.496 0.680 74 34 27 0 0
-4.4731 2.7768 -13.0046 -0.789 0.614 0.024 80 43 34 0 0
-4.4825 2.7881 -13.0263 -0.942 0.051 0.332 21 4 2 0 0
-4.4905 2.7979 -13.0505 -0.942 0.051 0.332 15 5 3 0 0
-4.4905 2.7988 -13.0875 -0.938 0.304 0.165 13 3 1 0 0
-4.4595 2.7685 -13.3635 -0.356 0.842 0.406 22 5 4 0 0
-4.4536 2.7802 -14.2361 -0.604 0.357 0.712 94 57 48 0 0
-4.4441 2.7747 -14.4986 -0.883 0.378 0.278 97 61 50 0 0
-4.4466 2.7846 -14.8287 -0.834 0.522 0.181 85 60 59 0 0
-4.4489 2.7881 -14.8669 -0.784 0.553 0.283 82 50 46 0 0
-4.4565 2.7975 -14.8955 -0.634 0.679 0.370 96 55 43 0 0
-4.4580 2.8001 -14.9353 -0.633 0.756 0.167 116 72 55 0 0
-4.3549 2.6889 -15.3435 -0.739 0.561 -0.374 92 61 52 0 0
1.2512 -3.7789 -15.0872 0.142 0.943 0.302 149 122 119 0 0
1.2303 -3.7512 -15.2419 -0.297 0.441 0.847 124 88 82 0 0
1.2258 -3.7451 -15.2816 -0.607 0.021 0.794 119 79 73 0 0
-2.3205 0.3058 -12.4614 -0.305 -0.110 0.946 106 48 36 0 0
-2.3461 0.3356 -12.4661 -0.305 -0.110 0.946 107 48 37 0 0
-2.5446 0.5662 -12.4726 -0.454 -0.184 0.872 111 47 35 0 0
-4.1411 2.4204 -12.5468 -0.248 0.577 0.778 124 46 24 0 0
-4.1931 2.4813 -12.5758 -0.255 0.240 0.937 126 50 29 0 0
-4.4552 2.7927 -12.8917 -0.677 0.721 0.149 75 32 26 0 0
-4.4742 2.8174 -13.0081 -0.956 -0.011 0.293 17 2 1 0 0
-4.4818 2.8268 -13.0327 -0.956 -0.011 0.293 11 2 1 0 0
-4.3839 2.7193 -13.3035 -0.312 -0.020 0.950 11 2 3 0 0
-4.3959 2.7336 -13.3216 -0.258 0.449 0.856 11 2 3 0 0
-4.4106 2.7511 -13.3352 -0.258 0.449 0.856 11 2 3 0 0
-4.4581 2.8069 -13.3708 -0.531 0.474 0.703 42 6 1 0 0
-4.4732 2.8248 -13.3836 -0.800 0.486 0.352 64 13 2 0 0
-4.4348 2.8005 -14.2735 -0.873 0.395 0.287 93 56 47 0 0
-4.4375 2.8186 -14.9342 -0.700 0.706 0.108 111 69 52 0 0
-4.4016 2.7824 -15.1727 -0.723 0.661 -0.199 99 51 39 0 0
-4.7929 3.2741 -16.8277 0.339 0.940 0.021 179 179 179 0 0
1.5631 -4.0936 -14.6876 0.394 0.850 0.350 213 215 214 0 0
1.3458 -3.8272 -15.2927 0.306 0.871 0.384 124 82 73 0 0
-2.3604 0.3964 -12.4936 -0.355 0.391 0.849 110 48 37 0 0
-2.3848 0.4248 -12.4996 -0.371 0.268 0.889 111 49 38 0 0
-2.8640 0.9781 -12.4348 -0.737 0.260 0.624 113 49 34 0 0
-3.1103 1.2633 -12.4347 0.095 0.719 0.689 116 49 33 0 0
-3.8120 2.0749 -12.3952 -0.475 0.694 0.541 123 46 28 0 0
-4.1253 2.4412 -12.5411 -0.448 0.541 0.712 127 49 27 0 0
-4.1389 2.4573 -12.5563 -0.476 0.434 0.764 127 49 27 0 0
-4.1656 2.4881 -12.5520 -0.327 0.431 0.841 130 53 31 0 0
-4.2314 2.5628 -12.4889 -0.552 0.362 0.751 132 58 35 0 0
-4.4190 2.7905 -12.9182 -0.735 0.395 0.552 75 31 25 0 0
-4.4698 2.8703 -13.7793 -0.891 0.293 0.347 78 24 8 0 0
-4.5047 2.9102 -13.7587 -0.742 0.656 0.137 113 58 37 0 0
-4.5015 2.9075 -13.8034 -0.287 0.339 0.896 115 70 51 0 0
-4.4032 2.8056 -14.2929 -0.812 0.480 0.332 94 57 48 0 0
-4.4060 2.8137 -14.4925 -0.768 0.417 0.487 100 64 52 0 0
-4.4204 2.8378 -14.7999 -0.742 0.668 -0.060 109 71 56 0 0
-4.4185 2.8368 -14.8456 -0.761 0.646 -0.052 111 74 58 0 0
-4.4204 2.8431 -15.0122 -0.746 0.664 0.049 87 55 49 0 0
-1.5803 -0.4581 -12.6303 -0.284 -0.688 0.668 118 60 50 0 0
-1.7193 -0.2960 -12.6890 0.167 0.833 0.528 102 49 39 0 0
-1.7460 -0.2650 -12.6944 -0.313 0.543 0.779 104 47 38 0 0
-1.7659 -0.2416 -12.7077 -0.570 -0.208 0.795 104 47 38 0 0
-2.3093 0.3798 -12.4574 -0.378 -0.182 0.908 113 53 42 0 0
-2.3648 0.4450 -12.4973 -0.371 0.268 0.889 111 49 38 0 0
-2.7736 0.9144 -12.3808 -0.142 0.297 0.944 113 50 37 0 0
-2.7898 0.9335 -12.3958 -0.108 0.395 0.912 114 51 36 0 0
-4.0999 2.4504 -12.5140 -0.397 0.292 0.870 127 47 26 0 0
-4.1278 2.4835 -12.5434 -0.514 0.171 0.840 130 52 30 0 0
-4.1607 2.5221 -12.5654 -0.582 0.060 0.811 134 59 35 0 0
-4.4033 2.8113 -12.9120 -0.735 0.395 0.552 72 30 23 0 0
-4.4192 2.8310 -12.9598 -0.635 -0.212 0.743 101 54 40 0 0
-4.3228 2.7313 -13.4133 -0.760 0.074 0.645 13 4 4 0 0
-4.4813 2.9235 -13.7644 -0.918 0.366 0.153 109 53 33 0 0
-4.3926 2.8342 -14.2753 -0.966 0.181 0.184 94 57 48 0 0
-4.3885 2.8307 -14.3231 -0.490 -0.021 0.871 93 56 47 0 0
-4.3877 2.8309 -14.3651 -0.941 0.245 0.233 94 57 48 0 0
-4.3729 2.8187 -14.5555 -0.292 0.438 0.850 96 62 51 0 0
-4.4132 2.8666 -14.6078 -0.336 0.680 0.652 83 47 41 0 0
-4.1727 2.6261 -16.0587 -0.477 0.876 0.067 29 25 24 0 0
1.8047 -4.2557 -14.8343 -0.126 0.845 0.520 214 214 214 0 0
1.5267 -3.9346 -14.8510 0.467 0.639 0.611 156 135 127 0 0
-1.6857 -0.2911 -12.6283 -0.770 -0.178 0.612 101 49 40 0 0
-1.7369 -0.2307 -12.6783 -0.652 -0.130 0.747 102 47 40 0 0
-3.4135 1.6949 -12.3987 -0.054 -0.089 0.995 120 47 30 0 0
-3.7778 2.1148 -12.3868 -0.810 0.412 0.417 122 45 27 0 0
-4.2105 2.6168 -12.4969 -0.735 0.196 0.649 136 62 43 0 0
-4.4680 2.9480 -13.7528 -0.926 0.343 0.159 103 48 28 0 0
-4.4522 2.9316 -13.8187 -0.751 -0.376 0.543 111 64 43 0 0
-4.3699 2.8504 -14.3194 -0.742 -0.233 0.629 94 57 48 0 0
-4.3734 2.8587 -14.4766 -0.479 0.835 0.270 98 61 52 0 0
-4.3925 2.8890 -14.7743 -0.531 0.824 -0.197 111 67 52 0 0
-4.1467 2.6408 -16.0660 -0.477 0.876 0.067 29 26 24 0 0
1.8462 -4.2463 -14.8472 -0.203 0.733 0.650 213 213 213 0 0
1.5558 -3.9095 -14.9390 0.437 0.788 0.434 117 64 50 0 0
-1.7131 -0.2162 -12.5702 -0.342 -0.270 0.900 101 48 36 0 0
-2.0583 0.1798 -12.5264 0.061 -0.101 0.993 108 50 39 0 0
-2.0944 0.2211 -12.5194 0.007 -0.214 0.977 109 49 39 0 0
-2.9681 1.2229 -12.3964 -0.339 0.301 0.891 117 50 35 0 0
-3.0160 1.2783 -12.4050 -0.708 -0.068 0.703 116 50 37 0 0
-3.0321 1.2972 -12.4194 -0.708 -0.068 0.703 114 48 32 0 0
-3.4880 1.8216 -12.4101 -0.083 0.247 0.965 120 47 30 0 0
-3.5081 1.8449 -12.4178 -0.083 0.247 0.965 119 46 29 0 0
-4.4607 2.9826 -13.8479 0.012 0.136 0.991 95 66 58 0 0
-4.3501 2.8735 -14.4810 -0.479 0.835 0.270 98 61 52 0 0
-4.3704 2.8970 -14.4861 -0.634 0.741 0.221 98 61 52 0 0
-4.1391 2.6717 -15.9016 -0.764 0.639 -0.088 50 50 50 0 0
-4.1353 2.6690 -15.9540 -0.764 0.639 -0.088 49 49 49 0 0
1.8820 -4.2303 -14.8540 -0.203 0.733 0.650 214 212 213 0 0
-1.6269 -0.2693 -12.6070 -0.320 -0.134 0.938 101 45 34 0 0
-1.8112 -0.0586 -12.5748 -0.326 -0.397 0.858 105 47 36 0 0
-1.8973 0.0394 -12.5461 0.035 -0.006 0.999 107 47 36 0 0
-1.9732 0.1260 -12.5289 0.247 -0.032 0.969 108 48 37 0 0
-2.0136 0.1720 -12.5171 0.247 -0.032 0.969 108 49 37 0 0
-2.9211 1.2104 -12.3946 -0.171 0.451 0.876 116 48 36 0 0
-2.9452 1.2383 -12.3988 -0.217 0.584 0.782 116 49 33 0 0
-2.9596 1.2553 -12.4155 -0.217 0.584 0.782 116 49 33 0 0
-2.9740 1.2723 -12.4322 -0.217 0.584 0.782 117 49 36 0 0
-2.9883 1.2893 -12.4489 -0.217 0.584 0.782 115 49 33 0 0
-3.7410 2.1516 -12.3824 -0.347 0.043 0.937 122 45 27 0 0
-4.2403 2.7574 -13.4494 0.143 0.425 0.894 15 5 4 0 0
-4.2505 2.7699 -13.4707 0.143 -0.041 0.989 20 6 5 0 0
-4.3808 2.9487 -14.4311 -0.957 0.105 0.270 99 62 53 0 0
-4.3612 2.9285 -14.5067 -0.826 0.525 0.205 99 62 53 0 0
-4.2551 2.8318 -15.3329 -0.670 0.691 -0.272 88 54 44 0 0
-4.2155 2.7912 -15.4940 -0.595 0.713 -0.372 39 35 34 0 0
-4.1972 2.7725 -15.5722 -0.539 0.777 -0.324 23 22 23 0 0
-4.9979 3.7331 -16.9201 0.570 0.464 0.678 197 197 197 0 0
1.9282 -4.2260 -14.8717 -0.162 0.652 0.740 212 212 213 0 0
-1.5729 -0.2862 -12.6063 -0.011 -0.116 0.993 102 45 34 0 0
-1.6041 -0.2504 -12.6068 -0.022 0.109 0.994 101 44 33 0 0
-1.7704 -0.0613 -12.5597 0.027 0.012 1.000 104 46 34 0 0
-1.8719 0.0546 -12.5496 0.106 0.142 0.984 108 48 37 0 0
-3.4427 1.8505 -12.4162 -0.091 0.378 0.921 120 47 30 0 0
-4.3195 2.8633 -12.6684 -0.537 0.251 0.805 74 19 10 0 0
-4.3368 2.8845 -12.7132 -0.644 0.370 0.670 71 18 9 0 0
-4.2742 2.8312 -13.2871 -0.762 -0.611 0.214 12 2 3 0 0
-4.3290 2.8971 -13.3864 -0.407 0.417 0.813 35 8 4 0 0
-4.3405 2.9109 -13.4052 -0.381 0.619 0.687 51 11 6 0 0
-4.3419 2.9502 -14.5864 -0.638 0.526 0.563 93 58 48 0 0
-4.3319 2.9420 -14.6869 -0.656 0.750 0.088 89 54 44 0 0
-4.2250 2.8393 -15.3053 -0.470 0.842 -0.266 103 54 41 0 0
-4.2055 2.8223 -15.4722 -0.516 0.779 -0.357 50 47 46 0 0
1.9639 -4.2097 -14.8784 -0.218 0.581 0.784 211 211 213 0 0
-1.5724 -0.2414 -12.6170 0.413 0.334 0.847 102 46 33 0 0
-1.7754 -0.0110 -12.5637 -0.024 0.152 0.988 105 47 35 0 0
-1.8171 0.0362 -12.5513 0.144 0.427 0.892 108 48 38 0 0
-1.8372 0.0597 -12.5638 0.292 0.501 0.815 108 48 38 0 0
-3.9429 2.4641 -12.4584 -0.496 0.329 0.803 126 45 24 0 0
-3.9626 2.4869 -12.4650 -0.402 0.629 0.665 126 45 24 0 0
-4.0860 2.6279 -12.4601 -0.420 0.175 0.890 132 56 33 0 0
-4.3002 2.8797 -12.6683 -0.305 0.422 0.854 72 16 6 0 0
-4.3143 2.8963 -12.6822 -0.269 0.431 0.861 69 15 5 0 0
-4.3850 2.9772 -12.6798 -0.339 0.782 0.523 68 20 13 0 0
-4.1943 2.7851 -13.4586 -0.078 0.943 0.322 14 4 2 0 0
-4.2080 2.8013 -13.4744 0.124 0.339 0.933 20 5 5 0 0
-4.3921 3.0196 -13.7064 -0.898 0.225 0.377 53 10 4 0 0
-4.3503 2.9927 -14.3309 -0.772 0.253 0.584 96 59 50 0 0
-4.3504 2.9942 -14.3712 -0.858 0.461 0.228 96 59 50 0 0
-4.3553 3.0009 -14.4031 -0.858 0.461 0.228 97 60 51 0 0
-4.2439 2.9011 -15.2313 -0.898 0.432 -0.083 101 52 39 0 0
-4.9733 3.7937 -16.9764 -0.928 0.324 -0.186 197 197 197 0 0
-4.9935 3.8186 -17.0298 -0.896 0.414 0.162 199 199 199 0 0
-4.9922 3.8189 -17.0824 -0.122 -0.496 0.860 199 199 199 0 0
-1.7402 -0.0063 -12.5783 0.055 0.136 0.989 106 48 36 0 0
-2.3384 0.6715 -12.4409 0.186 0.219 0.958 113 50 36 0 0
-3.8172 2.3601 -12.4702 -0.431 0.086 0.898 126 45 24 0 0
-3.9551 2.5179 -12.4823 -0.379 0.585 0.717 127 46 25 0 0
-4.2940 2.9117 -12.6835 -0.269 0.431 0.861 68 14 4 0 0
-4.4121 3.0551 -12.9305 -0.609 -0.654 0.449 12 1 1 0 0
-4.3419 3.0232 -14.3098 -0.785 0.250 0.566 101 64 55 0 0
-4.3440 3.0269 -14.3464 -0.856 0.427 0.292 97 60 52 0 0
-4.3402 3.0243 -14.3935 -0.858 0.461 0.228 96 59 51 0 0
-4.1984 2.8903 -15.1893 -0.594 0.672 0.443 92 54 45 0 0
-4.2080 2.9022 -15.2147 -0.406 0.674 0.617 88 44 35 0 0
-4.1758 2.8705 -15.3601 -0.992 -0.090 0.089 105 59 49 0 0
-4.1800 2.8765 -15.3960 -1.000 0.023 -0.014 64 44 41 0 0
-4.0685 2.7674 -15.9134 -0.773 0.634 0.004 23 21 21 0 0
-4.9457 3.8078 -17.0390 -0.916 0.400 0.023 198 198 198 0 0
-4.9995 3.8685 -17.0167 -0.283 -0.438 0.854 199 199 199 0 0
-1.2973 -0.4648 -12.6216 -0.301 -0.286 0.910 106 54 43 0 0
-1.4151 -0.3302 -12.6347 -0.874 0.242 0.421 102 47 34 0 0
-3.0889 1.5682 -12.4201 0.136 0.150 0.979 119 49 33 0 0
-3.1150 1.5979 -12.4210 0.136 0.150 0.979 120 48 33 0 0
-3.8902 2.4815 -12.4424 -0.578 0.125 0.806 133 52 31 0 0
-3.9378 2.5371 -12.4788 -0.483 0.231 0.844 127 46 25 0 0
-4.2785 2.9324 -12.6774 -0.287 0.223 0.932 68 14 4 0 0
-4.3323 2.9945 -12.7014 -0.174 0.458 0.872 64 15 8 0 0
-4.4017 3.0800 -12.8800 -0.663 -0.631 0.402 14 2 3 0 0
-4.3273 3.0471 -14.2993 -0.786 0.130 0.604 98 61 53 0 0
-4.3290 3.0503 -14.3367 -0.856 0.427 0.292 98 61 53 0 0
-4.3341 3.0574 -14.3681 -0.854 0.372 0.364 96 59 51 0 0
-4.1765 2.9078 -15.1902 -0.889 0.423 0.172 91 53 45 0 0
-4.1795 2.9174 -15.3572 -1.000 0.023 -0.014 68 46 43 0 0
1.3890 -3.3912 -14.7566 -0.009 0.097 0.995 105 52 38 0 0
-1.4017 -0.3007 -12.6237 -0.874 0.242 0.421 103 46 35 0 0
-4.3025 3.0583 -14.2666 -0.753 0.117 0.647 104 67 58 0 0
-4.3133 3.0714 -14.2880 -0.827 0.221 0.516 93 56 47 0 0
-4.3140 3.0737 -14.3270 -0.856 0.427 0.292 94 57 49 0 0
-4.3207 3.0825 -14.3555 -0.827 0.419 0.375 95 58 49 0 0
-4.2396 3.0003 -14.6199 -0.655 0.743 0.136 96 61 52 0 0
-4.2561 3.0227 -14.7145 -0.635 0.770 -0.055 97 63 54 0 0
-4.2405 3.0076 -14.7837 -0.670 0.739 -0.073 98 64 55 0 0
-4.1660 2.9376 -15.1705 -0.519 0.754 0.403 91 53 44 0 0
-3.9960 2.7730 -15.9211 0.136 0.909 0.393 30 27 29 0 0
-4.0064 2.7857 -15.9469 0.136 0.909 0.393 26 22 20 0 0
1.3654 -3.3083 -14.7879 -0.835 0.265 0.482 109 64 52 0 0
-4.2929 3.0263 -12.7024 -0.488 0.244 0.838 72 21 10 0 0
-4.2887 3.0829 -14.2550 -0.753 0.117 0.647 89 52 43 0 0
-4.3003 3.0968 -14.2750 -0.867 0.260 0.426 88 51 42 0 0
-4.2982 3.0963 -14.3186 -0.886 0.416 0.203 95 58 49 0 0
-4.3047 3.1048 -14.3476 -0.854 0.372 0.364 94 57 48 0 0
-4.2202 3.0261 -14.7825 -0.670 0.739 -0.073 99 65 56 0 0
-1.1124 -0.5389 -12.6035 -0.046 -0.401 0.915 102 48 38 0 0
-4.0460 2.7775 -12.5152 -0.179 0.279 0.944 136 63 40 0 0
-4.2764 3.1074 -14.2008 -0.777 0.567 0.273 92 55 46 0 0
-4.2792 3.1120 -14.2359 -0.736 0.611 0.291 89 52 43 0 0
-4.2849 3.1196 -14.2661 -0.736 0.611 0.291 93 56 47 0 0
-4.2889 3.1256 -14.2991 -0.759 0.591 0.273 91 54 45 0 0
-4.2916 3.1301 -14.3346 -0.460 0.617 0.638 93 56 47 0 0
-4.2944 3.1347 -14.3699 -0.526 0.685 0.504 95 58 49 0 0
-4.3148 3.1579 -14.3748 0.067 0.769 0.636 96 59 51 0 0
-1.0270 -0.5886 -12.6351 0.212 -0.292 0.933 104 48 39 0 0
-3.5303 2.2307 -12.4522 -0.055 0.433 0.900 122 47 28 0 0
-3.8775 2.6244 -12.4869 -0.271 0.112 0.956 129 48 28 0 0
-3.9060 2.6563 -12.4809 -0.642 0.284 0.712 132 53 32 0 0
-3.9183 2.6710 -12.4979 -0.642 0.284 0.712 133 55 33 0 0
-4.2708 3.1238 -13.7845 0.214 0.262 0.941 76 25 10 0 0
-4.2708 3.1489 -14.3753 -0.581 0.686 0.438 95 58 49 0 0
-4.2837 3.1642 -14.3932 -0.812 0.394 0.432 96 59 51 0 0
-4.1161 3.0033 -15.0602 -0.187 0.625 0.758 98 62 53 0 0
-3.6377 2.3897 -12.4149 -0.655 0.628 0.419 123 45 27 0 0
-3.6429 2.3967 -12.4425 -0.651 0.585 0.483 125 47 27 0 0
-3.6510 2.4070 -12.4659 -0.651 0.585 0.483 128 50 28 0 0
-3.6644 2.4227 -12.4821 -0.559 0.583 0.590 125 44 23 0 0
-4.2607 3.1043 -12.6980 -0.362 0.047 0.931 79 32 19 0 0
-4.2534 3.0981 -12.7447 -0.746 0.636 0.196 64 23 15 0 0
-4.3074 3.2108 -13.9216 -0.541 0.671 0.506 94 59 53 0 0
-4.3137 3.2208 -13.9889 -0.908 0.411 0.078 93 58 52 0 0
-4.1142 3.0453 -15.1103 -0.582 0.268 0.768 88 54 47 0 0
-2.8526 1.5446 -12.3890 -0.099 0.128 0.987 117 48 32 0 0
-3.0725 1.7917 -12.3840 -0.442 0.007 0.897 120 47 30 0 0
-3.1631 1.8945 -12.4045 -0.096 -0.068 0.993 119 46 29 0 0
-3.4803 2.2525 -12.4305 0.090 0.406 0.909 122 47 28 0 0
-3.5033 2.2785 -12.4338 0.018 0.593 0.805 122 47 28 0 0
-3.6085 2.3949 -12.3930 -0.653 0.410 0.637 124 47 29 0 0
-3.8195 2.6361 -12.4786 -0.687 -0.049 0.725 126 44 23 0 0
-4.1886 3.0585 -12.6370 -0.687 0.161 0.708 68 14 4 0 0
-4.1995 3.0716 -12.6557 -0.503 0.489 0.713 60 11 4 0 0
-4.0647 3.0301 -15.0760 -0.567 0.131 0.814 95 62 53 0 0
-4.0781 3.0460 -15.0944 -0.438 0.329 0.837 94 60 52 0 0
-0.9051 -0.5880 -12.6545 0.472 0.146 0.870 106 48 40 0 0
-0.9810 -0.5049 -12.6086 0.383 0.286 0.878 105 49 40 0 0
-1.0970 -0.3773 -12.5546 -0.132 0.816 0.563 107 48 40 0 0
-1.1203 -0.3489 -12.6012 -0.132 0.816 0.563 114 57 46 0 0
-2.6714 1.3816 -12.3820 -0.193 -0.115 0.975 118 49 34 0 0
-2.8741 1.6102 -12.4047 -0.275 0.161 0.948 120 49 34 0 0
-3.3285 2.1184 -12.3659 -0.450 0.661 0.601 119 46 29 0 0
-3.3416 2.1339 -12.3829 -0.560 0.396 0.728 120 47 30 0 0
-3.3675 2.1646 -12.4174 -0.182 -0.160 0.970 125 50 31 0 0
-3.8009 2.6522 -12.4423 0.052 0.324 0.945 128 46 25 0 0
-4.0995 3.0322 -13.3963 -0.594 0.177 0.785 22 5 5 0 0
-4.2692 3.2490 -13.9568 -0.783 0.480 0.395 94 59 53 0 0
-2.9211 1.7027 -12.3874 -0.108 0.431 0.896 119 47 32 0 0
-3.3271 2.1569 -12.3752 -0.666 0.236 0.707 119 46 29 0 0
-3.5244 2.3816 -12.4539 -0.033 0.582 0.813 125 48 30 0 0
-3.8772 2.7779 -12.4788 -0.413 0.130 0.902 133 53 30 0 0
-3.9070 2.8126 -12.5053 -0.560 0.148 0.815 133 52 33 0 0
-3.9421 2.8529 -12.5240 -0.513 0.301 0.804 133 55 36 0 0
-3.9537 2.8668 -12.5421 -0.441 0.249 0.863 131 56 39 0 0
-4.0841 3.0539 -13.3890 -0.541 0.139 0.830 23 5 3 0 0
-4.0932 3.0652 -13.4119 -0.023 0.416 0.909 25 6 3 0 0
-4.1106 3.0852 -13.4215 -0.023 0.416 0.909 28 7 3 0 0
-4.0276 3.0740 -15.1083 -0.596 0.115 0.794 95 62 56 0 0
-4.0457 3.0947 -15.1183 -0.441 0.180 0.879 89 55 47 0 0
1.7399 -3.3416 -14.8870 0.400 0.517 0.757 106 53 39 0 0
-3.1311 1.9785 -12.4003 0.038 0.368 0.929 118 45 28 0 0
-3.4510 2.3372 -12.4229 -0.863 0.173 0.474 124 49 30 0 0
-3.4605 2.3489 -12.4446 -0.499 0.435 0.749 125 48 30 0 0
-3.4864 2.3778 -12.4438 -0.333 0.705 0.626 122 45 27 0 0
-3.5275 2.4244 -12.4567 -0.067 -0.070 0.995 124 47 28 0 0
-3.7342 2.6549 -12.4461 -0.235 0.291 0.927 128 46 25 0 0
-3.7513 2.6745 -12.4566 -0.235 0.291 0.927 127 45 24 0 0
-3.8635 2.8006 -12.4702 -0.493 0.313 0.812 133 52 31 0 0
-3.9101 2.8546 -12.5072 -0.207 0.382 0.901 130 52 32 0 0
-3.9244 2.8713 -12.5213 -0.253 0.464 0.849 132 55 35 0 0
-3.9387 2.8880 -12.5354 -0.227 0.492 0.840 131 56 39 0 0
-4.0115 3.0974 -15.0991 -0.278 0.118 0.953 96 63 56 0 0
-4.0272 3.1157 -15.1133 -0.441 0.180 0.879 92 58 50 0 0
1.7863 -3.3397 -14.8624 -0.451 -0.083 0.889 106 54 40 0 0
-3.4357 2.3590 -12.4163 -0.787 0.135 0.602 122 47 28 0 0
-3.7556 2.7179 -12.4572 -0.444 0.167 0.880 127 47 24 0 0
-4.0892 3.1400 -13.4292 -0.437 0.553 0.710 36 7 4 0 0
-4.0501 3.1747 -14.9516 -0.572 0.796 0.197 94 61 54 0 0
-3.9899 3.1173 -15.1417 0.126 0.545 0.829 92 58 50 0 0
-0.7237 -0.6069 -12.6751 -0.257 -0.364 0.895 110 54 45 0 0
-0.7721 -0.5519 -12.6962 -0.076 0.346 0.935 109 52 42 0 0
-3.0364 1.9510 -12.3665 -0.512 0.326 0.795 122 49 32 0 0
-3.4292 2.3917 -12.4324 -0.202 0.789 0.580 123 46 28 0 0
-3.5344 2.5085 -12.4268 -0.177 0.777 0.605 123 44 25 0 0
-3.8343 2.8439 -12.4558 -0.612 0.182 0.769 131 51 31 0 0
-3.9757 3.0566 -13.5022 0.549 0.349 0.759 26 7 3 0 0
-0.8596 -0.4117 -12.6492 0.199 0.237 0.951 109 52 41 0 0
-0.8922 -0.3754 -12.6503 0.257 0.292 0.921 109 52 41 0 0
-3.0183 1.9706 -12.3633 -0.565 0.192 0.803 121 48 33 0 0
-3.0336 1.9884 -12.3781 -0.582 0.290 0.760 120 47 31 0 0
-3.0487 2.0059 -12.3930 -0.506 0.277 0.817 120 47 30 0 0
-3.3706 2.3648 -12.4154 0.353 0.348 0.869 122 47 27 0 0
-3.5385 2.5538 -12.4628 -0.212 0.449 0.868 127 45 24 0 0
-3.8237 2.8714 -12.4775 -0.501 0.326 0.802 133 56 36 0 0
-3.8656 2.9203 -12.5215 -0.603 0.289 0.743 135 60 40 0 0
-4.1081 3.2381 -13.4103 -0.557 0.161 0.815 57 11 5 0 0
-4.1878 3.3546 -13.9239 0.151 0.909 0.388 94 59 53 0 0
-4.0758 3.2773 -14.7916 -0.995 0.037 0.091 94 61 54 0 0
1.9499 -3.3549 -14.8996 0.382 0.537 0.752 106 57 43 0 0
-0.8283 -0.4007 -12.6576 0.111 0.150 0.982 110 53 42 0 0
-4.1396 3.3431 -13.9705 -0.097 0.963 0.250 94 59 54 0 0
-4.0724 3.3128 -14.7611 -0.980 -0.022 0.198 94 61 54 0 0
-4.0007 3.2472 -15.0104 -0.762 0.648 0.019 96 62 55 0 0
-4.0071 3.2561 -15.0407 -0.983 -0.018 0.183 93 58 49 0 0
-3.9455 3.2056 -15.3611 -0.989 -0.090 -0.114 60 43 39 0 0
-4.1165 3.3662 -14.1306 -0.014 0.776 0.631 95 58 52 0 0
-4.1380 3.3902 -14.1336 -0.086 0.292 0.952 95 58 51 0 0
-4.0675 3.3466 -14.7333 -0.980 -0.022 0.198 94 61 54 0 0
-3.9611 3.2611 -15.2951 -0.977 -0.208 -0.056 67 45 41 0 0
-3.9373 3.2396 -15.3801 -0.918 0.284 -0.278 46 39 37 0 0
-3.8221 3.1340 -15.7598 -0.624 0.722 -0.299 43 37 37 0 0
-0.6888 -0.4628 -12.6840 -0.429 -0.362 0.828 113 54 43 0 0
-3.4929 2.6184 -12.4432 -0.448 0.767 0.460 126 43 24 0 0
-4.1433 3.3996 -13.5192 -0.226 0.864 0.449 87 41 32 0 0
-4.1313 3.3941 -13.6509 -0.418 0.653 0.632 50 13 11 0 0
-3.9765 3.3160 -15.2297 -0.977 -0.208 -0.056 75 52 45 0 0
-3.5219 2.6890 -12.4450 -0.293 0.410 0.864 126 44 23 0 0
-3.6146 2.7938 -12.4887 -0.320 0.495 0.808 131 49 28 0 0
-4.0131 3.2442 -12.6793 -0.483 0.457 0.747 70 13 3 0 0
-4.1627 3.4716 -13.7183 0.595 0.612 0.521 108 67 52 0 0
-3.9628 3.3241 -14.9244 -0.844 0.353 0.403 96 63 56 0 0
-3.1779 2.3445 -12.3658 0.055 0.596 0.801 122 49 32 0 0
-3.1934 2.3623 -12.3797 -0.159 0.729 0.666 122 49 32 0 0
-3.9970 3.2638 -12.6744 -0.610 0.409 0.679 71 13 3 0 0
-4.0506 3.3308 -12.8048 -0.444 0.579 0.684 54 19 13 0 0
-4.0264 3.3444 -13.4561 -0.577 -0.139 0.805 63 11 5 0 0
-4.0757 3.4007 -13.4893 -0.720 -0.075 0.690 116 67 31 0 0
-4.0887 3.4160 -13.5056 -0.779 0.212 0.590 103 45 19 0 0
-3.1726 2.3807 -12.4148 -0.391 0.737 0.552 122 49 32 0 0
-3.1868 2.3973 -12.4304 -0.206 0.604 0.770 122 48 31 0 0
-3.5651 2.8168 -12.5025 -0.691 0.440 0.573 129 47 26 0 0
-3.9795 3.2821 -12.6715 -0.489 0.620 0.613 68 13 1 0 0
-4.0307 3.3467 -12.8054 -0.444 0.579 0.684 54 19 13 0 0
-4.0930 3.4202 -12.8879 -0.620 -0.733 0.281 60 31 25 0 0
-4.0493 3.4086 -13.4625 -0.639 -0.095 0.763 129 77 49 0 0
-4.0645 3.4262 -13.4754 -0.683 -0.071 0.727 122 74 37 0 0
-3.9273 3.3717 -14.9952 -0.725 0.680 -0.108 94 60 52 0 0
-3.9236 3.3705 -15.0433 -0.717 0.696 0.036 91 54 46 0 0
-3.0067 2.2326 -12.3308 -0.283 0.694 0.662 120 47 30 0 0
-3.1383 2.3811 -12.3990 -0.007 0.694 0.720 123 50 33 0 0
-3.1506 2.3958 -12.4171 -0.350 0.686 0.638 123 50 33 0 0
-3.1633 2.4108 -12.4347 -0.206 0.604 0.770 119 45 28 0 0
-3.3032 2.5653 -12.4545 -0.559 0.733 0.387 123 44 27 0 0
-3.5813 2.8696 -12.4526 -0.275 0.578 0.768 129 47 26 0 0
-3.5953 2.8858 -12.4676 -0.612 0.194 0.767 129 47 26 0 0
-3.9955 3.3894 -13.4789 0.233 -0.003 0.973 80 19 7 0 0
-4.0235 3.4195 -13.4718 0.053 0.126 0.991 119 68 43 0 0
-4.0421 3.4428 -13.5164 -0.156 0.746 0.647 108 49 17 0 0
-4.0537 3.4567 -13.5352 -0.229 0.735 0.638 96 43 28 0 0
-0.5841 -0.3524 -12.6697 -0.026 -0.089 0.996 111 53 42 0 0
-3.0559 2.3287 -12.3774 -0.467 0.178 0.866 122 49 32 0 0
-3.0963 2.3738 -12.3932 -0.301 0.404 0.864 119 44 28 0 0
-3.1459 2.4306 -12.4309 -0.151 0.392 0.907 120 44 27 0 0
-3.1662 2.4532 -12.4385 -0.631 0.185 0.753 121 46 27 0 0
-3.2831 2.5820 -12.4544 -0.427 0.754 0.498 121 42 25 0 0
-3.6488 2.9847 -12.5027 -0.308 0.647 0.698 142 64 44 0 0
-3.7591 3.1085 -12.5535 -0.787 0.605 0.121 134 61 46 0 0
-3.1134 2.4329 -12.4127 -0.472 0.551 0.688 121 44 28 0 0
-3.1336 2.4553 -12.4205 -0.642 0.284 0.713 123 47 30 0 0
-3.2407 2.5742 -12.4499 -0.637 0.635 0.438 121 42 25 0 0
-3.2559 2.5917 -12.4639 -0.668 0.512 0.540 121 42 25 0 0
-3.3726 2.7152 -12.4099 0.036 0.586 0.809 123 42 23 0 0
-3.6123 2.9821 -12.4919 -0.483 0.654 0.582 133 55 33 0 0
-3.7636 3.1512 -12.5535 -0.285 0.462 0.840 140 71 59 0 0
-3.9493 3.4786 -14.4062 -0.692 0.683 0.234 97 60 52 0 0
-3.0942 2.4508 -12.4113 -0.282 0.546 0.789 122 46 28 0 0
-3.1199 2.4788 -12.4118 -0.168 0.254 0.953 125 49 30 0 0
-3.2116 2.5819 -12.4620 -0.569 0.126 0.812 122 43 24 0 0
-3.2449 2.6175 -12.4518 -0.214 0.123 0.969 122 42 24 0 0
-3.4509 2.8414 -12.4475 -0.324 0.786 0.526 132 50 29 0 0
-3.0551 2.4464 -12.4018 -0.550 0.195 0.812 120 45 26 0 0
-3.2000 2.6073 -12.4505 -0.389 0.708 0.589 122 43 24 0 0
-3.2099 2.6194 -12.4717 -0.389 0.708 0.589 123 42 23 0 0
-3.6576 3.1082 -12.5108 -0.495 -0.010 0.869 136 59 40 0 0
-3.9833 3.4799 -12.7662 -0.562 0.528 0.637 61 22 14 0 0
-2.9742 2.3935 -12.3439 -0.502 0.203 0.840 120 44 28 0 0
-2.9848 2.4064 -12.3643 -0.641 0.429 0.637 121 45 29 0 0
-3.0000 2.4239 -12.3787 -0.531 0.407 0.744 122 47 28 0 0
-3.0100 2.4363 -12.3998 -0.451 0.395 0.800 121 46 27 0 0
-3.0307 2.4593 -12.4071 -0.411 0.544 0.731 119 44 25 0 0
-3.1634 2.6052 -12.4382 -0.662 0.574 0.483 126 48 28 0 0
-3.1755 2.6196 -12.4564 -0.520 0.530 0.670 124 45 25 0 0
-3.1913 2.6378 -12.4696 -0.445 0.524 0.726 125 43 24 0 0
-3.2438 2.6920 -12.4340 -0.714 0.018 0.700 125 42 23 0 0
-3.3864 2.8475 -12.4472 0.195 0.637 0.746 123 42 21 0 0
-3.6406 3.1272 -12.5071 -0.087 0.586 0.806 137 60 41 0 0
