ply
format ascii 1.0
element vertex 709
property float x
property float y
property float z
property uchar diffuse_red
property uchar diffuse_green
property uchar diffuse_blue
end_header
2.518123085958753 -2.679953275563995 -14.299227788234088 131 108 104
2.4696436606878 -2.6783471911130916 -14.305391537153508 130 107 102
2.4597117529523427 -2.680169193403833 -14.340387748213256 129 105 99
2.464448345308236 -2.683304454675321 -14.386493088610097 130 103 95
2.461370253491392 -2.6857494649295064 -14.426827288479537 129 100 92
2.458806207367231 -2.688246610170538 -14.467646663598426 126 98 90
2.439913990017537 -2.689285821153883 -14.496161341010957 128 100 92
2.4572578105114395 -2.693581287520051 -14.552308555670322 129 104 96
2.4421785398595866 -2.6949719903203975 -14.583869686634237 133 108 103
2.5058026264727493 -2.703456930466456 -14.67578907444111 139 114 111
2.514574977506272 -2.7070170542153873 -14.725947407099351 137 112 110
2.5233783415926325 -2.7105896790663673 -14.77628173134913 135 112 109
2.5290738621740676 -2.7138906740979576 -14.824366049073914 132 112 108
2.5356396703765034 -2.717279469099136 -14.873264477685469 130 111 107
2.4935458767060936 -2.7162578102438766 -14.884463919854232 129 110 106
2.491933049785394 -2.7189138455365693 -14.927159931826585 128 110 108
2.5228418510018225 -2.7245400615010733 -14.995404202370825 126 108 106
2.544325224096963 -2.7293224481671143 -15.056510502937314 124 106 103
2.56591011959574 -2.734127800483486 -15.117911306886407 121 104 101
2.565271723139312 -2.7369121503313383 -15.16198944801137 117 99 97
2.4861206960717075 -2.732503516698039 -15.14403741508454 111 93 86
2.4920061503501687 -2.735890033323087 -15.193340089314376 105 80 68
2.4466697414600542 -2.7345731188856837 -15.20200617132302 94 58 40
2.406848720152955 -2.733758469479365 -15.214982246922895 96 47 27
2.4267076170985398 -2.7384480753448734 -15.275684049111783 95 45 28
2.417731401765204 -2.740485275863678 -15.313437051821262 102 53 34
2.377785191761177 -2.7396594448740843 -15.326318731219729 114 64 41
2.3304698854258694 -2.7381456782602114 -15.333177425158116 128 73 46
2.2749076738048277 -2.7358590707442545 -15.333249282423381 130 72 42
2.226465877780993 -2.734225864335784 -15.338963359509634 138 80 54
2.202444644532668 -2.734861758153903 -15.364469922169217 148 92 74
2.1807733940616005 -2.7357173763003146 -15.391902587160946 179 128 116
2.1521435043400334 -2.735923330824807 -15.413647026430262 158 109 96
2.183904734357693 -2.7417847171146956 -15.48502807834523 92 44 28
2.1156884184574913 -2.7382838656273716 -15.474240916057337 68 20 5
2.062744449452995 -2.7362049523173138 -15.475876734269889 58 18 8
1.7735893800854479 -2.732058841334733 -15.597848569968505 32 26 29
1.6798235755564912 -2.726029347928556 -15.563928746168578 21 16 18
1.6429005145388098 -2.7254084096962803 -15.57806860538432 11 6 7
1.5972142638256912 -2.7239451094394393 -15.584665244028344 10 4 4
1.4071477615986412 -2.720230647059333 -15.649327079952272 17 7 6
1.3863853019336236 -2.7211423098108587 -15.67705095587556 18 8 6
1.3757818748738622 -2.7230387594312306 -15.713648942827156 18 8 6
1.3392640076904145 -2.7224268070582864 -15.727667688334957 21 10 8
1.3134371985059365 -2.722849513986782 -15.75099861059246 25 11 10
1.2658433741022987 -2.7211540024419394 -15.75518722115925 30 14 12
1.116029643422289 -2.7094886459311325 -15.669128981554937 33 15 13
1.043094746045325 -2.7052875772764144 -15.65041217621082 34 16 14
0.9203302505721158 -2.702012083768106 -15.678434766902356 33 18 15
0.9193905468465893 -2.704838906620138 -15.72337383831804 32 19 18
0.9893348254593732 -2.7146519662597033 -15.832034146271102 40 30 29
1.0595745928821998 -2.724525569997163 -15.941452842441096 56 50 49
1.2039889862378317 -2.781411001305394 -16.740162232953114 111 110 111
1.1703047803476263 -2.784227918440206 -16.806121402522425 127 125 126
1.1426095940013274 -2.784539103865192 -16.828911654744005 135 133 136
1.074927104146541 -2.780783166715137 -16.813778917747733 143 141 144
0.9837655544964923 -2.774620681307664 -16.776089321936453 150 150 152
0.9301600094639433 -2.7722673287242356 -16.77384910527611 156 156 158
0.7895906354022939 -2.761014663775563 -16.688284656190575 159 160 162
0.609558869472913 -2.748757521237653 -16.612487399507582 165 166 168
3.4276246312494623 -2.6679001750305273 -14.070254242147573 213 213 215
3.28096474204499 -2.6608076369530065 -14.051235920912173 201 198 197
3.195649490485313 -2.6562281467551583 -14.032941943703939 171 163 156
3.1096252718542576 -2.6515726023017363 -14.013890232581112 121 99 88
3.041753443966339 -2.648441572676101 -14.007500342984965 121 80 64
2.9730290901527727 -2.645226612988663 -14.000319227260498 131 79 55
2.9204955074315455 -2.6433784734787373 -14.004544032951646 142 87 57
2.8732695442288607 -2.6419755096374464 -14.012461800645521 146 89 57
2.813782866755477 -2.639519288454902 -14.011451961411804 143 83 55
2.765475318146718 -2.638010027352214 -14.018368837277471 135 77 56
2.7487133139451947 -2.6391972055717825 -14.048040605108888 124 68 52
2.6948565250337504 -2.6372031817116235 -14.050788417993347 111 57 43
2.654760999257979 -2.6363840136260066 -14.06343999415367 105 50 37
2.590984418413429 -2.6335220057240574 -14.05871250156192 98 45 32
2.5703129528452378 -2.6343659257967085 -14.085419397911274 97 44 31
2.5416363089224783 -2.6345195567203428 -14.10625583846761 98 42 28
2.467262000861292 -2.6307194081032494 -14.093369417867558 106 49 33
2.38822741269818 -2.6265018461738108 -14.076817499245193 123 66 53
2.3649188427285877 -2.627104579343862 -14.101370728990688 132 85 75
2.3246545922580326 -2.626234016763777 -14.113311249866133 138 104 98
2.3085080868374988 -2.6274583781562164 -14.143181068279478 140 113 108
2.2946710398540553 -2.628886337335602 -14.174815460063513 136 112 108
2.2643683226753906 -2.6315210657882964 -14.236243896312175 126 96 87
2.3506043265171472 -2.644391200559928 -14.386102563774726 119 87 77
2.356645987489748 -2.64759633186753 -14.433319283489922 123 93 83
2.389117284435529 -2.6531364206560104 -14.500809109484038 125 97 87
2.3531024520708916 -2.652654682582346 -14.516222860768234 125 96 87
2.3883759073022537 -2.6584647312757257 -14.586219169783476 128 99 92
2.397807760805258 -2.6620061745029604 -14.6366229925121 129 102 96
2.401231211960429 -2.6650250367053316 -14.682549334667012 131 107 104
2.412169713687475 -2.668718719160181 -14.73441382522953 132 111 107
2.427192491092085 -2.672785570311639 -14.789607878093605 131 111 108
2.432465621910641 -2.675995951335096 -14.837401062783304 130 111 107
2.44170003648993 -2.679568161163029 -14.888421911548189 129 111 108
2.457573060190165 -2.6837430355992558 -14.944792704623108 127 109 106
2.449803245889835 -2.685814902129015 -14.982800828731651 125 107 106
2.4482919117436 -2.6884524560742156 -15.025813210337837 123 106 105
2.3964002306667505 -2.6865758660155357 -15.029172918069989 121 104 104
2.339610760587761 -2.6898160263064113 -15.117235458953354 88 51 35
2.3234762646445066 -2.6911521168092754 -15.148878568587683 88 38 21
2.3049302338581494 -2.692272656597502 -15.178632023606834 88 37 22
2.2994086813126353 -2.694575316947478 -15.218877472524191 87 39 25
2.270829077314289 -2.6947909469905165 -15.240639973327557 94 46 29
2.2750794994080836 -2.697990125474111 -15.2889103494818 108 57 34
2.2432192685071177 -2.697909821871136 -15.308059133982596 130 73 46
2.212124352461509 -2.697897311869303 -15.32779784505587 149 89 61
2.192406500661029 -2.6989223854680557 -15.356780917669244 172 118 98
2.1801380610208003 -2.7006307375932095 -15.391879053309047 168 118 102
2.157173028375057 -2.7013625290198426 -15.418269229138126 139 90 73
2.1564371578243726 -2.7041357594141364 -15.462947100566232 80 32 13
2.12181978739462 -2.7038006802381735 -15.479802578214166 63 18 4
2.0942379149713686 -2.7041107714403294 -15.502431067476964 49 15 7
1.824086157154519 -2.7019448967938744 -15.641128310019432 37 31 32
1.7415856345477305 -2.69710628312432 -15.616899025819349 40 33 35
1.6603510490546203 -2.692368363949852 -15.593463117170701 19 13 14
1.4175502143036818 -2.6895793484163186 -15.704689860451868 11 7 7
1.289240624221521 -2.68028337657954 -15.638781969964722 11 7 7
1.2796507282625234 -2.6822401051182676 -15.67612180397351 14 8 8
1.245965192891469 -2.681907232017517 -15.692414952499444 20 11 11
1.2200938380838338 -2.6823168002166433 -15.715532344142037 27 16 15
1.1599958473625254 -2.6794559100321815 -15.708463948746065 32 18 16
1.097833443668665 -2.6763860415919156 -15.699388090221932 32 19 16
0.9649694278502521 -2.666526304576193 -15.627413940016531 30 17 16
0.8909154926571512 -2.6622788014886805 -15.607191146493754 28 16 15
0.860064574819785 -2.6621708075803383 -15.625251366563045 26 16 15
0.8929075826252442 -2.668197672320377 -15.700262188865963 27 18 18
0.9278119743214699 -2.6744421551417425 -15.777420137666166 37 31 30
1.2207620159657129 -2.747650623869737 -16.756542424581234 113 112 113
1.229971421085379 -2.751627754366616 -16.814033852570525 119 118 117
1.1410605938157694 -2.745867525022269 -16.779224069984096 126 125 126
1.1417972237568836 -2.749008274000215 -16.828816115007307 135 134 136
1.0631659754283458 -2.7442447413097426 -16.803302654984776 143 141 145
0.9638825683896988 -2.7374001722389196 -16.757859128279314 149 148 152
0.8736373579907681 -2.73143426852648 -16.720626450783087 153 153 156
0.6265949492090384 -2.715783602701423 -16.629554775210526 161 162 164
3.4140948329543237 -2.631844352562172 -14.061108001641566 210 210 211
3.3245623882669353 -2.6270481234071346 -14.04027740343001 201 201 202
3.2407566830259684 -2.6227090448739556 -14.023216212196996 176 168 162
3.1398878719068763 -2.6169406241731514 -13.99383415582584 125 100 91
3.067517492038397 -2.6135178867324833 -13.984356375092162 121 79 65
2.9887227035168538 -2.60954865507295 -13.970104607262389 137 83 62
2.919531234625924 -2.6063648969931625 -13.962479609256995 158 102 71
2.8558358933795827 -2.6036278153576387 -13.958600826971594 153 100 64
2.7972913575471807 -2.601310689074969 -13.958254661269885 141 82 51
2.7570068797219784 -2.600512212119539 -13.970916039479054 131 69 45
2.7047930355189367 -2.598710003221626 -13.974891662354603 117 56 39
2.6823546653584733 -2.599399291672371 -14.000323134711177 111 51 37
2.6892544666417066 -2.602555147509626 -14.047084342415907 109 47 34
2.5702099968686225 -2.5951162909119727 -14.002181132090568 107 45 32
2.538599676996797 -2.595024821328667 -14.020788108579882 104 44 33
2.5196021005325573 -2.5959966338042086 -14.0486116473006 101 43 31
2.4860706681418545 -2.595740471989668 -14.06577042366569 98 41 28
2.40861852503427 -2.5917607065471038 -14.05049464156582 97 39 25
2.369285333589885 -2.5910013630479667 -14.063185673110883 105 45 29
2.325601852721144 -2.589868208194369 -14.072583179288722 118 60 44
2.277988942005405 -2.588395286358306 -14.078971439546791 129 81 68
2.2689159309779097 -2.590202130690146 -14.114020765816026 137 100 90
2.25242961235163 -2.5913799933917203 -14.143587727692093 139 112 106
2.224373225666051 -2.5915702949688533 -14.164502665150687 137 112 109
2.2121035785764622 -2.5931120776378185 -14.197287763452241 132 105 100
2.226897733227073 -2.59958619594845 -14.29281019665413 122 93 84
2.229454683240477 -2.6024196779079514 -14.337106787640742 117 87 77
2.235886869166082 -2.6055947410838938 -14.384476469475233 112 82 71
2.237854809593556 -2.608392794239733 -14.428573208728002 114 82 70
2.2491515273549103 -2.612005147264213 -14.479938379823295 117 84 74
2.2663937721048226 -2.6161425949001837 -14.536035064434635 119 90 80
2.286536996146345 -2.620543455269243 -14.594557152829344 124 97 90
2.265618029267001 -2.6213876244859424 -14.621533112563855 129 105 99
2.267074103088688 -2.62418085524965 -14.66587700452978 131 109 103
2.2586461337641452 -2.626119505312274 -14.702652531874552 132 112 105
2.2499659035706028 -2.6280407000048123 -14.739305484011803 131 111 104
2.2770881776909127 -2.6330986313004083 -14.804041158848182 129 107 102
2.29851746328531 -2.637672400104883 -14.864548201471004 127 104 99
2.3054367903721857 -2.6409857697347894 -14.91384979118526 123 100 96
2.318267941153775 -2.6502811953590477 -15.056344083771904 109 80 71
2.265758629236581 -2.648379764732416 -15.058899421475392 82 42 29
2.2367115031546616 -2.648546490054234 -15.080061911420128 80 29 14
2.2075156015250545 -2.651441856267257 -15.145541434368027 82 32 18
2.190808003265042 -2.652706449694881 -15.176654652522412 83 35 19
2.2316852454229066 -2.6591023573907098 -15.25433287867344 89 41 22
2.216291864077437 -2.660497421550663 -15.286725378896461 105 53 32
2.193243417570158 -2.6612112627969164 -15.312942496693562 136 81 58
2.1845819360208427 -2.6632134211281917 -15.350895693286684 161 110 90
2.1785902367877057 -2.6654597658092007 -15.39110962923301 150 102 81
2.160973355593671 -2.6666677952508238 -15.421884006720404 116 67 42
2.138230558646299 -2.667416973887724 -15.448479579410021 85 34 12
2.0971428783840746 -2.666514034181187 -15.459958414563772 69 22 7
2.1070123378438055 -2.670205034470808 -15.513505274402636 52 16 7
1.9728047327471918 -2.672114649337455 -15.629747353685254 18 8 6
1.9350250407155736 -2.674326883830524 -15.689610794214857 30 24 24
1.8519812210486002 -2.669568921427204 -15.6652766409848 37 31 31
1.7603544399857967 -2.664007088979407 -15.633369099074477 40 34 36
1.7052190734506887 -2.6617732260906264 -15.632205724983034 15 11 12
1.7365765168483973 -2.667479617795652 -15.704759264517932 10 6 7
1.4631899165036248 -2.6564033109605916 -15.698994229467374 12 8 9
1.4010260071685092 -2.6534653069916954 -15.690885867596215 12 8 9
1.1744501579456745 -2.64365986828189 -15.675967731307054 28 20 18
1.0884442451618002 -2.6384344025428543 -15.645939362759039 32 22 20
1.032605014253975 -2.6360185548094033 -15.642273929510788 32 22 20
0.9421432615874448 -2.630340325795833 -15.607739560044415 28 19 18
0.8767660374136685 -2.6270015147595815 -15.595177574283053 28 20 20
0.84510745576834 -2.6268278902278075 -15.612483755592223 31 26 28
0.8461932071291729 -2.6297436000337537 -15.659047990560484 37 33 33
0.8683362894052511 -2.634659055986994 -15.724639040055184 40 37 36
0.8792672767924312 -2.6385272446193393 -15.780382916182017 51 49 49
1.2529592037179293 -2.715315496869293 -16.787379607350132 113 113 115
1.2044806724987147 -2.713621861321599 -16.790740939616313 119 119 119
1.1551907353623987 -2.7118414668235404 -16.793211864004718 126 126 128
1.103805718683038 -2.7098486501979693 -16.793571602163194 134 134 136
1.0449673903419106 -2.707118723498924 -16.786721985998454 142 140 145
0.9298048121225309 -2.6988640416224157 -16.726129804795185 148 147 151
0.8541751588447362 -2.6944552351726596 -16.702742397131622 151 151 155
3.49108913980157 -2.6005802884115248 -14.073242301919944 211 211 213
3.3818066087761105 -2.5943161408682753 -14.03880619844512 206 204 205
3.291669023638492 -2.5895790136837005 -14.017484025483455 187 182 177
3.1858147905381458 -2.583552177721004 -13.984800684812258 133 112 99
3.1018326495688893 -2.5792792227112638 -13.967253274896153 123 79 63
3.0210270782171005 -2.57524925894892 -13.951710748183583 137 80 57
2.9483964246620964 -2.571870260491769 -13.941750177976065 164 105 76
2.871946909627612 -2.568167626831526 -13.928859951980037 171 116 83
2.816347393177887 -2.56615395091259 -13.93067914952725 152 97 63
2.7570261731953964 -2.563827906082736 -13.92969320917056 129 69 42
2.698889216803586 -2.5615898382215887 -13.929411643263613 116 54 37
2.6796959160906457 -2.5625377541453855 -13.957121019200736 111 47 34
2.6438251341580274 -2.562116727290901 -13.972768270447887 110 47 32
2.651688236989717 -2.5652918087951235 -14.020150028965752 111 46 31
2.5080390616076365 -2.555986752148963 -13.957232151022303 109 44 30
2.523436507888131 -2.559780897458889 -14.010073404042734 109 43 29
2.462937275063126 -2.557309671284297 -14.00743628863139 107 43 29
2.3929901511245983 -2.5540464321054137 -13.997693967834206 106 45 31
2.351910935317173 -2.553165804055649 -14.009045492093506 101 42 29
2.3277859973200643 -2.5536893680345853 -14.032865842154642 97 38 25
2.2717185170112675 -2.5515547558143004 -14.032986383833668 104 43 29
2.2412959927099667 -2.551549205710021 -14.052051075883364 116 56 40
2.212840422754277 -2.551706200791204 -14.072556367220354 124 71 56
2.2291785814668597 -2.55560764951542 -14.12657389767481 129 91 77
2.214059322186243 -2.5568853171100914 -14.15715306406269 137 107 99
2.1989121283849036 -2.5581630911057056 -14.1877515737403 135 110 106
2.185642591850552 -2.5596010821986224 -14.219808538004658 131 106 101
2.1678369141074967 -2.560660290892681 -14.248478539032572 127 100 94
2.153759036096802 -2.562035478548851 -14.280009341628993 125 94 87
2.14614803632237 -2.56395943062412 -14.316513088524369 121 89 80
2.151531155877638 -2.566986781820411 -14.363021471573628 118 85 73
2.1710010326837956 -2.5712154252966606 -14.420460001712307 117 82 69
2.139579112528436 -2.571138453106328 -14.438976777512998 111 78 65
2.1687239933453055 -2.576206309625635 -14.50415547603795 113 80 69
2.1996132446779484 -2.5814373809605784 -14.570925965461713 111 81 72
2.2019558333569274 -2.584250065803695 -14.615810667585556 120 95 86
2.1947833926369213 -2.5862576946303992 -14.653417459352323 125 101 92
2.210980798973261 -2.590268963262766 -14.709333711729633 119 93 84
2.2164000042112226 -2.593368227580004 -14.757004672608662 113 85 75
2.2166524799724527 -2.596032531285216 -14.800759782105223 107 77 67
2.233263514218109 -2.600109796152891 -14.857503360646643 107 76 66
2.241483729824923 -2.6034762998428054 -14.907815350366848 103 74 64
2.2328618465552683 -2.605399803718154 -14.944948233537186 101 69 59
2.2253199012157276 -2.607421145698708 -14.983013717037931 93 55 44
2.206892040568225 -2.6085056208989807 -15.012491940733316 81 36 22
2.163217995088237 -2.6074042605844734 -15.021839158390176 78 28 13
2.1451190687618515 -2.60851734773619 -15.051581855064505 76 25 11
2.131702613430895 -2.6100394370379587 -15.085117469050811 77 25 11
2.1183925826267034 -2.6115740588935963 -15.118792637044077 78 29 13
2.13190660909291 -2.6154516794330993 -15.174195695346146 80 32 14
2.1463638322830825 -2.6194227298303057 -15.230544797460933 85 37 20
2.1301815423600248 -2.620723821967178 -15.262179415438721 101 53 37
2.1645717050224045 -2.626460408144426 -15.335077575223426 115 67 50
2.1330700940153857 -2.6264288695394034 -15.354393383973864 115 68 47
2.116885552917001 -2.6277425295012304 -15.386236567211608 91 46 22
2.0980680958747975 -2.6288268367208776 -15.415957339605033 80 34 13
2.060198874542153 -2.628231902243951 -15.42999653669073 71 26 11
2.0907319735599765 -2.633678835523045 -15.500549204987507 57 18 9
2.0395269573086594 -2.631905820951455 -15.503567988267516 40 14 7
2.0520223373889293 -2.635773890406331 -15.559455033636027 28 11 7
2.0425489296557826 -2.6377016862121723 -15.59719483804056 25 10 7
1.9333798918949503 -2.6390861090241042 -15.688753971571035 25 18 18
1.8525190568864858 -2.634632618367267 -15.66626550837174 26 20 20
1.776074690411754 -2.6305586670851606 -15.647251839551043 17 12 13
1.734527321362564 -2.629605397961664 -15.65770084784667 9 5 6
1.634920230271013 -2.6345632246323865 -15.802137331167316 11 7 8
1.1384113679002708 -2.6060522542992848 -15.644845534350196 26 21 18
1.0902908236495898 -2.6044134616637025 -15.648134414063133 31 25 22
0.9561766773484264 -2.5948680270789946 -15.5752506057167 29 23 21
0.9332007411327643 -2.595514788560771 -15.600378052045734 31 26 25
0.8969329002767719 -2.5949368467114198 -15.613688985898728 38 34 34
0.8487421946787475 -2.593254344603611 -15.61630160769522 44 41 45
0.8216457726859998 -2.59351527090759 -15.63766411812157 62 60 62
0.8144186057593092 -2.5956160934998205 -15.676841425130757 40 38 39
3.5541770032845337 -2.568023067988203 -14.075461773604234 212 212 214
3.464959972280848 -2.563503278814687 -14.055312084305108 208 207 210
3.3713378276157817 -2.558619458625083 -14.031805531557822 200 193 193
3.272512657557451 -2.553306750580112 -14.004352205724071 151 135 125
3.150871759887359 -2.546167041087208 -13.960492512827306 119 84 64
3.0656716003721334 -2.541896158235722 -13.942011436019445 133 77 56
2.984440654980344 -2.5379256993134125 -13.9260925158075 156 95 66
2.9131780752630716 -2.5347349031524797 -13.917030320439768 166 111 77
2.8365371372122183 -2.5311032860155405 -13.903930601078837 150 91 61
2.773301514336679 -2.5285295145720763 -13.90020875856411 133 71 45
2.7074571143132085 -2.5257371385157414 -13.894448295099469 115 54 35
2.683489974456527 -2.526290731162469 -13.918676716679956 108 48 33
2.6557728727092966 -2.5265433915837066 -13.940197732044588 109 47 33
2.602590646517072 -2.5247476340427424 -13.943251941289027 111 47 32
2.4592245591637916 -2.5206232013395873 -13.963499024295995 107 42 26
2.2149004028366868 -2.5082481832665686 -13.90836182287596 111 47 33
2.240339166245451 -2.5127839993001566 -13.968552672841724 104 44 31
2.2251180919927407 -2.514021309531764 -13.998791284536235 98 41 28
2.1969930489818967 -2.5142083297679303 -14.019466068034147 99 41 28
2.1742156833094732 -2.514831229804956 -14.044114656871123 106 48 31
2.1530221524273623 -2.515584098529743 -14.069954817061177 119 64 45
2.1373323101229973 -2.51678886708131 -14.099940110044724 130 81 66
2.121307016750227 -2.5179683270025355 -14.129710227835854 132 98 88
2.105268655957552 -2.5191488639910715 -14.159506554326292 135 107 103
2.1010392468534507 -2.5213042126371925 -14.198283979017292 134 106 103
2.094225075853392 -2.523251633417387 -14.235186829765492 129 101 97
2.089619654297687 -2.525386212124415 -14.273850476327928 124 94 88
2.097182662391768 -2.528533185843222 -14.321901230210361 122 88 79
2.117238111287736 -2.532724339616445 -14.3796699942452 120 83 72
2.1279703525105464 -2.536153272951136 -14.430472175110255 117 82 70
2.112755218441503 -2.5374336088920066 -14.461428518788047 121 87 72
2.103462882095257 -2.5392098310859232 -14.497006182007762 116 80 68
2.0863870039300325 -2.5403406766638663 -14.526616305358175 111 77 66
2.067528467865949 -2.541324526303299 -14.554873338878998 109 78 67
2.049989048737216 -2.5424203216798476 -14.584184822090606 109 77 67
2.087301148434584 -2.548117371237088 -14.656442460183001 111 79 68
2.0803725734681677 -2.550115651689107 -14.6942694465598 113 82 72
2.119000458050695 -2.55595124838598 -14.76802965292972 115 81 68
2.179952261815564 -2.5636853598877902 -14.859702025175798 102 68 52
2.168576791320505 -2.5653385579963572 -14.894515926545104 97 57 41
2.1301746787274523 -2.5647106083814637 -14.90793448054911 91 45 30
2.1018381615204706 -2.564931214538509 -14.92930429441503 86 39 23
2.077385792683808 -2.565480264927197 -14.953759144482149 86 38 23
2.0534186610626524 -2.5660706165626603 -14.978603919602776 76 26 13
2.0362048697012254 -2.5672358806936995 -15.0088771615473 76 26 13
2.0615881236752625 -2.572034187168499 -15.073503952586183 77 28 14
2.068908779837278 -2.5753044247093397 -15.123772672236134 80 31 13
2.069646364015826 -2.578020740662226 -15.168858711335254 82 34 15
2.0746371059473265 -2.581108635067833 -15.21752292642822 82 33 16
2.0756783140116104 -2.5838661197750206 -15.263109923936154 79 28 14
2.0935380312757434 -2.588076489151718 -15.322570155450425 70 24 10
2.0664188754322197 -2.5884268680730584 -15.345356790072248 60 19 6
2.017162810526594 -2.5868677221384733 -15.349930026694087 56 17 4
2.044020317414409 -2.5918760019116163 -15.417158207246391 52 17 6
2.036297590396961 -2.593907316715719 -15.456034336192172 45 14 7
2.0953909980061285 -2.6017341787488437 -15.55042081348763 32 11 4
2.0982589515310996 -2.604704527399736 -15.598437853569328 24 10 5
2.0979948474454257 -2.607410665084504 -15.643977885450454 22 10 7
2.0196622424829185 -2.6033243762036733 -15.624309360262341 21 9 7
1.9718629864280643 -2.6046191977924793 -15.6758282055185 19 10 9
1.9102823001089817 -2.6019686706140943 -15.669787330085953 19 13 13
1.8489391415138323 -2.599328274153449 -15.663768198693981 15 9 9
1.7750708797232777 -2.595577107142863 -15.64693486521401 10 4 6
1.7066785403120894 -2.5922932940575496 -15.634523107237147 7 3 4
1.6694680918936466 -2.5999643491414224 -15.786352621656185 7 3 4
1.6940150922698543 -2.6048971138259214 -15.853755440955284 8 4 5
1.661932971983748 -2.604811900368325 -15.872333180822242 9 5 6
1.584194813847053 -2.600660065870206 -15.851194915485934 10 6 7
1.4932297777254186 -2.5953128187768075 -15.818260837273538 11 7 8
1.425680609271331 -2.5920372816156263 -15.805462040983521 11 9 9
1.0929210061417693 -2.5677307047465154 -15.60541043326283 27 23 20
0.9839372968374196 -2.560665863912101 -15.554913022827932 29 26 23
0.9469574786061656 -2.5600509727800373 -15.567663586281396 32 30 28
0.9528134618163131 -2.563291312974281 -15.618344377254477 35 34 34
0.9076060817328875 -2.5619327695746303 -15.623756450607383 40 39 41
0.8554318494784336 -2.5599380084078396 -15.622845264143402 54 51 58
0.802411296480944 -2.5578580038937586 -15.621032524062846 69 67 71
0.7512043660798398 -2.5559336063751372 -15.620697950523844 35 33 35
0.721914323608134 -2.5559922972243716 -15.639947462057282 39 37 38
0.6916120829264356 -2.555957286396166 -15.658257036359547 58 56 57
0.542339392814287 -2.553226203806957 -15.705550591217524 88 87 92
0.5330011706458961 -2.5551018526613465 -15.74282401189067 91 91 96
0.5724557527012566 -2.561469494216888 -15.824989781731283 99 99 104
0.9463591950773313 -2.6301376929417297 -16.743220205789346 141 140 143
0.2106804426057476 -2.5864423665809926 -16.469328797714905 168 169 171
3.4866781109996756 -2.520372355616256 -13.903080115913848 215 215 215
3.534471600023374 -2.5314189397080087 -14.062061838416497 210 210 212
3.440984798180944 -2.526678435540791 -14.03888718825303 204 201 201
3.3402896557244626 -2.5213641253589127 -14.010371677783805 175 166 161
3.2419168940981704 -2.516211017910579 -13.983173077066905 120 97 83
3.14550565736271 -2.511191924189608 -13.957050230346354 126 81 56
3.0348859567737296 -2.5050518850380574 -13.920572132553607 150 91 61
2.9479841178150847 -2.500735273500369 -13.900565224773722 165 106 73
2.8751262984328765 -2.4974972471661245 -13.890292298853346 149 92 59
2.7977059792086676 -2.4938912491183145 -13.87655728278758 137 72 48
2.727643604718029 -2.490847080175978 -13.867866412962158 123 56 39
2.661177591645118 -2.488073019129155 -13.86156422203288 114 50 35
2.5946265650468474 -2.485281763550744 -13.855021124934195 111 47 33
2.194193984807262 -2.4754694133477093 -13.934791654158818 112 49 32
2.1615814871322074 -2.475299657295925 -13.952027631731166 109 50 35
2.1556529706131196 -2.477256944709478 -13.989084282001372 98 44 30
2.140658375361303 -2.478494310707562 -14.019453759245373 96 42 28
2.1125201961644944 -2.4786818381995426 -14.040023893221411 105 44 25
2.0845301554008646 -2.4788801919583046 -14.06068730429487 118 56 34
2.0538616388705817 -2.478862412210744 -14.079316358162414 123 73 53
2.051220050494626 -2.481097488764659 -14.119083771722966 127 90 79
2.036982892757721 -2.4824038635914234 -14.150163149071666 135 105 100
2.027810302591706 -2.4841215553332816 -14.185134268987689 133 106 102
2.0173088572134787 -2.485735749446126 -14.219159762940777 128 102 95
1.9917677611548736 -2.486135802093057 -14.241752931156093 127 95 87
2.0280550262708914 -2.491549758711166 -14.311729250456038 125 90 81
2.0296029591132925 -2.494157756631609 -14.355273458011222 120 83 74
2.0224786998246316 -2.496066979911415 -14.392248160187396 110 76 64
2.0172386496490633 -2.4981343193934733 -14.43075760133824 105 70 57
2.020994980770473 -2.500941123365685 -14.476330701305098 109 71 58
1.9974835669418303 -2.501525880002477 -14.500822466861699 112 74 62
1.9859910457557337 -2.5030951948596467 -14.534694009775874 113 77 64
1.9921972542657747 -2.506119853853177 -14.582471960217145 112 78 66
1.994552457820788 -2.5088363190625524 -14.627368577006436 110 78 66
2.0396592552353168 -2.5150786220622456 -14.706034303555562 105 72 60
2.0405242002902497 -2.517692510054409 -14.75010063740041 102 66 53
2.0315697725469795 -2.519502460081824 -14.786511266310702 109 68 52
2.0467188094035116 -2.523310282763945 -14.842131566427346 103 60 43
2.0556789299499876 -2.5266162161866856 -14.893008792893138 98 52 37
1.9970318950151844 -2.5243209931804604 -14.890050079856856 107 59 44
1.9981657636154484 -2.5269855412718254 -14.934814804479558 83 32 18
1.9594988649546066 -2.526343386650406 -14.947727862961766 81 33 17
1.9686113134943435 -2.529682043982668 -14.99906941562027 84 36 19
2.015271363091518 -2.536166613619916 -15.080910032220448 91 42 23
2.0157591060134665 -2.5388075278608695 -15.125670366046961 87 39 17
2.000423514406707 -2.5401292578412886 -15.157689835663358 85 36 14
2.016339911378224 -2.5440773352542205 -15.215229566023808 82 29 11
1.9978540064566488 -2.5451438120017897 -15.244838462677007 68 22 8
1.9916286867115414 -2.5472448299093515 -15.2845307835876 53 14 5
1.9679786722655521 -2.5478809055663443 -15.309983757615647 46 11 3
1.950557607773674 -2.5490437748500887 -15.340580030143153 38 11 4
2.0042343107967007 -2.55622762616531 -15.430020808197142 29 9 3
2.0188167464555997 -2.5601186438008265 -15.48741042515736 23 7 2
1.9716306847110827 -2.5587743024334904 -15.493601289562537 20 7 4
1.9238969476459333 -2.557377063742308 -15.4992276701392 18 6 5
1.9314200403847774 -2.560682625449705 -15.550985666556992 16 5 5
1.9773067873406243 -2.5699590009671214 -15.680939727326862 14 6 6
1.9221379650147083 -2.567927133133195 -15.680327408877414 13 8 9
1.8592013680311545 -2.565220127114098 -15.672990570443382 10 5 6
1.8004184142014683 -2.5628591651221964 -15.668994071359997 7 3 4
1.741315517507787 -2.5604608780203604 -15.664558209420306 6 2 3
1.6906373431474924 -2.5587791933124815 -15.667148813672519 6 2 3
1.635239425287545 -2.5566823120524584 -15.665568609485852 7 3 4
1.6072664066430598 -2.5569495620247666 -15.68739707569124 7 3 4
1.6008512662854661 -2.5590844567488475 -15.72778461134703 7 3 4
1.636138982854602 -2.5648455497746996 -15.804301100535032 7 3 2
1.5482946320091546 -2.559915610575435 -15.774410932385667 7 5 4
1.26968508967159 -2.5463810769140336 -15.715466191148105 19 18 16
1.1144655240012167 -2.53545855191244 -15.624918014109435 29 27 25
0.9994471498804689 -2.5280291091678033 -15.569154471056429 35 33 33
0.9933646270168133 -2.5301603838990387 -15.609274906520627 38 36 37
1.0006968229494335 -2.5334799001838344 -15.661388852576287 36 34 35
0.9149914683385756 -2.528592252713776 -15.63089984558728 37 35 37
0.8350710563645549 -2.5241978120540858 -15.605255148076042 48 48 51
0.7864421173527658 -2.5225595431238608 -15.60732150451206 60 59 62
0.7388182339633582 -2.521003076527555 -15.610163193535378 39 39 41
0.6989521897183506 -2.5201293407220025 -15.619865087198654 27 27 29
0.661472133907437 -2.519463354385832 -15.631638842395887 46 46 48
0.5711262779231827 -2.51407590332858 -15.595486474728606 70 69 72
0.5392095228533034 -2.5138908770995028 -15.612032401149712 78 77 81
0.5108080517106766 -2.5140182018070276 -15.631737842756433 73 73 75
0.4899789075254306 -2.5148234086028256 -15.658335277709371 69 68 72
0.49257555765878624 -2.5177345034429215 -15.706403772873434 72 71 76
0.48929272211020525 -2.5201247203594255 -15.749214175228522 88 87 92
0.5477412853299004 -2.5280874827988074 -15.848999583036289 99 98 103
0.6281886441359346 -2.5713363932607773 -16.537285589304183 143 142 145
0.4631997437838127 -2.5617211652131604 -16.4750744271 147 147 149
3.525658057640886 -2.495698680449446 -14.056254801040305 205 207 205
3.4182282824649723 -2.490024030557295 -14.023313683903831 192 190 184
3.303942400077231 -2.483811627341309 -13.9852203357059 138 121 111
3.202826575626151 -2.4785742599067158 -13.95601756207727 122 79 63
3.099722904635499 -2.4731678201368874 -13.925092437745548 142 82 55
3.0081840318794644 -2.468620298409546 -13.902021597842426 164 105 72
2.9286795156733145 -2.464971537355403 -13.88721024156739 157 101 68
2.8390175867754666 -2.460535897156585 -13.864936164727041 145 79 53
2.7874014541015235 -2.4589863181364002 -13.869550099853736 124 59 39
2.715104070331291 -2.455850102282451 -13.859238730048734 115 53 36
2.617533834753374 -2.4507682654987595 -13.830571608223089 111 49 34
2.5496900687634545 -2.4479467608813796 -13.82300600672329 111 48 33
2.140957539139025 -2.437762634432243 -13.895782481066174 110 45 28
2.1360598176615904 -2.43976021906007 -13.933469515177887 114 52 35
2.0826654125559587 -2.4379791028270636 -13.935148155174847 105 48 32
2.0775615062825086 -2.439964103029178 -13.972742555841092 100 43 27
2.0656101908122197 -2.441417952953481 -14.005294098756831 97 41 26
2.0287970469851535 -2.44092576993339 -14.019231672816492 100 42 24
2.00441627333036 -2.4414065724152776 -14.04247480404441 112 50 27
1.9819185011787424 -2.4420353819865994 -14.067138451658543 118 64 42
1.9643371776777583 -2.4430519031797906 -14.095533082579284 126 80 66
1.9312274179787883 -2.442844724367431 -14.11215870946657 133 97 90
1.9051419086555823 -2.4431903894972793 -14.134095966657156 131 104 100
1.9085343469439406 -2.445869245118903 -14.178551999184403 128 102 97
1.9348171837462136 -2.450370377284568 -14.240676700388237 125 96 87
1.945314275784229 -2.453630758597325 -14.290893415587037 122 91 80
1.9410931238680265 -2.4557291947678612 -14.329918847123135 121 87 76
1.9093427021094653 -2.4556390449832186 -14.34774680557324 116 81 69
1.9014066602474555 -2.4574477849134646 -14.384009717816898 117 81 68
1.877137352732709 -2.4579549113979846 -14.4076419767544 114 78 63
1.901233748364577 -2.4623353178947793 -14.469005350468807 107 70 54
1.91569903829856 -2.465955910228253 -14.52305460872949 103 67 52
1.8977357165402777 -2.466981173943191 -14.551834417307171 104 69 55
2.0178981168638437 -2.4791246082296627 -14.689352483516817 105 71 59
2.0085081732244996 -2.4808627615239485 -14.725277468745572 110 74 59
1.9914147976296395 -2.4819829122089123 -14.755173959985575 111 73 54
1.9778102750754627 -2.483387230765621 -14.787875017531697 102 62 43
1.9676295196336548 -2.4850718563075054 -14.823353338548 102 58 40
1.955876167828471 -2.4866327269994613 -14.857642771489154 95 48 30
1.9079033391984819 -2.4852529531999994 -14.862980602684914 84 36 18
1.9060245500727184 -2.487619832793146 -14.905237784872963 84 36 17
1.896399798015218 -2.489361129371553 -14.941360790110028 96 49 29
1.9379807229771338 -2.495289566273286 -15.018931542349307 96 50 30
1.9456465119847346 -2.4984608344681756 -15.069329891945216 90 44 21
1.9202036395771804 -2.498927202904426 -15.092971072250544 88 39 17
1.9135297342181996 -2.500934336303419 -15.131908881731137 83 31 10
1.9144493552359867 -2.5035709122677194 -15.177141014527486 73 25 9
1.9095970343747952 -2.5057390839788507 -15.217763190217354 61 18 6
1.904578712198128 -2.5078990618469224 -15.258344446294583 52 15 6
1.9077168655767736 -2.510738680336057 -15.305748040133302 40 11 5
1.9216530687076219 -2.5144800613992966 -15.362218415597527 31 9 4
1.9384747543339627 -2.518471545210438 -15.421270240829381 24 8 4
1.9546347285710342 -2.52241971421833 -15.479973930426468 21 6 4
1.9004429695408218 -2.5205253510408387 -15.480172658495636 18 5 4
1.8911390197999332 -2.5223642674449516 -15.517795239662506 15 4 3
1.9978735477045513 -2.5338959115061 -15.65288930633385 14 4 3
1.9678463821923842 -2.5340268986179124 -15.67350552500519 12 4 4
1.894958310242422 -2.530565849756152 -15.657913036605017 10 5 6
1.8536777936269333 -2.5297436663966115 -15.66884769257797 7 3 4
1.812467305147873 -2.528922770413195 -15.679761934106077 7 3 4
1.7567963254399261 -2.526879679366092 -15.678280990031661 6 2 3
1.7217487858983596 -2.5265673126512445 -15.694263273068385 6 2 3
1.6733139030820663 -2.5251210014577143 -15.698727668500933 6 2 3
1.631004166336771 -2.5241863377430436 -15.708337355336774 7 3 4
1.6767377477574668 -2.530710649744435 -15.793721154824395 7 3 4
1.5803775040940957 -2.5251886951944105 -15.756670681367225 7 3 2
1.499835471959817 -2.5209916516536035 -15.732970113761144 7 5 4
1.2246859960152676 -2.505436931397834 -15.630871456476395 15 13 13
1.156640055479584 -2.502240212931999 -15.616912376217877 24 22 22
1.126560180987541 -2.5022880875528797 -15.63611723592905 37 35 35
1.0952724231169988 -2.5022305218927134 -15.654228534121994 38 37 37
1.0406069326981084 -2.500158329535009 -15.65162796723531 34 32 33
0.9904298518672014 -2.498464286385939 -15.652853751255265 32 30 31
0.9214943162962053 -2.4951420898052374 -15.63725866230506 32 30 31
0.8458129541465791 -2.4912228669977936 -15.615414488546133 40 40 42
0.7686030589204362 -2.4871558109629883 -15.59193630232211 54 54 56
0.7312100155441437 -2.486530482424975 -15.603915527292148 40 40 42
0.6861866500541405 -2.485237462652208 -15.608958575414078 23 23 25
0.6589156133420575 -2.4854850799490436 -15.629917012729184 34 34 36
0.5978822081337407 -2.4827846817477246 -15.620294976656176 56 56 59
0.5678370937994766 -2.482782757828758 -15.638613669131583 59 58 63
0.5420669267166396 -2.483153495826381 -15.660793792194319 33 33 35
0.5184311201207583 -2.4837110166866245 -15.684914381096444 28 27 31
0.4904201414938383 -2.4838841228274617 -15.7050306278341 41 40 45
0.4735543113359517 -2.4850373848560836 -15.735363230594311 63 62 67
0.45663284721583075 -2.4861879734136867 -15.765683380929104 88 87 92
0.5258401376595092 -2.502972055138932 -16.01492770337518 107 107 109
0.4867810157229444 -2.5294364420249518 -16.498437301088433 143 143 145
3.4920953979259215 -2.458183403060203 -14.03319268710431 198 199 195
3.388356265125055 -2.4529195611515657 -14.002763783515785 166 156 147
3.277003565566581 -2.44707516514904 -13.966666500316093 120 92 78
3.1717074991407435 -2.441658095636864 -13.93446815402094 131 79 58
3.076462591762109 -2.4369662259633027 -13.909023870372039 155 96 65
2.980199644647735 -2.432182082917862 -13.88256263382769 161 108 74
2.8998267652326835 -2.428561308881395 -13.867077679518536 146 87 58
2.8248740158540384 -2.425330496321825 -13.855215328623089 130 63 44
2.7558260590245753 -2.4225276645314198 -13.847355208998515 117 53 38
2.6837182381216467 -2.419485706802542 -13.837114350995229 110 50 35
2.611961968559176 -2.416458541767476 -13.826922749919685 110 48 33
2.5343457360354753 -2.412981080912002 -13.81230717865429 111 48 33
2.566598037917614 -2.417731924690727 -13.876846660252985 114 48 34
2.4251437952884114 -2.409445699638914 -13.815747346783446 114 48 34
2.064292741254211 -2.4031201384656216 -13.921855767984614 110 48 30
2.052917114032325 -2.404590468972482 -13.954731393986208 118 58 39
2.0065035492455463 -2.403384005897543 -13.961431412218722 105 49 32
1.9703518119573964 -2.4029581040320114 -13.975737341400887 97 42 27
1.9552247074507845 -2.404142510831535 -14.005822360720199 101 40 25
1.9287820745795496 -2.404459386589572 -14.027399855262395 109 46 26
1.9111558745481858 -2.405454399895818 -14.055644946334404 119 58 38
1.8831933971741943 -2.405653922112904 -14.07606505347742 125 71 56
1.8695095869646954 -2.406955341241968 -14.10734766760486 131 89 82
1.845488951415657 -2.4074596144391593 -14.13077636169119 135 102 95
1.8448835526643057 -2.409778471993622 -14.172152813988252 131 103 94
1.836804868667274 -2.4115231845427827 -14.207889495828084 124 95 87
1.8302058159735353 -2.413387015001084 -14.24483906099966 124 91 82
1.82990732044437 -2.415746006438897 -14.286739919062871 119 85 76
1.8189447820059144 -2.4172792096586297 -14.320477960260277 111 77 66
1.7351055969402305 -2.4131213192103735 -14.297587601859352 107 71 60
1.9171809937716535 -2.4370347183137864 -14.610527103421022 103 64 49
1.9312718353348712 -2.4405823345710433 -14.664757464165545 102 62 45
1.902263568611576 -2.440738653646873 -14.685045225311445 102 61 42
1.8848047725647863 -2.4418067650862483 -14.7144819876608 106 64 44
1.8649599557402778 -2.4426877743344093 -14.742051039652933 116 72 52
1.904737004639931 -2.4482989123226764 -14.81725996971554 107 61 40
1.8750305638887692 -2.4484067551847644 -14.8371121412118 93 44 23
1.8639291791178847 -2.449993815754753 -14.871886563774058 88 37 16
1.826915014021056 -2.449518840994326 -14.88584557199139 85 36 15
1.8488329918479947 -2.453746094483927 -14.94736766067076 82 35 15
1.8313841333035512 -2.4548371740312924 -14.977204628364381 87 41 21
1.8241015032356565 -2.4567446327410893 -15.015338723435708 95 46 27
1.8213753117402414 -2.459022397895485 -15.057269541408399 92 41 19
1.8314957896766426 -2.462338741314735 -15.109808060909748 79 29 9
1.8222215857036872 -2.464102823586283 -15.146609493471292 68 20 3
1.8386739884637269 -2.4679460817503522 -15.204641946790648 59 15 3
1.8495067096888214 -2.471346507598235 -15.25823727986056 48 11 4
1.860383825962293 -2.4747602301180125 -15.312040956716903 38 9 5
1.8201340722815464 -2.4740391107337834 -15.323601246417486 29 8 5
1.8245581529371169 -2.47694137213037 -15.372257458306393 25 7 5
1.831904037610638 -2.480089332117313 -15.42349404937768 20 6 4
1.8104982090286343 -2.4809035554590237 -15.450824908835521 17 5 4
1.806605696035672 -2.4831481047885506 -15.492872824381239 14 5 4
1.8670519716352567 -2.490658446572082 -15.589184864661174 12 4 5
1.84826843242565 -2.491704135444982 -15.619025309919461 8 4 5
1.8269029944340778 -2.4925397701323018 -15.64671044628416 7 3 4
1.8054045642729504 -2.493365507682433 -15.67430088141947 7 3 4
1.7828609842392176 -2.4941062145124544 -15.701018831953604 6 2 3
1.7247228053305683 -2.4919127530669742 -15.697345573571674 6 2 3
1.6580873768457582 -2.489008155290488 -15.686228299954427 6 2 3
1.7536549754845252 -2.499511666798698 -15.814260927962753 6 2 3
1.6680199352298013 -2.4950318604072983 -15.786762072515241 6 2 3
1.5710967016807116 -2.4895977380825416 -15.749204323547609 7 3 3
1.3108710079328647 -2.4731383520247565 -15.615303234593908 12 10 13
1.2107964333929413 -2.4673700896069306 -15.573739609014812 16 14 17
1.1786068357636355 -2.467254718465975 -15.591144082890999 23 21 24
1.1499195932206083 -2.4674304185718823 -15.611580689820125 33 31 34
1.1283771181472648 -2.4682042195240044 -15.63827919339351 38 36 39
1.0559698637346724 -2.4647050412575573 -15.620132924975149 35 33 34
1.039442306656471 -2.465895299878742 -15.651167415192223 31 29 30
0.986674131671748 -2.4640322661687306 -15.650094140939732 27 25 26
0.8788397572878672 -2.457510062756776 -15.59988399311591 27 26 27
0.8217565771196895 -2.455257346118145 -15.594525464574847 32 32 34
0.7913033016651418 -2.455251996856857 -15.612826891347463 39 39 41
0.7206061576163316 -2.4518280985371375 -15.594978972384558 31 31 33
0.6890217489622703 -2.451716974006289 -15.612092971830204 20 20 22
0.6503173403132809 -2.450997071309801 -15.622741276787938 25 25 27
0.6283044642387408 -2.4516974016349 -15.648424553873802 34 33 37
0.6003370268788268 -2.451889302859388 -15.668712874207346 30 29 33
0.570482725675534 -2.4519184808837937 -15.68726311731304 24 24 26
0.5444889549188536 -2.4522771674370936 -15.709308921395994 28 28 32
0.5076648610537093 -2.451704522753427 -15.72142574618503 41 40 45
0.4349795930042699 -2.448040669166981 -15.700535011213907 52 51 57
0.39371412592281896 -2.447071939514496 -15.708329692445245 73 72 77
0.4244879160289292 -2.4601535493511766 -15.921098192245065 107 107 109
0.1658430973803373 -2.5185834563981677 -17.110715829372275 183 184 186
3.4698530329129165 -2.4215930655344473 -14.018022078649253 184 181 175
3.3612269424513013 -2.416111446651187 -13.984130859486461 134 112 100
3.2501302081418615 -2.410432372484804 -13.94815771872925 124 80 64
3.1494285182307262 -2.4054837342124413 -13.919136475781844 140 85 59
3.058664283786853 -2.4012360015424474 -13.89680836893367 159 104 71
2.954577457955656 -2.396007929052898 -13.864774405320814 147 91 62
2.862548554331907 -2.391635991615479 -13.840963898647297 138 72 52
2.8048009964863647 -2.3897391570117166 -13.841272876576996 117 55 38
2.7262534610398212 -2.3863206834111335 -13.826589262979727 109 49 36
2.654762266318129 -2.3834038316648978 -13.816729007880781 108 46 34
2.627568600412854 -2.3837102445201346 -13.83848567049279 109 47 32
2.51972479222934 -2.3781176937155197 -13.802128967479419 111 47 32
2.503176367367473 -2.3791929459375027 -13.831379966286555 112 47 33
2.548770099107518 -2.3848295259973975 -13.905697994839212 113 47 33
2.0121655028181546 -2.3658087701417365 -13.883440463382296 108 42 26
1.9893516657637997 -2.366397404099509 -13.907666142130928 109 43 27
1.9756051701320745 -2.3676636597878478 -13.938685032052845 112 45 27
1.9135021575387423 -2.3653140921068943 -13.933438726224736 113 52 31
1.9008367990314374 -2.366660418031478 -13.965254530583852 106 50 31
1.8784853274140891 -2.367282347549739 -13.989803949114943 95 40 27
1.865636230369125 -2.368619196431817 -14.021558734069995 104 44 24
1.8374660627997859 -2.3688047934004723 -14.0417219878797 113 53 30
1.8192024195782022 -2.369736720349226 -14.069415150569654 120 64 47
1.8236308406044248 -2.3723848779528067 -14.114476682963002 128 80 66
1.8058964015576215 -2.373362510239181 -14.142677235345195 132 95 85
1.7762161511685273 -2.3734359639795635 -14.161721904890275 128 97 92
1.7656587818986722 -2.3772910720907876 -14.237473920472173 123 91 83
1.7024974019183592 -2.374815142315188 -14.230583173042954 120 84 76
1.8380157690428645 -2.399346274926981 -14.591588020135315 102 57 38
1.7860435689848257 -2.4001175807608246 -14.636514287954343 97 52 32
1.806185564203961 -2.4040706037206263 -14.69570028933126 100 55 34
1.7942987648560207 -2.405553556543398 -14.729512519533328 100 52 31
1.7840171476633975 -2.4071643281139576 -14.764668941349436 100 50 27
1.7771052241263643 -2.409040733426729 -14.802598693273904 102 48 26
1.7602284033673046 -2.410145725944334 -14.832581531222239 89 37 16
1.791159967874318 -2.4149818628934563 -14.90123431145812 84 34 16
1.7653842152020154 -2.4154017845989295 -14.924189191979469 85 36 19
1.7717442752954042 -2.4183364974067727 -14.973259578216629 88 38 20
1.757621175061158 -2.4196735260537268 -15.005778280902476 90 40 19
1.7525280210613357 -2.4217224351491935 -15.045729681588412 87 36 14
1.7429392888369417 -2.4234228739387063 -15.082087721010113 84 32 11
1.7249623771057525 -2.424466343924267 -15.111619091937865 70 20 3
1.6924976311637252 -2.424368055166493 -15.129232440797425 58 13 4
1.7111872091045006 -2.428312113770359 -15.189124158859169 46 9 5
1.6673554565384112 -2.427316222970223 -15.19735450673764 36 7 5
1.6618604640457226 -2.4318386598676502 -15.282105586097352 23 7 3
1.7025425423522877 -2.4375658834484026 -15.360989166807547 19 6 4
1.7721223755523408 -2.4481323488765794 -15.509795804485005 13 5 5
1.7820812815904032 -2.4514531969599576 -15.563673492568181 9 5 5
1.792079527780487 -2.454786742287125 -15.617756427975465 7 3 4
1.7988420222232442 -2.4578700980802326 -15.66926428158223 7 3 3
1.8348487314249997 -2.4633140993880165 -15.745837271011823 7 3 3
1.7788504522414996 -2.461362952690875 -15.744123379445654 7 3 4
1.603865398364598 -2.4548921141319036 -15.732033189090497 6 2 3
1.4783371153772986 -2.447265626472242 -15.669594827121939 7 3 5
1.3272145419992656 -2.4375313249124377 -15.584466713921852 9 7 9
1.2950470793469648 -2.437444113599339 -15.602102117800136 15 13 16
1.2274864248076174 -2.434468939320953 -15.58884436317923 22 20 23
1.1926824850400388 -2.4341571626365734 -15.604008481983112 33 31 34
1.1701029707003903 -2.434842689481972 -15.629839743716953 36 34 37
1.1368496279396583 -2.434653943588098 -15.646294392330311 31 29 32
1.0710864702049179 -2.4317935738183842 -15.63403155544297 26 24 26
1.0379342836944891 -2.431603568600102 -15.650403119585928 24 22 23
0.9771051457732458 -2.429130827703792 -15.642177288196663 23 21 22
0.9081507957618422 -2.425977082473278 -15.626534784460652 23 22 23
0.8001816387052623 -2.4195849713218998 -15.575849120789563 22 22 23
0.7767709531846565 -2.420171874353889 -15.60039998262061 21 20 22
0.7347020915608988 -2.4192110635348385 -15.608209700781682 20 20 22
0.6941759045980618 -2.418373303295542 -15.617315035507492 23 23 25
0.6665193115482113 -2.41860226099452 -15.637952773842063 34 34 36
0.6189031371717064 -2.4171655843339437 -15.640502111721828 30 30 33
0.582719075696474 -2.4166771788580594 -15.653308364167309 28 28 32
0.545572429111516 -2.4161046941871436 -15.66517469736187 32 32 34
0.5633265617324072 -2.4201312640376527 -15.727111360916265 35 35 39
0.4748003398468832 -2.4152439985199035 -15.691926022365395 41 40 45
0.438646724904566 -2.414744088441794 -15.704506844415832 44 44 49
0.3627916513758658 -2.4108944474018092 -15.680448288306778 57 56 62
