ply
format ascii 1.0
element vertex 706
property float x
property float y
property float z
property uchar diffuse_red
property uchar diffuse_green
property uchar diffuse_blue
end_header
3.80096793835877 -1.5468351922195822 -14.027723856490246 119 63 34
3.8115987661183612 -1.5239973344435258 -14.047517507109015 116 68 42
3.821469726424873 -1.5160667270023138 -14.07967396907792 92 45 25
3.831392413178706 -1.5073687307261583 -14.111245619372628 93 40 17
3.8406121368904276 -1.5130757178523027 -14.154891618173831 94 41 17
3.8503406627453955 -1.5089989982838325 -14.19046515181354 89 44 26
3.858267257844043 -1.5423956920306345 -14.257558674683715 88 53 41
3.867451011400452 -1.5508360449257168 -14.303894387933529 87 60 50
3.8762718407563117 -1.5675937185555817 -14.357377508718038 88 64 57
3.8853175680781105 -1.5804308880795732 -14.40771182137923 94 69 64
3.8942392366071847 -1.5967408696532477 -14.461142881972723 97 75 68
3.9034359092313258 -1.6079351116093576 -14.510389642462862 97 80 72
3.912863610026879 -1.6147990883252872 -14.556087396605887 97 84 76
3.9198263422144217 -1.6775559068810093 -14.649709330033456 102 89 82
3.92996586043167 -1.6703742611313874 -14.683741934895693 112 100 94
3.9407661590470333 -1.6483521467740072 -14.705075620740915 130 119 114
3.9510528065259423 -1.6382461493238587 -14.736675103855516 151 142 137
3.9605693394121655 -1.6465854751213875 -14.784267543701244 170 165 161
4.029998913474033 -1.922063617267467 -15.354252874615408 55 49 51
4.042093143176755 -1.87242140699657 -15.352214566852513 51 47 52
4.053654625387489 -1.8364115908182264 -15.362145201390728 34 31 34
4.065637225155901 -1.7882348990501349 -15.361171178040223 32 30 31
4.0763329931520875 -1.7754406823580853 -15.391654562719944 39 37 41
4.08646723582684 -1.7790149568027624 -15.43682886655644 38 36 40
4.0963009602383575 -1.792188673558691 -15.490736594268249 34 32 34
4.105874448221606 -1.8142723091271726 -15.552826922457612 27 26 28
4.114732990489369 -1.859474827870776 -15.635986496840847 19 19 21
4.124383687944935 -1.8827317039825315 -15.69961040589219 14 14 16
4.133484998416674 -1.9248361035858323 -15.780547820472442 12 12 14
4.177834935802933 -1.849945398815768 -15.884280288646552 16 16 18
4.192304521668261 -1.7146757013833636 -15.803090349583371 23 24 25
4.206480346271759 -1.584933641978786 -15.726435463352143 37 35 36
4.221071240763756 -1.4355188846460472 -15.631061081179343 62 48 45
4.439286852880583 0.21277738336433938 -14.813176041963498 105 49 32
4.468358535450488 0.18402077497227154 -14.96196971458357 120 68 56
4.478589519434862 0.20751648372279163 -14.979444622338047 102 48 33
4.48873435168608 0.22501361697601663 -15.00279279911438 99 49 36
4.498652433415108 0.22467111151564723 -15.043728504549584 86 44 37
4.5103413349941395 0.36737806074853463 -14.943442358272682 59 28 25
4.520314274844682 0.37535359294213055 -14.975969447417054 63 37 37
4.530129970147293 0.3675985424777837 -15.024179518396226 68 46 48
4.538578609713966 0.22335727232232383 -15.20845165071445 54 39 39
4.548498402983641 0.2099888977714004 -15.262913562760573 54 45 43
4.5578302556783825 0.12636975736877698 -15.387881297587189 48 41 40
4.578415723746147 0.15706624629656396 -15.440248492529125 25 14 16
4.587542588490115 0.005134336912098192 -15.635277520606207 22 11 13
4.597960875433872 0.020776880622150884 -15.661669377454146 22 11 13
4.608411599954826 0.041128345222919194 -15.683306689946523 68 60 61
4.618762789623364 0.04189037599990808 -15.724868104997956 112 110 109
4.629242049143446 0.06608010845828094 -15.742638533253192 119 117 117
4.639602871590844 0.06001620958507825 -15.791323812402904 122 118 119
4.649998085186382 0.053931562032603964 -15.84017133881432 108 104 104
4.660425948653181 0.04702802669446182 -15.890002355376378 67 60 58
4.670823686335201 0.0020277044736749517 -15.979249754959586 44 31 29
4.68129090111507 -0.05938675418050643 -16.085817219379454 31 15 15
4.691873248513776 -0.10584571771104745 -16.17733384210033 23 9 8
4.702504076638084 -0.0053078117420595206 -16.11648467664118 22 9 8
4.713167754252245 -0.052681825487679745 -16.209283771521118 23 9 8
4.723796777412895 -0.022761001646148138 -16.221718816080138 24 10 8
4.734600918495625 -0.07445202188073097 -16.31957312930556 31 13 8
4.745235226755084 -0.036527737707571006 -16.323723219021268 51 25 21
4.755805455589312 0.012343357768217267 -16.31624972032374 76 47 43
4.766465575039925 0.03157746739762057 -16.339903453612454 68 40 36
4.777031023607162 0.06990562983734083 -16.34335262661067 61 33 29
4.78781521401825 0.06565279094637955 -16.39189048163492 56 29 25
4.798372839818151 0.10202620099971593 -16.39733643308308 49 26 23
4.808869558222896 0.1438557099837947 -16.396870439232735 35 20 19
4.820138325880253 0.08271738240773452 -16.506430900195845 44 31 30
4.8315686520245436 0.01583155343542586 -16.622617563309483 59 39 37
4.842925260555507 -0.029806746548200813 -16.716450361510912 75 55 51
4.853276247330939 0.03574483865875777 -16.690767587630802 103 89 85
4.863927765758449 0.06691780430712146 -16.701995107729175 124 116 115
4.873649476056642 0.17925298830579894 -16.6251821685973 143 138 139
3.5732715752772855 -2.415913407603184 -13.8619521497288 212 212 212
3.5914374375673197 -2.4291697405587316 -13.949630761083803 211 211 211
3.613356848743683 -2.3815685468873804 -13.989960952958958 209 209 209
3.6234355332714028 -2.3725396468688738 -14.02174125149634 207 208 207
3.635682240919621 -2.326819639119168 -14.024587953409494 204 204 203
3.6479773097951917 -2.279810881343521 -14.026305131408538 202 201 200
3.6591598747501104 -2.251594847440656 -14.042833298655854 197 194 192
3.6740781374087224 -2.157890611103749 -14.007173568090241 191 184 181
3.6874927970251252 -2.089356550471437 -13.991295774456805 175 164 157
3.7003221657474317 -2.030337994983131 -13.982827774456126 147 132 122
3.7136820296210464 -1.9610274787999744 -13.965927399023862 117 90 79
3.7260917545157777 -1.9080257480110498 -13.961942793587559 99 63 52
3.7390701419576406 -1.8439422196102795 -13.94886831655414 94 52 43
3.7511665417856115 -1.79532745799 -13.948122653364667 91 46 39
3.7622210597736907 -1.7656403440051216 -13.962614679174308 93 45 39
3.7747894646197446 -1.7071265776310751 -13.953602772244755 94 46 37
3.7854271421807235 -1.6847067664942799 -13.973876835524916 98 50 37
3.796570288336545 -1.652476789382523 -13.986112480787583 104 54 39
3.8075327194527913 -1.6235131080159704 -14.000973905088706 103 49 36
3.818136028329247 -1.601438982105904 -14.02146374458181 103 44 31
3.8286409571514683 -1.5812805067828002 -14.043524581536259 109 55 32
3.8391457331716885 -1.561120948227468 -14.06558368070615 103 58 35
3.8488008273191534 -1.5582771371182806 -14.102004498022696 86 38 23
3.8599015758565502 -1.526019287516763 -14.114038665461486 91 38 20
3.869923195776144 -1.5159819254623326 -14.144548312729261 93 44 26
3.8777999798073948 -1.551424831112426 -14.213133444431087 90 55 42
3.8874636992860165 -1.5500361344822409 -14.251087279910244 89 64 53
3.8956569187557837 -1.5808621949788524 -14.316209515427532 91 72 63
3.904640588734599 -1.5956448437519288 -14.368038360205817 92 75 68
3.9137973772937453 -1.607458689487224 -14.41751670071477 100 83 77
3.9228659610214294 -1.622052290362455 -14.469496999076393 115 101 96
3.932112946376161 -1.6334829234363326 -14.518948454147294 131 120 116
3.9410141542467416 -1.6536834224272656 -14.576018264529603 145 138 133
3.951921266160481 -1.6282200887487965 -14.59425743214106 164 158 154
3.9621392925910417 -1.6188862126772534 -14.626291665496044 177 171 167
3.9730406557333953 -1.5935011421193197 -14.644587967217525 187 183 179
4.05906521474685 -1.9683757542515847 -15.381059432257711 57 52 50
4.080354422476432 -1.9494490301561127 -15.448338248879892 33 30 31
4.092617751546413 -1.8933967128062843 -15.440616810057971 32 30 32
4.104424533541248 -1.849666531504603 -15.44371893638877 39 37 42
4.116768877884507 -1.7889094614635308 -15.43148468434024 41 38 44
4.124720536651925 -1.8616685547203762 -15.538787519730718 40 37 41
4.133976633611922 -1.8970700637001858 -15.61295126336806 34 33 37
4.143534982132936 -1.924963394820562 -15.680618024246169 27 26 31
4.153405062256089 -1.944614669590976 -15.741070996836825 19 18 22
4.16318016778267 -1.969019241539426 -15.806029863855969 18 18 20
4.172597924386391 -2.00733787204011 -15.883855260420699 14 14 16
4.194406525779519 -1.9867839811743453 -15.95157582984279 12 13 16
4.206330364552711 -1.9405392830577712 -15.952566612173376 21 22 24
4.219595068958988 -1.8438822601588054 -15.907128461439584 31 32 35
4.234482551299138 -1.6827785868581655 -15.801963614576199 39 39 40
4.2495432093364816 -1.5085083664665317 -15.683951136032267 61 50 47
4.456697366103003 0.16706202126534642 -14.803383425858197 105 49 32
4.466960400624219 0.19561687238436853 -14.81581538492601 105 49 32
4.4762628972403515 0.15746639327778755 -14.892997961409428 106 50 33
4.486823602597637 0.20654598031070748 -14.885515276808583 114 61 46
4.497029924779447 0.23118838870448233 -14.90174350427235 111 59 46
4.507479723960131 0.27615486430894265 -14.898042792041768 101 47 32
4.517676196267223 0.3022376914326079 -14.912748138381552 96 48 39
4.5262624315141275 0.18320423435683253 -15.070271048032204 73 34 30
4.537793462505357 0.33040995191426337 -14.965733671570131 55 26 22
4.547826283152828 0.3408272332191 -14.995897884547876 68 44 43
4.557671295332536 0.32936248724121864 -15.047821641578519 58 39 40
4.567395952810399 0.2989634554094742 -15.118745494492025 53 41 41
4.576370730924349 0.16426816450133241 -15.293973852480937 54 46 44
4.585990815666806 0.09172960062140323 -15.40784914970908 51 46 44
4.606267114871962 0.06205925111440802 -15.521024864965387 19 12 13
4.616224328957444 -0.0006473323481728244 -15.62615324232535 19 12 13
4.626618507590701 0.009028584669005468 -15.658553272589796 19 12 12
4.636968562605406 0.003877804582741895 -15.706035797109255 73 67 67
4.6473805905945955 0.007705701311628843 -15.744528409089536 119 115 116
4.657897891356976 0.04435204816840699 -15.749667370842134 124 122 123
4.668318302988897 0.0415843336402526 -15.794983543817644 117 114 115
4.6787414466822845 0.016504357061606356 -15.863278661318704 85 81 80
4.689235890587434 0.011397483224392602 -15.911304429249029 55 46 45
4.699767721052801 -0.029758657586771875 -15.996590978733341 41 28 27
4.710368037148028 -0.05345455369712493 -16.064183395544546 25 11 10
4.721107584477732 -0.13262628267671417 -16.189448980311905 23 9 8
4.731615278038487 -0.039467427605777594 -16.136375907832097 23 9 8
4.74238779051133 -0.07615223599114618 -16.21804062506738 24 9 7
4.753100660049826 -0.07350236025778223 -16.258971912792116 27 10 7
4.763845882101092 -0.07288074077019235 -16.302122897002366 35 14 9
4.774454877911482 -0.03854544152745021 -16.31001449860153 63 37 32
4.784981599056749 0.00723239967970013 -16.305792068603076 77 49 45
4.795664078198884 0.022272655386055717 -16.333845086776698 70 42 38
4.806289372627514 0.04665567116709557 -16.352047799251242 62 34 30
4.817058287321833 0.05133437570768695 -16.39111905523217 57 30 26
4.827589544804935 0.08736700660871755 -16.396946643247084 47 26 22
4.838378075286732 0.09224516374490932 -16.43589252838546 39 23 21
4.84981655018989 0.03198330710219999 -16.544541052608423 53 35 33
4.861364158444466 -0.02800494686822219 -16.65335269546122 63 44 40
4.872770672046405 -0.06507035872888167 -16.737992994312005 83 66 62
4.883096441852851 -0.0032339013541422545 -16.7164211827617 108 96 94
4.893849523825264 0.01960884202904989 -16.736730204655853 131 123 124
4.903090463382602 0.15725250729081353 -16.63270282586844 146 141 142
3.6341340802217967 -2.3807353999967553 -13.938136111817311 211 211 210
3.664513804859634 -2.3514923423328558 -14.031602330198087 208 208 208
3.6767297352207455 -2.3052026580852187 -14.033931228742393 207 207 207
3.6891230670250184 -2.255256724788083 -14.033247376077373 204 205 204
3.7149574526215203 -2.134583746783896 -14.014916048065901 198 196 194
3.75576820205881 -1.9089576320530872 -13.950226117217639 161 140 132
3.766242901035088 -1.8907547053212879 -13.974162213589349 127 100 89
3.777833992025682 -1.8512343105993763 -13.980865844509301 104 70 59
3.7896125778323317 -1.8076838230728676 -13.984216016975962 95 56 46
3.801037821352098 -1.7705392087083176 -13.992671992296788 91 49 38
3.8124340242743617 -1.73360164182197 -14.001221468769693 93 48 35
3.8235031465018543 -1.7028254108970753 -14.014733690418643 95 47 34
3.833919455003289 -1.684986110660991 -14.038804007288403 96 44 31
3.845164533612807 -1.6502845365565788 -14.04902287710415 97 41 26
3.8557130911092377 -1.6296241955134727 -14.070749867729898 103 52 33
3.866455374017254 -1.6049053474824841 -14.089119682360762 95 55 31
3.876730713340812 -1.5899367982703758 -14.115548679303773 84 45 20
3.8869084307627983 -1.5771728166752856 -14.143832171270144 85 43 22
3.8962599142049186 -1.582446112620505 -14.187177038221412 92 52 37
3.9048492297558504 -1.6050124425930505 -14.245083503904995 93 67 54
3.9144435280856253 -1.6063656533533095 -14.285411789972564 99 81 68
3.932388028479044 -1.6389630907682626 -14.391535687703598 134 124 116
3.9410614310623906 -1.6635455548588567 -14.451841887140455 158 149 145
3.9514923073201853 -1.6483362566677426 -14.478656469182333 179 172 169
3.9613173603465075 -1.6475696630237984 -14.517757234097902 187 182 179
3.973617916792895 -1.5880732199725243 -14.506946075278634 190 188 185
3.982920015396323 -1.6002600332879569 -14.55714890270281 194 191 189
3.9935887949832023 -1.5797255801224646 -14.57949244467973 195 194 192
4.130055628934791 -2.0074227542789336 -15.5701225658255 51 49 52
4.143793661194325 -1.9027614789806258 -15.51903510844399 58 55 60
4.156751457026686 -1.8202311093239203 -15.487375181136269 60 55 60
4.161175498136595 -2.0177535597433405 -15.706996666605452 52 49 54
4.171299936664155 -2.0315674261832326 -15.762198825526037 39 37 43
4.182664527908088 -2.0040900043093037 -15.780278417522648 31 30 36
4.193017469083594 -2.011937002337744 -15.830316211264577 30 30 33
4.201800017532248 -2.077455403592827 -15.932859466644857 25 25 27
4.212691168992568 -2.0693655639453317 -15.9688111606339 16 16 16
4.223659129151875 -2.058992085819326 -16.002743143055447 12 13 16
4.234764444672464 -2.043853206828773 -16.03236741210677 14 15 17
4.249005895333493 -1.9056914707535304 -15.949120848742922 24 25 28
4.262454536596238 -1.7937829176093576 -15.889459461403764 36 37 38
4.484778829285265 0.1774837616072933 -14.779367483199614 105 49 33
4.4947038114995035 0.18254988766647973 -14.8144842419323 105 49 34
4.504511790415366 0.17675422533828478 -14.860215504024865 106 50 35
4.514487290456319 0.18246292070039782 -14.894881294631302 117 64 48
4.525044368405526 0.23876065794894608 -14.880258482705258 107 54 37
4.534968941888115 0.2394019915783785 -14.919891122562888 102 46 34
4.545316105817498 0.2804261898403837 -14.920009881045996 93 47 41
4.555186547793424 0.2728354329696794 -14.967827424627185 66 30 28
4.56541903800461 0.303378992830333 -14.978181003820211 61 34 31
4.5754170757332435 0.3062313653001745 -15.015854477167906 66 44 44
4.5853368795665705 0.2954448082577903 -15.067135185499595 50 36 37
4.595373436731995 0.29635303400542856 -15.10694992100576 54 45 46
4.604441642720258 0.13173985817555867 -15.311824659060427 47 38 38
4.614184129055793 0.048418641995944256 -15.436440626849475 45 39 38
4.634659965435942 0.027222632941727554 -15.541199715380197 22 12 13
4.644933899135958 0.009596241963656382 -15.600901167722945 20 11 12
4.655067085663587 -0.0779492771532766 -15.731415976607302 20 11 12
4.665586233933437 -0.04684510369603334 -15.742360839458655 56 50 49
4.676097537783946 -0.010799193312967859 -15.748228538526735 110 106 108
4.686566335983347 -0.003652351913549623 -15.78342851298314 114 111 114
4.697053042522899 0.01684614575691068 -15.805069664074189 88 86 86
4.707582322830852 -0.034738502745033095 -15.900477715320724 64 60 58
4.718148726398901 -0.04019087750452055 -15.948937212892575 47 37 36
4.7287826014240615 -0.0627983355438575 -16.015185271641236 38 25 24
4.739474416723491 -0.08561844919574746 -16.081885643898442 21 9 9
4.750261437350517 -0.1197935205338867 -16.160565457319414 20 10 8
4.760782696741776 -0.06834672974030465 -16.15074987190784 21 9 7
4.7717150676721545 -0.11462585549221949 -16.24237748151244 23 8 5
4.78232615392419 -0.08351233842961481 -16.25368601427342 28 11 8
4.793053107675656 -0.0741673376135763 -16.287689700105776 42 19 15
4.803653525845635 -0.04364954458657433 -16.29956313826288 71 44 40
4.814112213100346 0.00421045590893776 -16.293155522879555 72 43 40
4.825104155296366 -0.018852746778939 -16.361322402665728 69 39 37
4.835795003624246 -0.0006483803956411904 -16.386134457237937 62 33 31
4.846358454686717 0.0313735595867799 -16.396322157282945 55 32 28
4.856982338466492 0.055824347940942154 -16.41448502569468 44 26 23
4.86838264748463 0.007947593857431379 -16.50964328059818 45 29 25
4.879645444217315 -0.0197487155289906 -16.583639877501074 61 39 35
4.89135906686573 -0.07888970541135709 -16.691570330179452 67 48 43
4.902860263171098 -0.11295333442702127 -16.773035461510442 92 76 73
4.912603887884343 -0.012213501353020462 -16.70973690538201 115 105 104
4.923411757378819 0.006278381486449547 -16.73473044791892 135 129 130
3.7035210525965234 -2.3670581788967606 -14.070372054780066 209 209 209
3.8038004968578516 -1.9238447533652714 -14.027045781049154 176 163 154
3.8157001379605577 -1.8777305633635777 -14.028465854571953 154 135 125
3.8272298548987536 -1.8385191951140305 -14.035380038747686 128 106 93
3.8386456692683035 -1.801209759666949 -14.043759583341593 109 82 68
3.8498170325218157 -1.7685618355587662 -14.055871004788695 98 66 53
3.8604475404308234 -1.7469267549805894 -14.076947244136125 95 59 45
3.8714258812259246 -1.7179042595367005 -14.09194934172591 100 63 47
3.8819213476644676 -1.6989971163863773 -14.115241890263627 113 82 64
3.893074848305753 -1.6658787268981596 -14.126804685054118 136 112 93
3.903053380095411 -1.6581772805174717 -14.159354060068294 146 127 107
3.9130128353701874 -1.6512022902129786 -14.19256191886384 143 123 106
3.922759828862307 -1.6493226961882446 -14.230070360394443 150 130 119
3.932037268617777 -1.6585766617684747 -14.276954164962625 160 145 136
3.9602690643309235 -1.6815539216449311 -14.414375864600864 190 187 184
3.9696073359938397 -1.6924410960925371 -14.463159450934478 194 192 190
4.0044513503657715 -1.559903561095818 -14.46984112371836 200 199 197
4.179997279392072 -2.0744747579610063 -15.700718787603634 56 51 55
4.191951858189535 -2.025868198468846 -15.69983719343665 48 46 50
4.201021299592116 -2.0796049230253946 -15.790923803724873 41 39 46
4.231187246251534 -2.1480155139496704 -15.982172602575911 34 33 37
4.242927960349819 -2.108833676486615 -15.98996985218451 30 30 32
4.254317900408105 -2.082894567148177 -16.00975852031735 23 24 26
4.265083328664259 -2.082457274666413 -16.052845473386522 18 19 21
4.278069547791713 -1.989280882223623 -16.01100327859225 17 18 20
4.290770109746376 -1.9047220429323843 -15.976732286256642 24 23 26
4.303717559745778 -1.8057544564059098 -15.928869088073291 48 38 39
4.522128015663819 0.14101162586646687 -14.840685121975618 105 49 34
4.55257005878204 0.20185202275871283 -14.902169015306523 103 48 33
4.562875487190906 0.2405590718127586 -14.904643497422178 101 47 36
4.573242026516263 0.2899260251997289 -14.896570717082032 88 45 39
4.583177551007875 0.2865017180199745 -14.940212281333359 60 26 23
4.592971348968545 0.25787472710136594 -15.008801355418138 71 44 41
4.602985491174777 0.2550517991611363 -15.052151843852027 69 51 49
4.612841609145611 0.21819773503036277 -15.129323752866284 50 38 37
4.622761506169266 0.17941256622905222 -15.208709013672422 47 38 39
4.632715634312662 0.13066721559954164 -15.298318501808362 34 26 27
4.642664550066744 0.055177312950984714 -15.414988808203217 43 37 37
4.663173594085791 0.010972751902206035 -15.542678790882608 19 12 12
4.673482551446918 -0.02918557513439879 -15.62502768677454 16 8 9
4.683820435336179 -0.12524852232960892 -15.76410331952128 16 10 10
4.694342007279914 -0.09404208665851677 -15.77504699541711 37 33 32
4.7048460390158855 -0.05655227336894253 -15.779557114882383 68 65 67
4.715348142754498 -0.038608146958163836 -15.80385166494166 77 74 78
4.725866799636876 -0.028529157217216827 -15.836177490830636 64 62 63
4.736512189519574 -0.06518415438256042 -15.916339224755259 49 46 46
4.747142696785381 -0.07252048803796907 -15.96675230667889 41 31 31
4.7578749755062795 -0.09707374253304657 -16.035010985615052 40 26 25
4.7686506980220615 -0.11785933199592247 -16.099630140059396 25 13 12
4.779313773434944 -0.10584251941150402 -16.130577653379465 19 8 7
4.790035666097179 -0.10205528728571878 -16.170096377167916 19 7 6
4.801047009725082 -0.1395079287955321 -16.252545542068923 22 7 7
4.8116362077245185 -0.10701285340881928 -16.262457768391144 30 11 9
4.822160903477903 -0.06841245181766187 -16.26592684562765 43 20 17
4.832766829981599 -0.04227852083216721 -16.28234809397008 61 34 30
4.843663740020506 -0.048606278946550674 -16.33281707216534 67 40 37
4.85441714807908 -0.03674187856575539 -16.364284178113863 65 37 34
4.8650834112232815 -0.015548761877925976 -16.38595253153376 58 33 31
4.87594657412422 -0.011918188995663215 -16.426201113545403 49 32 28
4.886451414499598 0.023569208689314003 -16.432742175800016 37 24 19
4.898109168124858 -0.033609081559078824 -16.537779542861053 51 35 29
4.909401953417998 -0.05540093287061776 -16.605508383075993 67 43 39
4.921303093332215 -0.11625430269787529 -16.71525131219022 77 58 52
4.932691844140462 -0.13468855067881425 -16.779968232295065 102 87 84
4.942836589677578 -0.06915209075842021 -16.754625173268103 122 113 112
4.952860446146882 -5.116482499101238e-05 -16.725183875671917 139 135 134
3.8434876823265824 -1.9165873644354265 -14.04738521880764 195 190 186
3.8549947101311965 -1.8774717455881413 -14.054447139238317 189 185 178
3.866525033480692 -1.837425222537279 -14.060667945979713 182 176 168
3.8787100017194263 -1.7829012057970193 -14.054985197927564 173 166 157
3.8891676007472413 -1.7649683861294543 -14.079094979029058 168 159 150
3.9001646219936243 -1.7352644642195916 -14.093555249542245 169 159 152
3.9106499582569056 -1.7166776087384683 -14.11711987614375 179 171 165
3.918934416647375 -1.7475635581603362 -14.181507346692943 190 185 179
3.9291485710211433 -1.735843490288688 -14.210876297121615 193 189 185
3.939047447722547 -1.7316016062366248 -14.246486013525956 194 188 185
3.9598670559508147 -1.700215738816782 -14.298819767929277 195 192 192
4.2083281693164585 -2.1732336634180234 -15.774623515366168 52 47 51
4.241258392908706 -2.138820025061859 -15.872694650631884 39 38 45
4.2511550862111935 -2.171616799384487 -15.945494880280398 38 37 42
4.262091196138465 -2.1643713999808485 -15.98226574907519 37 36 41
4.273494260925659 -2.13817050543605 -16.001879674348462 36 36 40
4.285214859139587 -2.0979943708313122 -16.008736683075398 32 33 35
4.295915448485631 -2.1021004948101165 -16.05595969737235 28 29 31
4.308472440585496 -2.022921241004294 -16.027013185797315 23 24 26
4.321244728826141 -1.930349590891847 -15.985483345271753 18 19 21
4.539238706030027 0.054434401646330954 -14.870111482391266 105 48 33
4.580425472999284 0.19700583480241107 -14.8928108307822 102 44 31
4.590591106764343 0.2212739417434646 -14.90938188921953 97 47 35
4.600874613601164 0.26534483225279004 -14.906539033676902 85 42 36
4.610838769905651 0.2583941704647952 -14.953652770315273 63 26 24
4.620769482563218 0.23792809175485896 -15.014205842777388 79 52 49
4.630668906432313 0.19834311924910963 -15.093834711271725 62 46 44
4.640753297610541 0.18815703329848787 -15.144682178748646 49 39 40
4.650756166431508 0.13835123869528232 -15.234992848750444 41 32 33
4.661025822038394 0.1626613896914506 -15.251940652627304 26 17 18
4.702122727963147 -0.059704849279827776 -15.640798593508128 25 20 20
4.712696455590818 -0.17073967634817766 -15.794903131628644 28 24 23
4.723218546397975 -0.13912380268381508 -15.805530266216335 40 38 37
4.733748343894286 -0.11778982880260092 -15.826514937074696 48 46 48
4.744255802986648 -0.08938067501345248 -15.840303767559707 48 47 49
4.754815369338194 -0.07864292418590502 -15.872050521723937 42 42 43
4.765373651198395 -0.064673065669 -15.900545975886343 38 35 37
4.7759980594276 -0.0624717403448809 -15.941127346428878 36 27 28
4.787042649733184 -0.13101519562977604 -16.054452721076043 38 24 24
4.797803471115115 -0.1352516714133003 -16.102049250912135 37 22 21
4.808633134042523 -0.1446307040525019 -16.15508791771949 23 11 9
4.819310383192429 -0.1287712768429916 -16.182164775576773 17 6 6
4.830340570593281 -0.15464995117230274 -16.25258230688296 21 8 8
4.84081903254935 -0.11219143284248023 -16.252144043424433 29 12 9
4.8511759000182835 -0.06030237557754603 -16.24174458792153 44 21 17
4.861848220135933 -0.043028511855594864 -16.267381021574415 56 30 26
4.873134061987253 -0.08088712885068894 -16.350860163555136 61 34 31
4.883667627926938 -0.047861792780291346 -16.360117941159643 61 34 31
4.894520625935579 -0.04193668945416995 -16.397880080259558 54 30 29
4.905028596007776 -0.008211265177010318 -16.406331639907638 41 24 23
4.91607661397926 -0.01490061868787862 -16.457548436630837 38 27 21
4.9279495845333 -0.07581214756192534 -16.566545274323417 56 38 33
4.939367269476405 -0.09934737506536528 -16.6361699298232 67 46 42
4.951229967312525 -0.1469658480705549 -16.73177467950147 88 71 66
4.9624556235102695 -0.1505015841648536 -16.780539659263997 108 96 92
4.972525801679181 -0.08538473169943295 -16.755700328216484 130 123 120
4.982382410230581 -0.011907274420077663 -16.721603928949595 143 140 138
3.871557234354992 -1.9512517267303595 -14.062877143230093 205 201 202
3.8829245480327588 -1.9147283430061073 -14.072102031635875 202 199 200
3.8942396086125974 -1.8789585286548274 -14.081867928767153 199 197 197
3.9084525986462184 -1.7784661626988765 -14.038788480102964 197 195 195
3.918309300863067 -1.7739041858689113 -14.07379038551353 196 194 192
3.9286976118859154 -1.7576323433770673 -14.099260600621001 198 195 193
3.9391574095780864 -1.7398099608064177 -14.12347308666398 200 197 196
3.9464847267480136 -1.7951850766108297 -14.208032034201427 203 199 200
4.235500213098069 -2.3288179596767336 -15.899164292549631 55 52 53
4.258361864787355 -2.276497099480185 -15.938769435796612 46 43 49
4.2705998577823765 -2.2160579240827127 -15.92766431622534 42 40 47
4.2818546055025575 -2.1960045198585805 -15.95284384308735 40 39 45
4.292705872754554 -2.19389015275201 -15.994274200227458 39 38 44
4.304905710070683 -2.1314954467988407 -15.981068029962186 38 37 43
4.316751555248686 -2.083345018784974 -15.980630776729287 37 37 40
4.328841395703115 -2.0218906294010317 -15.967919965274053 35 36 38
4.339540966173679 -2.0269669752723507 -16.015904593344498 35 35 37
4.352219815737005 -1.9324812959398132 -15.97265344491446 29 30 33
4.364927119169068 -1.8317830036539622 -15.923327876960432 36 32 33
4.577401448372539 0.07283958223988396 -14.878544928372419 103 50 34
4.5876875293606485 0.10920939723616563 -14.883584760264089 109 56 40
4.597980840913879 0.15010909026283592 -14.884141247613641 112 55 41
4.608222990179295 0.18695161806341964 -14.888533936192907 103 46 31
4.618319544655251 0.1998169213335066 -14.916226951322303 97 48 35
4.628610586275155 0.25421732565291144 -14.903325847012054 78 36 31
4.638593794736301 0.2402189171110507 -14.957323895562762 66 31 30
4.6485814113701025 0.2140615095469096 -15.023451592718482 76 49 46
4.658647083287546 0.19536423449418372 -15.08246118340237 54 38 38
4.668741412672858 0.16553252323513767 -15.152677114338244 50 40 42
4.709882066839114 -0.11151311569787392 -15.593712099437106 43 38 38
4.7203380744836245 -0.09372729727054008 -15.61794580206518 45 40 40
4.73106352213458 -0.20503069214930125 -15.77185036703455 46 41 41
4.741688682578705 -0.21576972081511414 -15.825177230405341 42 38 37
4.7522040628575954 -0.18210015388803757 -15.833826839977695 37 31 33
4.7627740597397175 -0.16633383908641886 -15.8605295719409 30 25 27
4.773343128615471 -0.14915197469705266 -15.88581850703425 26 22 24
4.783872409709867 -0.12388437189243984 -15.902893349811277 22 19 19
4.7945152286755 -0.11845421105180964 -15.940184421467617 20 15 16
4.804913144827544 -0.07380800153910538 -15.937428571358048 26 18 19
4.816223641902267 -0.15654645325752892 -16.065225981570784 36 24 24
4.827131391163989 -0.17238071004185418 -16.12476214157622 39 24 22
4.838125192664832 -0.1924401573733876 -16.188852398758073 36 22 20
4.848865504005124 -0.1799084427430504 -16.21946053938666 25 13 11
4.859277891455516 -0.1340074764125463 -16.215512846957512 22 9 8
4.869682852978567 -0.09065615250301207 -16.214075140093843 31 14 13
4.880237733112028 -0.06307409379819617 -16.228947186653713 48 23 21
4.891439619724272 -0.08933777094835627 -16.30005253452408 54 26 22
4.902430748195052 -0.09428008083097517 -16.34907340968789 56 28 24
4.912985739743744 -0.06454807542760665 -16.361804273528147 53 27 24
4.923787976857509 -0.05304608261089161 -16.393686605937468 43 21 21
4.934490756379118 -0.03408346261387685 -16.417738136838523 34 18 18
4.9457967213841725 -0.053493035442906844 -16.48243346977303 46 31 26
4.957340649319596 -0.08404833135008793 -16.559186144001313 64 42 37
4.969260185341151 -0.13242865900788203 -16.655201877959684 73 55 49
4.981439926940881 -0.19001145210516945 -16.761428453061455 100 85 79
4.99238244901548 -0.17467408630245806 -16.790053089006694 117 106 102
5.00200609258838 -0.09018790822961087 -16.744504917846378 137 130 127
5.011491899776191 -0.0033152660183946026 -16.696026498881583 147 144 141
5.021665978536911 0.045574912444086735 -16.68814503579786 155 154 152
3.842100399737196 -1.979565666953948 -13.841864597365326 209 210 210
3.9009023946754593 -1.9591735351940338 -14.056727376324112 207 207 207
3.9148744313279518 -1.8633795030516005 -14.017924457936818 207 207 207
3.9255248633047533 -1.8413416858862854 -14.038717088020032 205 205 205
3.9363421199248894 -1.8154070357930614 -14.056326402893582 203 203 203
3.9469618815376126 -1.793935712035755 -14.077556147522145 204 202 203
3.9577439275977464 -1.768587423663896 -14.095604061234486 204 202 202
3.968116839237634 -1.7529113903549014 -14.12157295605006 206 203 204
4.276991321301144 -2.3585604558798385 -15.9544099047162 65 64 64
4.290031715202755 -2.261967533363137 -15.911094250455674 48 47 48
4.300087592905625 -2.2966415086547016 -15.985541645527388 45 44 48
4.31214797134337 -2.2410088729121487 -15.978777795847849 42 41 47
4.324098129546275 -2.188690919620899 -15.974848326631623 41 40 46
4.335930075873435 -2.1403724149344185 -15.974397843912087 40 39 45
4.347801468801271 -2.08838681085164 -15.970481938082756 40 39 43
4.359353323854464 -2.0512454277771264 -15.979954975812628 39 39 41
4.371213743938388 -1.9963076865027416 -15.97307851801882 39 39 41
4.3841397520861545 -1.879220962543796 -15.909057927244293 40 40 43
4.584867566902272 0.01033171518467313 -14.844424663718769 103 47 30
4.5949967466540595 0.022982256725633476 -14.872408622637296 103 46 31
4.605389040783852 0.07866945620235555 -14.858924140199973 102 49 33
4.615610140620709 0.11072545161341463 -14.86810297395913 107 54 38
4.625786990083785 0.13676104486578122 -14.883053083843949 109 52 37
4.636140844280069 0.20938221245404343 -14.85268429102248 102 46 30
4.656405914069589 0.26707919383702716 -14.876672033888156 77 35 30
4.666398779058714 0.23672800114700188 -14.946596701482772 69 37 34
4.676431340039237 0.18854967601346218 -15.03429314158093 74 47 45
4.686542265701473 0.12732015653695594 -15.135197294679905 50 33 33
4.727983796779037 -0.08562946851743014 -15.511217183587089 28 23 22
4.738570993827395 -0.13364240735121413 -15.600966900701472 39 33 33
4.749307975430247 -0.20032718045355136 -15.709762935506497 43 34 35
4.760029969080994 -0.23345999361816272 -15.785349892001625 43 34 35
4.770717389142536 -0.2433910242339712 -15.837875419608032 38 30 31
4.7812593493006155 -0.2176938377540738 -15.854619087940442 35 26 27
4.791793937556844 -0.19201348543479302 -15.871349925542933 26 18 19
4.802430256883863 -0.18301472805544083 -15.904968681607006 19 12 13
4.813123675796656 -0.17985756755479976 -15.944587113820765 17 10 11
4.823593395619769 -0.14546300990226602 -15.952449102527979 17 9 10
4.83413093846616 -0.12123266240338992 -15.970624346419065 19 10 11
4.845363867651271 -0.17281054534301088 -16.066476966992113 30 19 20
4.856458195708445 -0.20061255308997428 -16.138285197775897 37 23 22
4.867420993488324 -0.20984976620364026 -16.191225821202163 36 21 20
4.878174263181306 -0.19695923729597986 -16.221466933415183 37 22 20
4.888365869687797 -0.13631425620766446 -16.20228211114164 29 15 12
4.898606880811168 -0.08394407151658889 -16.191470200594754 35 17 17
4.909639529051284 -0.09419098140371496 -16.245687566424607 46 21 20
4.9204425388466415 -0.08508560964186351 -16.279867188937445 51 24 20
4.931527474440957 -0.09407358250103837 -16.333049704435098 51 24 20
4.942197082801943 -0.07350122614338606 -16.355366843837828 47 23 20
4.952693472169303 -0.042204400272568776 -16.36639596525368 37 18 18
4.964141877411439 -0.06843713845974708 -16.43806888242464 36 21 21
4.975657741368408 -0.0948096253528945 -16.51014947851034 55 38 34
4.987408654225864 -0.130493329837309 -16.592368917968482 67 44 39
4.99954260921832 -0.18226160630781507 -16.692010717679203 87 70 63
5.011201478968946 -0.20462957902748347 -16.76070641474932 108 95 89
5.0220676890645475 -0.18501664712758892 -16.784757206320048 127 117 113
5.031454272991606 -0.09498854063241602 -16.733324614432725 143 136 133
5.041465630180735 -0.038223825375108156 -16.717253085634407 152 148 145
5.0509987306072 0.037545045013263945 -16.680494124205037 158 158 156
3.927449339583126 -1.8089006542177222 -13.884495832055212 209 209 209
3.939327608392808 -1.7571355453843935 -13.881060540280954 208 208 208
3.94965775004359 -1.7407404984475887 -13.906121812451518 208 208 208
3.9599920811195735 -1.7243388897754093 -13.931193333889427 208 208 208
3.9704036673987075 -1.7061776643791493 -13.95484813333944 208 208 208
3.980671750310607 -1.6915541986778466 -13.981398353296399 208 207 208
3.988630564731767 -1.733998427971141 -14.054676925722049 208 207 207
4.306823112091705 -2.4316948102866105 -16.00518381738848 139 138 135
4.31924133005543 -2.3603205347905964 -15.98468265395914 94 93 90
4.332098704938808 -2.2643780735312964 -15.941854856879734 56 55 54
4.343455562629631 -2.240014552094771 -15.963195249739062 46 45 48
4.355070926117492 -2.201938211743218 -15.972127258561075 42 41 46
4.367004483638824 -2.145572582513883 -15.964403910165192 42 41 48
4.378570486073373 -2.1073815374696556 -15.973026996313394 42 41 45
4.390180605310901 -2.065455599564955 -15.978165799569439 42 42 44
4.402107881545785 -2.0029996194078814 -15.964449340898245 41 41 43
4.415657582035363 -1.836367561948964 -15.85510720575522 41 41 44
4.442492592137608 -1.4848005951231116 -15.617434851327175 74 51 46
4.612560356128048 -0.0402337764727827 -14.878952134804619 103 47 31
4.623187296753192 0.069064029764216 -14.814157074369023 103 47 31
4.643509453450514 0.1200138566823794 -14.84513821779495 109 54 39
4.653542984435129 0.10488898466496899 -14.89990583567445 106 49 35
4.66384108530694 0.18976930494494315 -14.857728937994853 103 47 32
4.673917716546334 0.18674638446716418 -14.900809114468125 97 48 37
4.6941734431686974 0.24245419189790063 -14.926863304675585 76 44 42
4.704317207616196 0.1884358372798962 -15.020182588582731 74 50 48
4.714556379842431 0.13484288500440123 -15.11346485450116 49 34 33
4.756578721884928 -0.10814528619228536 -15.51887854795948 30 25 24
4.767250332779476 -0.14601277875154484 -15.598472663866595 36 29 29
4.778149965128522 -0.2140791480016837 -15.708567309375841 44 33 34
4.788873799083495 -0.23056603995329006 -15.767417900472472 45 33 35
4.799661457587621 -0.24943358976742402 -15.82885546747885 43 33 34
4.810049816190812 -0.2039598070465285 -15.825653463451978 40 30 30
4.8207065381162515 -0.19782855252148313 -15.86207271752562 33 23 23
4.8313734008601195 -0.19066729562367435 -15.897523017374226 22 13 13
4.842112292347362 -0.18955022908840302 -15.939182952804131 16 8 8
4.852730308278293 -0.17333903317950394 -15.965570495004819 16 7 8
4.864026147675043 -0.2218780288679012 -16.05810714198607 16 7 8
4.8745159632248365 -0.18914458592486483 -16.067793676901626 20 11 12
4.8856066609046715 -0.2090157312260983 -16.1314211798811 30 18 18
4.896357820737345 -0.19716633709310472 -16.162613055548704 34 20 20
4.907323886441387 -0.20082702275392705 -16.20985928713725 38 22 21
4.917557453089115 -0.14902813022813977 -16.19984286295296 39 21 20
4.928259066100705 -0.13252677527697632 -16.226278894054925 38 19 18
4.938925853903058 -0.11338941645689449 -16.249993183275365 40 21 17
4.948974739246326 -0.055216563158530185 -16.232995470529502 46 22 19
4.959425614864834 -0.02448841023174797 -16.244492013450277 46 21 19
4.970515498615873 -0.031634934792585945 -16.295647069468497 40 19 18
4.982064983398697 -0.06225696570967276 -16.371636223368604 33 16 16
4.993829331043349 -0.10058824757457074 -16.456035314825208 43 29 28
5.005491686743968 -0.1294054486105205 -16.530705237403332 61 43 41
5.017522567973564 -0.17315286664845964 -16.621472895900784 75 53 49
5.029863806456518 -0.22749660674527394 -16.72385980280565 100 84 78
5.041363701231996 -0.2377211550560645 -16.779663469549014 117 106 101
5.051862293684323 -0.20081823228612716 -16.78529915963976 135 126 122
5.06089785924785 -0.10098618738768472 -16.723444143067216 147 142 139
5.070778680139815 -0.04175449494451211 -16.704739732312397 157 153 151
5.079940165758178 0.044800168817975994 -16.656396910894674 162 161 159
3.955348131657629 -1.8432574362819576 -13.89976581663393 209 209 209
3.9786152468877836 -1.7487644433472775 -13.90020430099122 208 209 209
3.989255668792473 -1.7248932418490046 -13.919203799348196 207 209 208
3.9981725415681346 -1.7440013419072224 -13.973140363800752 207 209 208
4.008684689517886 -1.7237659331506743 -13.995164846969775 207 209 208
4.039725651336686 -1.676132553306739 -14.071979044104015 208 208 208
4.3496014400747764 -2.4139253386580224 -16.01804695716676 162 161 157
4.3616910932409505 -2.353648379563565 -16.00741043646419 124 124 120
4.374526298426 -2.2492873560910374 -15.956884302541631 77 77 76
4.386918795922408 -2.1646354920281263 -15.923758238367096 49 49 50
4.398269872631117 -2.137543541309787 -15.942445903000882 44 43 46
4.409859323222977 -2.0952618766501203 -15.947315671057504 43 43 45
4.421471648846951 -2.049866301403857 -15.94924966726224 42 42 44
4.432857778131855 -2.0176554623393965 -15.963101163713024 42 42 44
4.4451167418122965 -1.9235227581772847 -15.92023080587119 43 41 44
4.630245489956238 -0.09158088973739709 -14.873948114735255 105 49 34
4.640567300348431 -0.041458188620289604 -14.866169422777313 104 48 33
4.691544737667703 0.11849899495125005 -14.91288232178439 100 46 32
4.701700487438588 0.10981835199094281 -14.961597616398645 96 48 39
4.711836634516709 0.16473623666444936 -14.948422000868193 68 29 27
4.721983397360805 0.1824644762242622 -14.971434130832556 71 41 40
4.732113462177576 0.20876481787266865 -14.98604857272508 70 48 45
4.774301181967716 -0.05097750333736073 -15.405818437330531 18 11 11
4.785151297695739 -0.12032504675870914 -15.516251465976616 31 26 26
4.795950170801558 -0.1620969861736592 -15.599679772424993 34 27 28
4.806998173437249 -0.2283939790965741 -15.707932718670602 47 37 38
4.817973077172351 -0.2695393699973785 -15.791450213795859 49 37 39
4.8288271487857894 -0.2858179165590693 -15.85031970871658 44 34 35
4.839289990849423 -0.2522141912710678 -15.85915560579235 36 26 26
4.8498587797711625 -0.23167849131282825 -15.881112869286602 30 20 19
4.860607936147126 -0.22893738157696308 -15.921080534828743 23 13 12
4.870972031901497 -0.18852010299915367 -15.922902517342543 18 8 7
4.881527033481481 -0.16705795371713883 -15.943904657705644 16 7 8
4.892674619800298 -0.1943163835090731 -16.014609901896254 15 6 7
4.903721701532685 -0.20876397672708258 -16.072465332909356 15 8 8
4.914256744479827 -0.18197759963195015 -16.08821355210112 20 12 12
4.925094779509166 -0.17708698577823778 -16.12644455354637 27 17 16
4.936224077788465 -0.19029097988290022 -16.183417372213434 35 21 21
4.946714151416343 -0.15963504674900708 -16.19522631194253 38 21 21
4.9576360217844115 -0.15632749109011534 -16.235328427538732 37 20 18
4.968317914228283 -0.13752866503411365 -16.259422382360004 36 20 16
4.978047378790864 -0.06479665454310624 -16.227319797924793 45 23 20
4.9892828442625365 -0.07791047109046723 -16.28462603625254 45 22 23
5.000443700359333 -0.0846829091447665 -16.335473008327412 35 17 18
5.01194882303043 -0.10694494899875284 -16.402740134723263 36 21 21
5.023460397487479 -0.1266127012575815 -16.467511389576433 58 40 38
5.035168770856066 -0.1529159320836273 -16.53951236599959 69 48 46
5.047785446684015 -0.21770176975047928 -16.652518034623057 90 71 67
5.060371698694694 -0.2758172607527003 -16.75891994642859 111 99 95
5.081465330914766 -0.20829024935363538 -16.776947243223717 141 133 131
5.1000564039115694 -0.045331856882301125 -16.692296840145705 159 156 154
5.109242304476911 0.03534914353941243 -16.650312604192184 164 163 161
4.392502552826711 -2.386016345786123 -16.02177796781929 172 171 170
4.4042340764032195 -2.3414646323365105 -16.025181232770226 151 151 149
4.416623381685119 -2.2530470160921663 -15.988896880969 110 110 108
4.428771990967402 -2.175227080852447 -15.961877653708235 66 66 64
4.440581949957575 -2.1161303953645767 -15.951569540699355 47 49 48
4.452118741158655 -2.0734872904818547 -15.95604331252786 45 45 46
4.4638281809702605 -2.0157688353825094 -15.946666658046567 44 43 46
4.476261393819514 -1.8969011704360694 -15.881202102658053 45 42 43
4.488042235766911 -1.8225472765848663 -15.85607108344361 49 42 45
4.658271841753563 -0.09348020376410648 -14.861831570328539 105 49 32
4.668564230796803 -0.026331036964320376 -14.83776503897341 105 49 32
4.6787659091608695 0.01695732681764639 -14.836341796685216 104 50 32
4.729543464790266 0.11686725317701718 -14.940649668104246 93 48 39
4.739767065919994 0.11032188937310927 -14.987352483732913 64 30 28
4.749741085225066 0.18919980931317504 -14.950721629640636 62 34 34
4.760473573376147 0.05756519746313149 -15.120020394903001 62 41 39
4.802571641524246 -0.04199634166812949 -15.382325294796146 19 10 11
4.813501561857947 -0.10234988874984818 -15.483689550372034 30 23 25
4.82450509706373 -0.15855325906679774 -15.581343908169075 33 26 27
4.835677162914186 -0.22254715162741068 -15.687174146125436 46 36 37
4.846897125015984 -0.2796067143624441 -15.786508964480715 46 34 36
4.857833333685026 -0.29776469878298695 -15.847221772651462 35 25 26
4.868601618583221 -0.29527478191294776 -15.887366655080399 25 15 15
4.879335191989861 -0.287606925596835 -15.922382888114589 21 11 10
4.889015370531822 -0.1905553201121064 -15.867071744770492 20 10 9
4.899827777837851 -0.19123246555811413 -15.910443984229982 19 9 8
4.910204262567078 -0.15709444951026796 -15.918532281632746 18 8 7
4.92059805358946 -0.1255561586785996 -15.929195076583937 16 6 6
4.932046703587428 -0.1668679784029461 -16.014252695063462 17 7 7
4.942958563061291 -0.16781220049339307 -16.0582753272821 17 10 10
4.954303786870576 -0.1939300189307671 -16.128277377777835 22 14 15
4.96528182714157 -0.19432896814264478 -16.172035848123233 29 18 18
4.976172550961648 -0.18809066410957698 -16.209051058016342 34 20 20
4.986507541842737 -0.15013805737906427 -16.21329816992769 35 21 19
4.997139264591182 -0.12924769284578197 -16.235165568422154 37 19 16
5.007500761157891 -0.09456105830367001 -16.242665782836696 42 23 19
5.018727180922092 -0.10364625854063103 -16.295779091247454 41 22 20
5.030054991877261 -0.11562039289209469 -16.352077909746253 33 19 20
5.041696614825375 -0.14002138963120725 -16.4215960169862 46 32 32
5.05321098155984 -0.1559079598436126 -16.48240347823858 64 43 41
5.065378854565188 -0.1979608235745296 -16.57101708616651 76 55 51
5.078145694384226 -0.2615387221758185 -16.682747209082084 102 87 82
5.0925349773831075 -0.386639032990324 -16.860194823076732 118 108 103
5.110723091255096 -0.2032684003986791 -16.75528718806345 146 140 138
5.130191978046808 -0.08167652724198682 -16.71499423319984 162 159 159
4.423460031784241 -2.4128982879255547 -16.031197059788443 186 186 187
4.435207226427099 -2.3650648412227735 -16.03169913165012 179 179 179
4.447012461883725 -2.310755901005301 -16.026238254342385 166 166 166
4.45861753896302 -2.268500173617592 -16.03151396270959 140 140 139
4.470715161472734 -2.185383979352733 -15.99966051129831 92 93 88
4.4827303107045875 -2.102832964330579 -15.968022828581066 55 55 53
4.494661855051538 -2.0210134399367448 -15.936755475451513 46 44 46
4.507308187076647 -1.866290849133387 -15.838596895586512 49 43 46
4.613109613209865 -0.5726840727345097 -15.018178138693042 105 53 38
4.736938408172056 0.12319910815274504 -14.840215088497184 101 44 28
4.747234215833331 0.08556231968245953 -14.916724949167165 100 48 35
4.75751118072533 0.07250056671946226 -14.969663776169245 92 48 38
4.767791504047731 0.06822124603394286 -15.014218696475027 64 30 28
4.778126744633444 0.059254425338648 -15.063471618992823 63 34 35
4.788530488314768 0.04486654460409234 -15.118177394502439 64 43 42
4.798842970863776 0.05165129866301843 -15.152280226794527 46 34 32
4.809455047078739 0.01847043554551764 -15.22577448722388 49 38 38
4.830750139941761 -0.03139044734608021 -15.3572653186126 19 10 10
4.84199162536248 -0.11201308288926004 -15.478597318882755 30 23 24
4.853141666696057 -0.16949496037796763 -15.577443878949435 33 27 27
4.86433542638117 -0.22124090021176102 -15.67097822638138 35 26 26
4.8755235599894995 -0.26380325627270285 -15.75570975210703 35 23 25
4.886499885711151 -0.28117992632924516 -15.815526873861 25 15 16
4.896964641462498 -0.25331729402125003 -15.830075913213438 20 10 9
4.907513128995846 -0.23264820380132623 -15.851832464577019 18 8 7
4.918422277184069 -0.23821482249094572 -15.900093260111884 18 8 7
4.929131008161338 -0.2275071447255561 -15.932004910441352 19 9 8
4.940104171016326 -0.2334215957296042 -15.980850239709763 19 8 7
4.950865970640257 -0.22372779090407224 -16.01394016003976 17 7 7
4.961847816354916 -0.22649814944950375 -16.059813511610248 18 7 9
4.97250351092076 -0.2084642963480663 -16.084511652578442 17 8 9
4.983341627182947 -0.20046670830965763 -16.11952375473662 20 11 12
4.994202717181829 -0.1927994026102393 -16.15494207354728 25 15 15
5.005320993351355 -0.19758411850777424 -16.203278397836876 26 16 16
5.01529648364836 -0.14335648293983905 -16.190693382745444 27 17 15
5.026299563614307 -0.1411816757028852 -16.231922103056466 35 20 18
5.036665036637861 -0.1079565488589882 -16.24095313690224 39 22 20
5.048345989939937 -0.13523091452072578 -16.313007131687325 38 23 20
5.05977365150056 -0.1484428076497828 -16.370618652952402 43 29 28
5.0714960288501345 -0.17221815312775313 -16.439490183150095 58 42 40
5.083709629714898 -0.21376287683879358 -16.527284960801193 68 49 44
5.095644447156612 -0.24057419063346597 -16.59989542797679 90 72 68
5.108797682846735 -0.31243182395846514 -16.720371615573256 114 101 95
5.120326937755159 -0.31748659613610375 -16.77058376008127 127 118 113
5.159292684231639 -0.0795908167544006 -16.696494196013955 165 162 162
5.16866932023866 -0.012563467114048876 -16.669313931659648 169 168 166
4.489546665722091 -2.291753327932277 -16.037792154752303 176 176 176
4.501131803858188 -2.246234980343889 -16.040053047883724 161 160 158
4.513004970545537 -2.1699652898850124 -16.014281053891086 129 128 125
4.524839732842464 -2.0906882830438622 -15.985506554663306 83 80 76
4.536904107403451 -1.9782798242209498 -15.926212990169574 57 51 48
4.549070653537063 -1.8404762466385387 -15.843237210099087 53 41 39
4.641794941931128 -0.5488937329832408 -14.981982458152405 104 55 39
4.652403968723211 -0.4516232777814899 -14.931338009520472 103 53 36
4.662826397267114 -0.39468843364631123 -14.91821318062027 105 52 37
4.734439690706204 0.005940126360147069 -14.81909356972697 106 53 39
4.744596532641446 0.02213391916746854 -14.843563124452784 106 53 38
4.754642554973764 0.07018788043891089 -14.837384318925317 111 57 41
4.764717499615044 0.10265267865707006 -14.846102527628346 101 44 29
