ply
format ascii 1.0
element vertex 703
property float x
property float y
property float z
property uchar diffuse_red
property uchar diffuse_green
property uchar diffuse_blue
end_header
4.204285573783362 -1.5145882318772788 -15.854541497309754 8 6 9
4.197297620051806 -1.5174244224889313 -15.91517276273968 7 5 8
4.1902761395323695 -1.520275325042753 -15.976106799083226 7 5 8
4.18333425106426 -1.523168926733697 -16.03715662149554 21 19 22
4.218357444573818 -1.536385442101727 -16.028195045987154 39 37 40
4.238043717763355 -1.545829309000792 -16.04482100320073 34 32 36
4.269272343574851 -1.558094026350775 -16.041992401736977 33 32 37
4.3302214839625695 -1.5775997068258996 -15.988828472646894 34 35 39
4.352428397942775 -1.5876287468606112 -16.000874238434065 37 38 43
4.397346744747087 -1.6031752348529154 -15.974284941272861 44 45 50
4.42135022079666 -1.6136217860511244 -15.98307089432047 49 50 55
4.430533364707485 -1.6204737951710086 -16.017131194224348 46 47 52
4.457530938165136 -1.6316397455702492 -16.02073803129963 52 53 58
4.487745675626249 -1.6435732030871204 -16.01872088582892 66 67 72
4.500394480577923 -1.65126632842498 -16.046876822846514 65 66 70
4.5218210301837445 -1.66107349666197 -16.059902907897065 57 58 62
4.535870105385544 -1.669108492561742 -16.085695007928827 47 45 50
4.542470424649288 -1.675364941959685 -16.124492029336547 41 39 43
4.555296210137501 -1.683119151034641 -16.152541373296923 44 42 42
4.576843806677246 -1.692957002072972 -16.165375260658557 62 61 59
4.581499291679267 -1.6987740601167705 -16.20783635285078 75 73 72
4.59278914812406 -1.7061788524880839 -16.238753498114697 80 78 75
4.697700637747163 -1.7357639783953962 -16.10434642500805 85 84 80
4.617234898522411 -1.7551618835943068 -16.659943783599417 137 138 137
4.576720408721699 -1.7506393413947485 -16.78605952261366 146 147 147
4.653362597828954 -1.7733354371841825 -16.699512403309 158 157 157
4.67711937848624 -1.7837394477836304 -16.70890498865768 164 163 165
4.673013843097329 -1.7877077511508839 -16.769275957429535 169 169 171
4.677571983035005 -1.7936942560965345 -16.813978647969016 173 173 175
4.702565704732246 -1.8043901337656614 -16.82117423693142 180 180 180
4.95924257429438 -1.8975402028556294 -16.71560249602638 203 201 204
4.99944012747973 -1.9115649954193357 -16.693013911585812 205 205 207
-2.901420480194073 1.6245717411039524 -12.38221241352008 113 46 29
-2.867865977284416 1.6100254402524175 -12.394158458898545 115 48 32
-2.8168510185646207 1.5897638769362148 -12.392622204071813 117 50 34
-2.8368658591017013 1.5927716409806174 -12.44572611082849 114 47 31
-2.2303571058379426 1.3559718604219406 -12.38404225509252 119 45 31
-1.9974620738549298 1.262793287048516 -12.384252210437118 118 45 29
-1.9348973088238335 1.2390155781353127 -12.370988435175788 118 45 28
-1.8967554590996176 1.2231592307144479 -12.377357586422681 118 45 28
-1.843286519349804 1.202354492516052 -12.371163266589472 118 45 28
-1.7900387364582508 1.18163583783512 -12.364994232950274 120 47 30
-1.7389634501949613 1.1616333196840545 -12.360449365086966 121 48 31
-1.717078355714559 1.1510644100273226 -12.379730708478908 121 46 27
-1.740699836908477 1.1551717043781777 -12.436480295096974 122 47 28
-1.6614938900193703 1.126121810677658 -12.408508518923497 122 45 27
-1.616996341520692 1.1082758520256584 -12.409005603619907 122 45 26
-1.589897941226412 1.0960402730573358 -12.42383876988687 122 44 24
-1.6085730631136999 1.098528728664905 -12.476766483647864 121 43 21
-1.55794588489701 1.0787277353907228 -12.471984900212126 120 42 20
-1.4965438067766312 1.0554800765452943 -12.458030835969655 124 44 23
-1.4474090716293109 1.0361880021635295 -12.454184884435353 126 45 23
-1.3760575083427442 1.00978405732045 -12.431481080021834 126 46 23
-1.3382334003862795 0.9941482262984116 -12.436857703528524 125 45 22
-1.2896647717608003 0.9750796032962505 -12.433043553005325 124 44 21
-1.2734552974523972 0.9663798624274686 -12.456586377909524 125 45 22
-1.2671728649427534 0.9608532140200512 -12.488605001570404 125 45 22
-1.1628130309665936 0.9239776719853356 -12.436876876400266 125 44 22
-1.1570374982533256 0.9186230685310115 -12.469221850287328 126 44 23
-1.1167265672136342 0.902241387777893 -12.471954158036255 125 43 22
-1.056542190728032 0.8795318649149215 -12.457457699861816 124 42 21
-1.0522189008183807 0.8746414503512137 -12.491042695554441 124 42 21
-1.0069629616456348 0.8567100675164854 -12.489224328922159 124 42 21
-0.9680730577674383 0.840816206945816 -12.492812925742925 125 43 22
-0.9419944883162419 0.8290048412025719 -12.507473152582799 126 44 22
-0.8890661219182068 0.8086655881779561 -12.498630629030803 126 44 20
-0.82682347822242 0.7853846857234332 -12.481457489415778 126 44 20
-0.7824219432796875 0.7677840956692736 -12.47975569334561 127 45 21
-0.7445969935940084 0.7522801898369151 -12.483727097900811 129 47 23
-0.7598397840433275 0.7535964429239155 -12.534522026171196 128 46 22
-0.7179726440386727 0.736817849363316 -12.534857696077445 127 45 21
-0.6899598563531049 0.7244323056053386 -12.547398162199295 129 47 24
-0.6619096005311746 0.7120390253056144 -12.559861591616535 127 45 23
-0.581820327207148 0.6832135109881687 -12.525751892608337 132 50 28
-0.5444808705109683 0.6679091537423845 -12.529666458908789 130 48 26
-0.5141626316877375 0.6548277196588164 -12.539802617113622 130 48 26
-0.4815646440834733 0.6410331775415796 -12.547826628285875 126 44 22
-0.4463814123276517 0.6264309905556884 -12.553444593129527 122 40 18
-0.41088576266552845 0.6117381961451012 -12.558697490882837 126 44 21
-0.3528770881211125 0.5899749572557811 -12.54339361458985 129 47 23
-0.35852571379230547 0.5882296149733373 -12.585942816568306 131 49 25
-0.32364684222657214 0.5737496493921159 -12.591555721121075 127 45 21
-0.29025479539624044 0.5597437334023481 -12.598450850094798 131 49 25
-0.2581074073586169 0.5461349062312344 -12.606416707182271 125 43 19
-0.22710242675041847 0.5328902587042077 -12.615368384182286 129 47 23
-0.1937198623890648 0.5189073950488425 -12.622058892198421 134 51 28
-0.162935820646803 0.5057441411872452 -12.631084756382835 135 50 28
-0.1147401916294779 0.48714628007794847 -12.623854177233113 133 50 27
-0.0918614929604642 0.4764670630105474 -12.640084820841427 132 51 28
-0.06833711607686777 0.4655883499338638 -12.655690981845144 131 51 26
-0.042912472538301216 0.4541195543366576 -12.669490648783736 141 60 36
0.0063813513764854335 0.43521951453528307 -12.660803415778593 135 54 32
0.05628854033413422 0.4161437243427828 -12.651376740334383 138 58 35
0.13662408747432586 0.3876212196936055 -12.613001083884644 151 74 51
0.16859446862158833 0.3741573982103428 -12.620178576940074 139 66 46
0.18672604606667598 0.3649966679625103 -12.640450553551421 141 72 55
0.20467422828888093 0.35589250506823245 -12.660900930344678 144 75 61
0.2457466278781748 0.33962034679951913 -12.659233491631849 161 96 83
0.28143483263753843 0.32502701359284014 -12.662611332732869 167 102 88
0.2604336644854284 0.3279849339399863 -12.720436543517746 163 95 78
0.2992949076037714 0.31241331901379077 -12.720723239010365 147 76 56
0.3257072003776038 0.3006979683583122 -12.732945079560723 150 71 49
0.3507450611037388 0.2894108121829382 -12.74645868163812 148 70 47
0.3756588139023238 0.27816517159862375 -12.76005863987102 143 71 46
0.4234858108749977 0.25629944343466904 -12.789114206309415 139 72 55
0.4631760478474858 0.24051685297411773 -12.78811932072508 134 72 59
0.5037771043437331 0.22446518462134124 -12.786112417342544 135 65 49
0.5386868483833336 0.21017292543094923 -12.789599828505397 146 67 45
0.5383891343505312 0.20669332590714484 -12.827834139311872 124 45 17
0.5499842450320331 0.19955735815052655 -12.85437295302145 97 22 3
0.5436155409093919 0.19792084183045433 -12.898826152690072 80 15 2
0.5658384373882361 0.18751972146567097 -12.914889209632975 61 10 4
0.5925754207883527 0.17573996727497088 -12.926415422213713 47 8 2
0.6080795543003035 0.16739672297876362 -12.949168230874289 42 12 4
0.6464630094830888 0.09306500229113279 -13.575783332642589 11 8 7
0.6358836420074283 0.08488007334930492 -13.707704932328568 5 4 3
0.7124521359885909 0.05811226674798764 -13.666695841522678 6 3 5
0.7926893765202632 0.03027784762187391 -13.62142739487404 68 34 26
0.852227871377031 0.008672193819879048 -13.597947754775507 136 64 35
0.9009351995152706 -0.009672274858652408 -13.58585036129147 147 75 53
0.9020123943368841 -0.013773224652699145 -13.624843071650847 141 86 74
0.9365973916255781 -0.02788321450789244 -13.627774081829028 161 106 93
0.9561313009129329 -0.03749724761252171 -13.646902491567577 164 102 77
0.9696714296733173 -0.045325779989894954 -13.67253344769161 162 117 87
1.048038217647452 -0.0724462733907254 -13.6276290153107 117 75 54
1.0686985413110017 -0.08237884512225158 -13.645354659250025 136 75 58
1.085330212478568 -0.09111397774466967 -13.667479233650138 120 54 26
1.0824220650102028 -0.09405333406813154 -13.711067655523129 116 38 10
1.0673066632327721 -0.09338723699166174 -13.76822879691318 114 38 17
1.129993685403421 -0.11577799594062466 -13.739709771091938 138 70 52
1.1608519728307192 -0.12872808371473043 -13.746155315455809 167 102 89
1.1910852517798531 -0.1414864356714145 -13.75321994757346 156 98 79
1.229518439893174 -0.15665884393094665 -13.751084431185975 132 90 73
1.26087241308187 -0.16973186459572176 -13.756729491166602 127 71 51
1.2957753230248494 -0.18384306900931735 -13.75832232619185 125 65 35
1.330954142955731 -0.19802591561155314 -13.7595037505744 125 46 12
1.35589288153008 -0.2091880633074834 -13.772110451342819 133 59 33
1.3802692958554923 -0.22018132877747876 -13.785312650082025 170 110 84
1.4192695294656712 -0.235462363835504 -13.781921386199475 151 108 85
1.462338492014024 -0.25192391501295885 -13.773781074588744 121 66 40
1.5418721253129375 -0.2790489339039164 -13.723965812521183 131 73 45
1.5959364627986803 -0.29868658117708113 -13.702841364924526 154 77 31
1.6291658734950634 -0.3122141228110431 -13.705345174519472 145 55 19
1.6679868034080858 -0.32736504115261766 -13.701333495841006 135 50 29
1.7146077718680308 -0.34477824603804885 -13.68820857573925 108 40 27
1.7857860604656315 -0.3693282342621784 -13.646543763745303 84 18 8
1.8082653058594742 -0.3796739154761477 -13.660928363404967 158 80 35
1.8421486066277497 -0.39333225762774493 -13.662042934699294 175 97 41
1.8656867558142052 -0.4039768168127309 -13.675102793003028 178 103 62
1.890372778160729 -0.4149511223228117 -13.686787765425805 148 72 46
1.9225852252349176 -0.4281024554451758 -13.689616477359909 142 69 29
1.9597052173798346 -0.4426657023715097 -13.68658979286617 165 98 49
1.9920948554205768 -0.4558493853248944 -13.689009172203882 136 63 29
2.0220965289210504 -0.46833447025504515 -13.694154760578629 123 47 22
2.0496298642491197 -0.4800999735782705 -13.702145192913928 122 47 20
2.082923477566747 -0.49351979901428544 -13.70323171853909 124 53 27
2.119128044842774 -0.5077681508723584 -13.700749838368484 112 40 19
2.145648704284871 -0.5192201566349888 -13.70971322454579 126 47 27
2.168117602935184 -0.5295029056687028 -13.723473172085246 128 47 24
2.196096038623521 -0.5413638309972932 -13.730585810177402 133 50 27
2.227183771149498 -0.5541096672564003 -13.733886174439839 143 59 31
2.238867814555176 -0.5612917556574659 -13.760537047607151 139 53 24
2.2627601517184255 -0.5719693586474961 -13.772442736736274 135 46 18
2.2767607766737328 -0.57981750985366 -13.796325096400427 147 56 24
2.3555864996750246 -0.6061655742388805 -13.741263574612752 157 64 30
2.38697681177518 -0.6189543552707228 -13.743734290394524 149 54 22
2.4115458729168564 -0.6297924677226303 -13.754469343931248 158 61 28
2.4465685626223976 -0.6435989332304646 -13.752315429218665 148 53 19
2.4839617673894034 -0.6580675554797515 -13.747122291931213 143 51 17
2.510428511594207 -0.6694234542519781 -13.755293718886048 149 60 25
2.5196496243655107 -0.6758866210011121 -13.784773466524332 155 65 31
2.512640703123905 -0.6777615749913046 -13.834480774852615 150 60 26
2.513666047799239 -0.6819244796390558 -13.874352080799197 151 59 26
2.5823851787187255 -0.7052145588968144 -13.82975237859746 142 51 19
2.5847304833175704 -0.709749740370704 -13.86796932286061 150 59 28
2.622883305261908 -0.7243830416807173 -13.861297566783321 158 69 37
2.6350871386074477 -0.7317010986004364 -13.887184013846223 143 54 22
2.700875952133077 -0.7540830073671991 -13.845388829070934 155 65 33
2.7422356974830313 -0.7695750674240511 -13.834212047077425 158 68 36
2.7854948667706996 -0.7855837456723198 -13.820451829248096 148 58 27
2.8158664147103094 -0.7979661519278634 -13.822934597312809 165 79 40
2.8521696907219125 -0.8119990271799458 -13.817743885019478 154 67 26
2.8867351103899193 -0.8255337365221802 -13.814646018081046 146 56 20
2.920815502080571 -0.8389215580395553 -13.812048831941702 140 51 22
2.935190084959796 -0.8468067560145391 -13.834735532802185 143 53 27
2.9459117664582735 -0.8536775259943175 -13.862168685548056 145 57 29
2.9405303544214014 -0.8560768187317702 -13.910530180488443 145 58 30
2.9766680306770255 -0.8700189868182822 -13.905079521320951 143 56 29
2.9898889295321576 -0.8775939381735238 -13.929372978326473 139 51 24
3.0223937028574817 -0.8905123061589442 -13.928484206625045 147 59 31
3.102660868748977 -0.9166304726987258 -13.864854223007933 152 62 34
3.1265154754331768 -0.9271217973135288 -13.874941142588618 148 60 32
3.155325083341494 -0.9389756517118684 -13.878446303001102 151 65 33
3.1815794834247484 -0.9501175158723776 -13.88524614451227 157 72 40
3.2054775138310347 -0.9606047847570778 -13.895105429856155 133 49 19
3.2489147341310316 -0.9764571411990279 -13.878927678903947 129 42 17
3.444633960056602 -1.0495785437751919 -13.824031218578064 133 57 34
3.490303709178443 -1.0737481103574724 -13.88673192820508 129 56 32
3.5083830865276235 -1.0825832577906993 -13.903766586170553 127 48 25
3.5361051830991324 -1.0940328570510656 -13.907598483793215 131 57 28
3.5414230408155145 -1.099407170127434 -13.9420979103758 152 91 52
3.543645643823049 -1.1039532025588001 -13.98095160349391 138 82 37
3.4867827433614824 -1.0925524391331163 -14.101482439747393 140 74 33
3.511127460226259 -1.1031094518323097 -14.110184371741425 150 78 39
3.5309031149784325 -1.112430688531077 -14.125174579830459 144 70 35
3.5540696450243585 -1.1226621841702995 -14.13542515994185 133 57 26
3.583689083177771 -1.134622527747304 -14.136620064320102 125 51 19
3.6094380920178644 -1.1455355799645424 -14.143136722954456 124 54 26
3.630904231061301 -1.1552952240228447 -14.155600503655325 101 35 14
3.6490797380937536 -1.1641716814718224 -14.172665524505831 87 24 8
3.664468921514197 -1.1723033825903333 -14.193659308557368 77 20 11
3.6601639904482957 -1.1751844011101151 -14.242564031985669 65 8 3
3.6677803805585203 -1.1812567542476333 -14.274711394141669 67 10 3
3.6767834897763283 -1.1877053996832703 -14.304963340942376 73 12 5
3.6851963410417694 -1.194003813214473 -14.336127650303665 74 11 3
3.692081043511652 -1.1999040333028566 -14.369555740024264 71 12 2
3.7006129929759792 -1.2062485909919756 -14.400704160094651 64 8 1
3.7118925958253763 -1.2133265150330814 -14.427967146356899 52 6 1
3.7196018518171208 -1.2194668014919146 -14.460441601872624 49 7 4
3.7244270213429287 -1.2248545661156651 -14.497177792733606 47 6 4
3.73290181416359 -1.2312128758352237 -14.528715228348782 50 6 4
3.7390364468787904 -1.23696335728272 -14.563740096580396 63 10 7
3.731314016385676 -1.239086782981125 -14.619119600545362 77 16 6
3.7344394423117926 -1.2440724998448045 -14.658807872681669 91 23 6
3.761574414026394 -1.2553507779342679 -14.6633147543772 98 26 5
3.7691145471571215 -1.2615032040504104 -14.696636933728367 98 35 9
3.776918888655805 -1.2677326367032455 -14.729654426118376 99 47 17
3.7817825923964152 -1.2732042586520196 -14.767117796344031 97 53 20
3.795568590425039 -1.2810059767943267 -14.791418958022795 105 64 31
3.802947030756048 -1.2871475234850804 -14.825312717916383 104 64 37
3.803050174526751 -1.2914118406235129 -14.870180693007214 81 46 25
3.8038320649360555 -1.2958661807035514 -14.914183003052127 67 31 19
3.8036366402043376 -1.3000819175845904 -14.959803705877615 78 41 33
3.8079747228521015 -1.3054818542460183 -14.998739262135757 50 12 5
3.8108341348188848 -1.3105120833473904 -15.040030973287845 54 14 5
3.801705846384765 -1.3124723703833356 -15.099651884599803 63 23 9
3.8037109916200578 -1.317313127932606 -15.14256105209627 75 31 15
3.8064630902354173 -1.3223585714660924 -15.184470474301996 90 43 25
3.8051461799668793 -1.3263755558849726 -15.232745666555065 103 54 31
3.8068615731777395 -1.3311833272078095 -15.27653577221232 110 59 25
3.817624881212999 -1.3383123080802204 -15.306535385292921 115 61 26
3.8333415617376003 -1.346708583739881 -15.328948335011379 102 43 19
3.8434716528418136 -1.3536867844673115 -15.360037054826957 82 22 5
3.8581411344554883 -1.3618236130755006 -15.384143936546314 64 13 3
3.8906788558074084 -1.3744899005790567 -15.380436906901949 60 12 5
3.9063890301619324 -1.3828880226520062 -15.402897124083392 65 15 7
3.921956264268812 -1.3912520375427009 -15.425602442629643 66 14 5
3.9290821042495017 -1.3974905957564365 -15.461600415464027 79 29 17
3.941077452053542 -1.4049637987895471 -15.490021246485025 86 41 30
3.9480037952574234 -1.4111690665648564 -15.526513354632717 51 15 9
3.9379498671392152 -1.4131264843650042 -15.590037606142715 34 9 8
3.9380875362303795 -1.4176594699643004 -15.637613327267562 21 7 4
3.959659672946896 -1.4275638390191296 -15.651164267900805 15 3 3
3.9634210195876127 -1.4330228748193996 -15.693178762283065 14 2 2
4.029124607039879 -1.4539166795549907 -15.635935384934665 14 2 2
4.044918540173133 -1.462364196419259 -15.658564436272762 14 3 4
4.097083701757702 -1.4798368922590095 -15.622509621933546 15 6 6
4.076537984479252 -1.4792731924069693 -15.70383667949335 13 4 6
4.104386261574978 -1.490706548936038 -15.706959758332777 8 2 4
4.133947033564479 -1.5025536553180703 -15.707200893996223 9 3 5
4.16780458609874 -1.5154486122015078 -15.70031428970356 9 5 6
4.1663902353572135 -1.519658290684499 -15.751050870603379 8 5 6
4.139843497315905 -1.5177188034952962 -15.843264252273384 7 5 8
4.219891908773452 -1.541927252423086 -15.76027410915579 8 6 9
4.117119473345629 -1.5213865312994597 -15.978805659015052 8 6 9
4.197859922593349 -1.5457341106142803 -15.89435265659605 7 5 8
4.191902303420865 -1.548909718941033 -15.953410922111434 7 5 8
4.1743773243189874 -1.549295961937434 -16.031992999226066 30 28 31
4.224294369538879 -1.5660774289023514 -15.998148354624906 41 39 42
4.286203751408316 -1.585733141165774 -15.943875622438146 35 33 37
4.318453276264368 -1.5981798991168414 -15.939060987019047 34 33 38
4.341359441994097 -1.6083597196015427 -15.94986905123111 33 34 38
4.353554875089043 -1.6159566027892742 -15.978753593136368 36 37 42
4.400388434396722 -1.6318810433953348 -15.9489077901248 46 47 52
4.4247868257025464 -1.6423986440699478 -15.956962880287815 39 40 45
4.426058677376108 -1.6473759512483859 -16.00443920536015 37 38 43
4.45276229610563 -1.6584429878492757 -16.008534930752948 42 42 49
4.487428311963387 -1.6713994677842077 -15.99886613614068 46 46 54
4.513467430785131 -1.6822879110771412 -16.003888414557064 55 55 61
4.538515981154903 -1.6929334340680322 -16.010539543115883 62 62 66
4.545049349790844 -1.6991860879109861 -16.049205186148345 75 74 76
4.5596624386357965 -1.707359955233158 -16.073945246883422 73 71 71
4.577185384801209 -1.7162236036638732 -16.093647460091866 60 58 62
4.599721943741716 -1.7262680155358237 -16.104587644146672 48 47 49
4.602179756305353 -1.731591004280256 -16.15069652069496 61 60 59
4.611283574409928 -1.7384874035893882 -16.185277640119637 76 75 73
4.61725881546822 -1.744660818743843 -16.225473365423852 81 81 77
4.672605435354395 -1.762371045426024 -16.178421499988133 88 84 81
4.573710542676546 -1.7784493495432643 -16.76953364032262 140 140 140
4.593383833231715 -1.787931556918597 -16.78666911637287 151 149 150
4.671586826611785 -1.8107765827738724 -16.697035997734982 161 159 161
4.6978976428963755 -1.8217378766432373 -16.70167760662337 166 166 168
4.693659080568351 -1.8257473926828363 -16.762290017016454 172 172 174
4.695968556183309 -1.8312654416144936 -16.81110172322475 177 177 177
4.832978375906608 -1.8872285209207558 -16.823412154775465 194 195 198
4.892782138396033 -1.9056361743485999 -16.76482795163688 197 197 199
4.956718588563628 -1.924920788434564 -16.697997755210206 202 200 203
5.004638120976102 -1.9405923377120922 -16.660849886870977 203 203 205
5.060904219043876 -1.9580839926955274 -16.607568163163975 205 205 207
-2.897271771380865 1.5863832914067384 -12.405207523407825 113 46 30
-2.811072484757478 1.5547182277757905 -12.376698151652434 113 46 30
-2.7398367500398244 1.5279509206593178 -12.359428493079953 114 47 31
-2.0357523502966037 1.2464902779446265 -12.36616298629838 117 44 29
-1.9920810190940674 1.2288706557380997 -12.36828003461262 117 44 28
-1.9437971819348299 1.2097769895804293 -12.366557706248553 119 46 29
-1.926240712206594 1.2005774614903206 -12.389630831129283 119 46 29
-1.882969599451208 1.183112810931755 -12.39179673793311 118 45 28
-1.8419109776193707 1.166368961097065 -12.395659974968662 117 44 27
-1.789738687493851 1.146067702058326 -12.390332782574495 117 43 26
-1.7313334450731857 1.1237817653400306 -12.37974155007519 119 44 25
-1.7509409878605773 1.1265149518909408 -12.433161290723675 121 46 27
-1.671516001280736 1.0975140487660973 -12.405048049478625 121 45 27
-1.6381472084516737 1.0832795291695 -12.414767713828123 121 44 25
-1.609070601897475 1.0704237520930628 -12.427985937958876 122 44 24
-1.5783057814071784 1.0570325704745687 -12.439755789312558 120 42 21
-1.5648178655701281 1.0491639159417199 -12.465893520336081 120 42 20
-1.5147062668105002 1.029604375047267 -12.461408236085855 125 46 24
-1.4682240120920609 1.0112159793570608 -12.45982534467434 126 46 24
-1.4218978617033597 0.9928894412209672 -12.458246691495294 130 50 27
-1.4019904869709139 0.982988202613547 -12.478842312804193 127 47 24
-1.304439813279715 0.948378794163603 -12.433709154432636 125 45 22
-1.275578443828235 0.9356481019742415 -12.446515332857143 125 45 22
-1.1840363117132613 0.8994604219849007 -12.443120569326858 126 45 22
-1.1497839412936415 0.8850396292342253 -12.451095655178541 126 44 23
-1.1321965460529597 0.8759096905961723 -12.47330850409864 124 42 21
-1.080292699833553 0.8559058452040254 -12.465982497700786 122 40 19
-1.0621769464409025 0.8466147508265389 -12.487674749461728 122 40 19
-1.0256385549854174 0.8314944574978775 -12.493420873699966 129 47 26
-0.9957113830938935 0.8184722149438541 -12.504824783140737 126 44 23
-0.9524865332675958 0.8012539686974307 -12.504596977896083 126 44 22
-0.9048084581418783 0.7826410908617154 -12.500362995774893 127 45 21
-0.856173252975637 0.7637395809582679 -12.495151243817013 127 45 21
-0.8307441200945691 0.7521665126903254 -12.510176271459702 126 44 20
-0.7658181325597022 0.7281560727274292 -12.490383588837215 127 45 21
-0.7628361031498114 0.7236628782635319 -12.525076857857826 125 43 19
-0.7296949492493079 0.7096770922436557 -12.533137993374623 130 48 24
-0.7016753672709655 0.6973073562385599 -12.545679391971028 126 44 21
-0.6727961476444806 0.6846718348442788 -12.557411429251925 129 47 25
-0.6054106780874173 0.6599586168202674 -12.534697708783305 129 48 25
-0.5734848155536758 0.6463863100461757 -12.543506840694944 129 47 25
-0.5359651546659858 0.6310676166389508 -12.547226575322394 126 44 22
-0.49873752289185624 0.6158491822568779 -12.551116580428364 125 43 21
-0.4635232887747902 0.6012692885024826 -12.556733875812593 128 46 24
-0.41966745344046963 0.5839961132232385 -12.554440169543717 129 47 24
-0.38795077251540544 0.5705262946682299 -12.563049179755618 130 48 24
-0.3705068736870114 0.5615168428297668 -12.584597801296008 132 50 26
-0.3483283128874959 0.5510301462298681 -12.601829041311815 131 49 25
-0.3091999524921478 0.535263605261644 -12.603513998454826 131 49 25
-0.27905496247729467 0.5223038116862035 -12.613349866043912 126 44 20
-0.24837984115119038 0.5091845543278721 -12.622639942995985 125 43 19
-0.2144528992734056 0.4950602196020579 -12.62886491395351 131 48 25
-0.18568650734675085 0.4825461233348829 -12.639794423232633 126 41 20
-0.1317043810762577 0.46221116316704025 -12.627241131253493 129 46 24
-0.10632776146503797 0.4507642251131132 -12.64116161304819 131 50 28
-0.08356567858826125 0.4401306009371455 -12.65749180846521 134 54 29
-0.03419202087647477 0.42125994380471354 -12.648863272206087 136 56 32
0.01609871161838594 0.4021208825049458 -12.6392123148343 139 59 36
0.04390312623209969 0.38994806697275486 -12.65058703607665 137 57 34
0.13352927405742943 0.35868653843679765 -12.603487726099274 141 65 43
0.15608633136197536 0.34815770960718284 -12.619576166467189 143 72 54
0.17276451389019876 0.3394434664590211 -12.64123181437169 160 94 77
0.18899122629718956 0.3308672434696527 -12.663328980255642 140 74 59
0.21404086122497112 0.3195737985740712 -12.67700712690648 168 104 89
0.2113850401098052 0.31680490420774365 -12.717206222296314 168 103 86
0.2648776103422872 0.2967699205580976 -12.703553270115044 165 96 76
0.2935921642190298 0.2843610098742493 -12.713595343417936 152 80 58
0.3202690364024372 0.27258239669296835 -12.725552974268957 155 75 52
0.3361728220209512 0.2641102453518709 -12.747909780857459 146 67 45
0.3644946123608914 0.25183326954255847 -12.75821139710364 148 76 52
0.3906245411168259 0.24023203333436438 -12.770597126502397 146 77 55
0.4024364232469999 0.233012494586742 -12.796938144422954 163 98 81
0.4507560267800601 0.214636443972118 -12.787530396904355 138 80 65
0.48076819423908557 0.20186394349965187 -12.79595580516345 144 78 56
0.5106830213416771 0.18912709389730198 -12.804414529422758 134 55 30
0.5206503715487294 0.1824742693878647 -12.83252983373692 128 47 19
0.5307648058630594 0.1757720701205665 -12.860547597681691 101 26 6
0.539513832960548 0.16948065562270442 -12.889970370736478 80 15 2
0.5488232994696514 0.16301363627018683 -12.918889912219974 56 8 1
0.5738276803134399 0.15177598402695414 -12.932171718894743 45 8 3
0.6485170417577564 0.05074514622854531 -13.68027272921026 4 2 3
0.7194407928344795 0.02579258497567327 -13.64525323001197 7 2 3
0.7911217313003602 0.0006443792216046518 -13.609116910059091 98 47 32
0.8442141688994287 -0.018952830940982768 -13.592542778144008 136 53 25
0.8883554663798892 -0.0358745098409079 -13.585362459013457 143 69 52
0.8798593774639984 -0.03717805215190628 -13.634634340963238 144 87 75
0.9707829027488417 -0.07559158130845622 -13.65720389782729 160 117 87
0.9861454971744656 -0.08396985231059118 -13.680841502615142 102 51 33
1.0210705227022396 -0.09812090787148398 -13.683166872720946 152 87 69
1.064399012927086 -0.1147390983917349 -13.676203862910931 121 54 26
0.9862948717094637 -0.09559252656859796 -13.802264634130239 113 35 9
1.0548861224583677 -0.11964776142913092 -13.767591409475887 122 52 29
1.0934910444846082 -0.13486327495333006 -13.765682347989696 126 65 44
1.1477945244640537 -0.1546750396728287 -13.746289123599096 158 95 80
1.1870436064566032 -0.1700514841411791 -13.743372100894863 159 108 85
1.213615509880988 -0.18170228642427055 -13.75442723231308 113 71 51
1.2527586655310259 -0.19702720732521017 -13.75141280772291 134 73 59
1.2898706227515602 -0.21174618626326724 -13.750542542860046 124 61 36
1.3018572897597736 -0.21911675205311543 -13.777737445747062 128 46 16
1.3334716336745966 -0.23221741276942076 -13.782898569841272 143 70 46
1.4349324916617192 -0.26566579895055753 -13.70919689927095 157 102 76
1.4774048763325167 -0.2818909075541365 -13.701691727239396 140 95 72
1.5197121545489116 -0.2980535344229396 -13.694221941851264 139 81 54
1.560876578984593 -0.31386970914502 -13.687900614340155 138 81 49
1.5477833333229523 -0.31392556240539937 -13.74332452125675 151 75 30
1.642745081453155 -0.3453271554138695 -13.675349347601273 145 55 22
1.6702915564021152 -0.35715807761728025 -13.684214183285063 129 43 25
1.7104246905335412 -0.37262468949492034 -13.678541396060837 102 33 21
1.759488681869808 -0.39065883226899745 -13.662425642412781 90 18 6
1.777193963064958 -0.3996213725041313 -13.682386922153269 169 87 35
1.8067885295481139 -0.4120128206785627 -13.688559936477457 168 90 40
1.8356939544905675 -0.42419875791434514 -13.695461173909848 187 116 91
1.85495310321566 -0.4336024161857459 -13.713546658379661 122 45 25
1.8906010842149152 -0.447716180617618 -13.71245254067636 158 83 29
1.9396508103999208 -0.46566696168041144 -13.695521158160208 176 105 51
1.9910711439970434 -0.48427827149774183 -13.675597307750188 153 78 43
1.9910573806986536 -0.4881333463322428 -13.716136774750229 129 53 21
2.018089295716485 -0.4997396674022232 -13.724798182749398 149 76 32
2.066964537285447 -0.5175843934960211 -13.707483905739826 154 87 43
2.1153066748937563 -0.5352573545435282 -13.690598694924004 132 61 32
2.1442655439997287 -0.5473826110249382 -13.69663889282618 130 52 33
2.181645382326291 -0.5619000097268643 -13.692529905439866 118 38 16
2.1991774007856284 -0.5707568465844897 -13.712106865216683 123 43 19
2.2280502715447534 -0.5828376813766052 -13.718040774635309 131 54 23
2.249610535589553 -0.5928352794352727 -13.73272559413888 132 50 21
2.2626185343270437 -0.6004051567258963 -13.757735888461383 131 44 19
2.294513267500893 -0.613328505369287 -13.7598607411155 140 53 24
2.3459569039636152 -0.6317742045785388 -13.73810022981897 143 54 23
2.3762028925673047 -0.6442070716574311 -13.741979881339862 139 48 19
2.3976417076772814 -0.6541456646687256 -13.75655374858793 143 50 24
2.433335284454989 -0.66810132664498 -13.753608444859903 147 55 26
2.4776397458052886 -0.6844704007516611 -13.739941902094937 147 55 23
2.4973089800731625 -0.693892012585531 -13.756498386876697 146 56 23
2.516325242581514 -0.7031289802023999 -13.773850727482333 139 50 19
2.5300000481695797 -0.7108661850695333 -13.797825380957317 143 54 22
2.5285621674250374 -0.7143700759920442 -13.840641612132234 149 59 26
2.5662193974233887 -0.7288323160403536 -13.834791630855008 146 56 23
2.5353607648326912 -0.7241221027809817 -13.914572818882746 162 71 38
2.6194998293420424 -0.7515629323995869 -13.85033377768303 161 72 38
2.639477621349898 -0.7610608439357356 -13.866399171582776 159 70 37
2.6685148255155813 -0.7730814151216181 -13.871011993337824 161 72 42
2.7427465372263002 -0.7976708523069049 -13.818324890552185 144 53 23
2.784054271827909 -0.8130710981072953 -13.807035713159667 146 53 24
2.807666742692412 -0.8235431747449156 -13.818107899005636 150 60 25
2.846553527552908 -0.8382459430849871 -13.809634038952208 151 62 24
2.872505347917861 -0.8493524026650827 -13.817570116903791 150 61 24
2.901023475668894 -0.8611628649294178 -13.822150608525089 160 74 41
2.9316150026000747 -0.8735384851717551 -13.823981925115636 145 55 26
2.925433929497558 -0.8757610334231758 -13.873208416667255 157 67 36
2.9490406305538137 -0.8862070494290735 -13.88403110719391 162 74 41
2.97757986819693 -0.8980061404400923 -13.888403777343642 151 64 34
3.0008687173594293 -0.9083547365791773 -13.899534703607223 143 55 27
3.0337098512721674 -0.9213210273458239 -13.898146753234647 146 56 28
3.089838459994141 -0.9406596907276736 -13.866141489537036 146 56 27
3.1088168676590353 -0.9498012779495277 -13.88265079289297 154 63 33
3.1564612386104525 -0.9667788521484006 -13.861385782494304 149 61 27
3.1762429994419614 -0.9761275086937178 -13.8767048837698 140 51 21
3.1903659149896324 -0.9839315064914744 -13.899504141106576 141 52 25
3.3326541652967956 -1.0344955799887652 -13.834538782454917 130 43 17
3.3735244265041615 -1.0495277921095432 -13.82121714863189 127 39 17
3.515206064437372 -1.111503522695574 -13.878625287253348 135 56 34
3.5735979684981887 -1.1351200100880703 -13.882061921768315 145 78 43
3.5883386165444415 -1.143042138938345 -13.903514463805756 160 105 63
3.5824208667898327 -1.1454392487611533 -13.95347115586479 141 86 46
3.5219165106028676 -1.1332703636880308 -14.079092265050615 139 80 38
3.524959089250137 -1.1381134275110245 -14.11720588984937 146 82 42
3.5507866940137394 -1.149037400346557 -14.123745931823798 150 82 45
3.58753361586437 -1.162859802094968 -14.114989632270973 151 79 45
3.6046919253173595 -1.171463858553425 -14.133477341521528 139 66 35
3.6274720394971647 -1.1815593305161234 -14.144080925809082 127 57 29
3.6467047906900465 -1.1907110327515893 -14.159631199379014 112 42 17
3.6673048217352058 -1.2002229334262566 -14.17323741794255 91 24 5
3.666815777801527 -1.2041625327766179 -14.21665504989525 77 18 8
3.674102127577239 -1.2101664857607528 -14.249185228031312 64 10 2
3.681045125124367 -1.216087868390196 -14.282286376426196 65 11 0
3.686309586508033 -1.2215760442519257 -14.317868535364806 69 11 1
3.694301462189009 -1.2277898129096592 -14.34964707273257 72 11 2
3.709315784453908 -1.2358519935770504 -14.371424079464267 71 12 2
3.7219384792471386 -1.243290048715291 -14.396663857999688 71 12 3
3.72671890145101 -1.2486821840662652 -14.433264766133833 73 13 4
3.7360551636871575 -1.255273330862275 -14.463375533270213 78 15 4
3.7429237579941805 -1.261227943115626 -14.497137240364275 84 19 4
3.7443051152650195 -1.2657633831099078 -14.538978093662875 90 28 8
3.755450536036575 -1.2728482241122276 -14.566695948604163 92 37 12
3.7621222484732177 -1.27877783556731 -14.6010197090086 93 44 14
3.775101875597687 -1.2863497964474953 -14.626170709497242 100 53 22
3.776240985449575 -1.2908638929811955 -14.668802022416525 103 64 36
3.7812309157804096 -1.296385469726322 -14.705884717791061 101 66 44
3.7862324948766117 -1.3019203245774345 -14.743058057867925 87 51 32
3.7951597149965295 -1.3084757484423057 -14.774506859915522 74 40 24
3.802594169638626 -1.3146547786246392 -14.808255213489481 55 18 9
3.8025028136583954 -1.3189116638955443 -14.853339034023271 47 8 1
3.8053693007528437 -1.3239407625979125 -14.894143705970563 56 12 4
3.805943449354701 -1.3283960109551136 -14.938523241175789 90 44 25
3.8126645477246255 -1.3344347374415222 -14.973785970370699 84 33 15
3.81657793829885 -1.3397670872639156 -15.01339039501029 104 51 28
3.8135048322221037 -1.343333348550346 -15.063710256065132 106 52 28
3.8197185979362995 -1.3492762707188752 -15.100091772904792 100 46 25
3.81537550040603 -1.352551704110645 -15.152676678099484 100 45 24
3.80166196757472 -1.3534734720231973 -15.219791382724727 99 43 21
3.7947037739397107 -1.3561295429310012 -15.276825011919307 97 41 18
3.8068749054354676 -1.3636338081279586 -15.304651303367404 92 36 13
3.820170107958292 -1.371426217007806 -15.33079551087181 84 27 8
3.833396192362035 -1.3792052889386277 -15.357089150078131 77 24 11
3.8486100689302694 -1.3874875178747834 -15.38034108818232 64 18 10
3.8876372414352556 -1.4017401850356945 -15.36655277835014 57 12 7
3.9033342860919573 -1.4101378553712713 -15.38899334271483 58 17 12
3.916962586500203 -1.418020859702307 -15.41469379828521 71 29 23
3.931870134298224 -1.4262266122317104 -15.43842563629601 77 37 27
3.941009182747406 -1.4329994454168722 -15.471270252011756 65 26 22
3.9457252977261073 -1.4386812613923297 -15.511182405342922 37 8 5
3.9247687566694314 -1.4380081255210355 -15.591884470330589 22 5 4
3.9361722447096303 -1.4453803123055968 -15.621538877104394 16 5 2
3.9574102954704173 -1.4551886713005147 -15.635586012984387 15 2 2
3.9674418916101484 -1.462230045002856 -15.667512364251188 13 1 1
4.005973129833202 -1.4762957331796844 -15.653837685504694 13 1 1
4.027095048500348 -1.4860644819277433 -15.66795526422991 12 2 3
4.057488945610668 -1.4981050934606601 -15.667096399174081 11 3 2
4.050573366210332 -1.5009987943598588 -15.726446883533534 12 3 5
4.042156727017995 -1.5035482878677648 -15.788469643426872 8 2 4
4.093149984497436 -1.5206153949015497 -15.75411893562882 8 3 5
4.09291345761889 -1.5251780590593704 -15.803021722759535 9 5 6
4.117768143762934 -1.5358557601032874 -15.811050482386928 8 5 6
4.156946556725219 -1.5500019655471249 -15.795510798489818 7 5 8
4.179357606009933 -1.5600690235806653 -15.807361735509769 9 7 10
4.067242901374535 -1.5376230175486993 -16.041219149824915 9 7 10
4.09264525914643 -1.5484660938314043 -16.048690731817775 10 8 11
4.142527797594834 -1.5651955573056906 -16.015446392736713 12 10 13
4.177084896180482 -1.5782134053763737 -16.007413003400085 28 26 29
4.209762119356711 -1.5907651563763485 -16.002358499348897 35 33 36
4.244517057842386 -1.603800497293961 -15.993680203884164 35 34 38
4.279491313039334 -1.6168725395206134 -15.984468759154238 34 33 38
4.310140258978314 -1.6288976001243007 -15.982378394406314 33 34 38
4.349148914855877 -1.64289940682408 -15.966033371250088 33 34 39
4.392605455923555 -1.657937179724 -15.941938221064785 40 41 46
4.417267021286442 -1.6684974735902387 -15.949542929954351 37 38 43
4.419009054032793 -1.6736321076515532 -15.996165282467198 37 38 43
4.447844772026329 -1.6851756131593054 -15.996612345297896 37 38 43
4.486931265093027 -1.6991224607095867 -15.97936420134944 38 39 44
4.513780074649236 -1.7101730386046539 -15.982956682047824 43 44 48
4.535606335323097 -1.7200371536426564 -15.99512575488261 48 49 53
4.553729935341446 -1.7290310258909753 -16.013664038152314 53 51 56
4.576464517507423 -1.7391014786148613 -16.024195595575737 69 67 70
4.601430906756478 -1.7496872666310663 -16.030791346865673 81 79 81
4.61863764048634 -1.758461782630337 -16.050866226176414 58 58 59
4.621769880202131 -1.7639713946734292 -16.095603698625958 42 42 42
4.6313618544970225 -1.7709914233283408 -16.129147140414577 63 63 62
4.6415475917333 -1.7781570453384081 -16.161732636066155 76 76 73
4.652639129573461 -1.7855393401909594 -16.192799702969566 82 80 76
4.5568637656499025 -1.8030779289008594 -16.778099295530815 137 136 136
4.567528222628185 -1.8105244719988574 -16.81162973667519 148 145 146
4.7110224482852505 -1.8529100318361524 -16.655731589421038 162 162 164
4.7060860505501925 -1.8568172812928467 -16.71743601499114 169 169 171
4.712153136715764 -1.8632115468908736 -16.759171378258234 174 174 174
4.704106572644063 -1.8664679607709207 -16.82706749463789 178 178 179
4.844655231689676 -1.9179694728591223 -16.77923189273124 192 193 196
4.891993795042495 -1.9334906105541307 -16.743953752152148 197 197 199
4.935244006005977 -1.9480805875228546 -16.716020489698156 201 200 203
4.9895797339089745 -1.965076119820955 -16.66691917923168 202 202 204
5.035688495112603 -1.9802308972132048 -16.632944601539318 204 204 206
5.103022297552366 -1.99998969790763 -16.558421346079147 205 205 207
-2.0554169959122977 1.21701084665987 -12.407709060886454 117 44 28
-2.074305218523408 1.2194453335581747 -12.460410153558955 119 46 29
-1.9183490305083648 1.165981053865239 -12.371586462625384 118 45 28
-1.9010808859381063 1.1568719528119151 -12.394857285305157 118 44 27
-1.8889423415657633 1.1493987698414123 -12.422322158991712 118 43 27
-1.8028388898671066 1.1183319492786263 -12.38936342507014 117 42 26
-1.776222600573817 1.1062540355644968 -12.404861577155726 118 43 24
-1.756471566585038 1.0963655977092075 -12.425972597955251 119 43 24
-1.7099291449986085 1.0779504028323958 -12.424997073155215 122 45 25
-1.6193109737534082 1.0383414438264604 -12.46207082057764 119 41 20
-1.5869895773959195 1.02447650195064 -12.472567756156309 120 42 20
-1.4779324747691156 0.9862824793451448 -12.418837148150544 124 45 24
-1.4382168885947735 0.9701032993371921 -12.422832806147941 125 47 25
-1.3979368280778894 0.9537545262098321 -12.42625870005316 125 46 24
-1.4066596275664605 0.952921438835233 -12.47091456918019 126 47 25
-1.3297918009756957 0.9250110776456877 -12.443316199294497 124 44 21
-1.3312462477253018 0.9218748738868205 -12.481874807034195 124 44 21
-1.1945623780425372 0.8679385350843991 -12.4775084419812 126 44 23
-1.1643338846163251 0.8548143877564878 -12.488955370940408 126 44 23
-1.1198056671249192 0.8371935564105875 -12.488048906960529 124 42 21
-1.0989056838732303 0.8270172228856021 -12.507405427292085 124 42 21
-1.0626802790969476 0.8120241713370873 -12.513496448582124 125 43 22
-1.0530105374560943 0.8053801324829639 -12.542545961295318 126 44 23
-1.0303702140435256 0.7946604184970769 -12.560358680707136 126 44 23
-0.9753048567912126 0.7737728194811551 -12.549864152831994 126 44 22
-0.9315914659375331 0.7564596942992086 -12.549127274136968 127 45 23
-0.7646945509346361 0.7005832268723267 -12.440178737684331 126 44 20
-0.8890228623654011 0.7359047279131592 -12.586767253850024 128 46 22
-0.7657288692221211 0.6937330997830771 -12.515554470684268 124 42 18
-0.7384298927121318 0.6816031430700624 -12.52877466992248 128 46 22
-0.7127851811226877 0.6699934648577284 -12.543423150590922 127 45 21
-0.6836813399172055 0.6573077702325008 -12.554961461318726 138 62 41
-0.6191998355007966 0.6335994165276968 -12.534876666625383 132 57 36
-0.5824948597728392 0.6185643477841989 -12.539424140349414 124 43 20
-0.5577948581255843 0.6072739506637905 -12.554658221430898 127 45 22
-0.5163971821721898 0.5907936767240578 -12.554835545530835 128 46 23
-0.5319128182996273 0.5920089013112775 -12.606270651012789 128 46 23
-0.4630813679015482 0.5670186689527665 -12.581535246109766 130 48 24
-0.4027443498097991 0.5446881434902688 -12.564256931990819 131 49 25
-0.39094198721705364 0.537423237951971 -12.590947612267207 132 50 26
-0.37263856485911795 0.528141048225313 -12.611741451929053 127 45 21
-0.33558571112074986 0.5130555842150639 -12.615375980555582 128 47 23
-0.32468861742859545 0.5060676156363786 -12.642928988893438 128 47 23
-0.27352598559325614 0.4866336102585449 -12.633456475208483 131 47 23
-0.21866009146429288 0.46607225793329565 -12.620398821482414 134 50 26
-0.18642562936856777 0.45251056704638115 -12.628106806665231 131 47 23
-0.15204407893602312 0.43829368469235996 -12.63375253692407 132 50 27
-0.12842348090317302 0.427398846885066 -12.649336454887823 132 52 29
-0.1025583433440671 0.4158156122214829 -12.662800513950591 132 53 31
-0.04246513900846782 0.3937111815152621 -12.644181757704555 136 57 34
-0.012458283771280776 0.3808711558415514 -12.6535943690189 136 55 34
0.030502544568885348 0.3640601910298149 -12.650751563136799 137 56 36
0.1019080270572541 0.33853689348292004 -12.620923754119037 140 64 43
0.12112012754490031 0.3290360258423737 -12.640236448970384 145 78 58
0.09531047463169706 0.3333214650645737 -12.702296261709808 152 85 69
0.1217374626952541 0.32160201035858527 -12.714854967268774 153 84 68
0.13996159618284842 0.312394023403503 -12.735205872877046 171 108 91
0.16214906838679344 0.3019751657103189 -12.751765025583591 159 96 79
0.23681935428006717 0.27554155898402266 -12.717909154444728 160 92 72
0.2720529853730156 0.26116184962422073 -12.721727631300517 148 73 51
0.30294979018205836 0.24811196213002562 -12.729644897143153 156 74 49
0.3232963620794731 0.23827984309701922 -12.747712900024641 144 66 44
0.3513960911517433 0.22609059638029372 -12.758242991590576 139 68 45
0.38399474254300436 0.2125392001820794 -12.764340721057122 142 74 55
0.4019251703309008 0.20344844839789933 -12.784687130674484 162 98 82
0.42886697181817457 0.19162378488933118 -12.796212750184285 156 94 77
0.45854008364810817 0.17897570091111747 -12.805010671321348 137 70 49
0.48305641188180815 0.167894970348466 -12.818826576240761 125 49 24
0.4942848037383927 0.16083750020956034 -12.845733410072654 109 29 4
0.5113490270753704 0.1520120297808072 -12.866901875506214 100 25 4
0.5375965914460075 0.14041227020603397 -12.878958787398123 84 20 6
0.5283102059538933 0.13953847731959934 -12.926363705134342 58 10 3
0.5423334441035905 0.13162252069562097 -12.950644554428177 47 9 4
0.649384316119181 0.020197164363795483 -13.665355077272338 3 2 3
0.7178733104451398 -0.003916901999229339 -13.632938531675837 16 4 3
0.7877728228643157 -0.028418773311556844 -13.59872479742068 134 70 39
0.8336571854324326 -0.045812444175448164 -13.589862106946956 135 46 17
0.8793567721610884 -0.06313615025569197 -13.58103593004061 151 77 62
0.8776587495327828 -0.06650050044929712 -13.622968249215646 149 91 76
0.9104755555389383 -0.08002067100727839 -13.627841294070937 171 107 89
0.871441266995995 -0.07633611306402699 -13.750730457340495 147 108 78
0.9005016717640206 -0.08876188065643431 -13.759749969501325 117 63 41
0.9525209207813523 -0.10790242047932352 -13.743695046134444 131 66 49
1.0173754998832383 -0.13077695691623425 -13.713414948953131 126 56 29
0.97593949122375 -0.12257299916924813 -13.799306066674536 118 38 13
1.0346733577956888 -0.14363838968713116 -13.77551324143781 109 42 22
1.0760971937095603 -0.1596335269040683 -13.77054673694988 129 70 51
1.1190544557188984 -0.17606184505071543 -13.763746686379204 158 97 77
1.1738127324004912 -0.19590921401630457 -13.743721960379446 160 122 98
1.1979303821504255 -0.2068294974182221 -13.757518151877825 104 52 35
1.2413943605668774 -0.22336367987414807 -13.749725244528271 120 58 41
1.2733405374292426 -0.23654232700311084 -13.75464719906811 125 57 36
1.297415152690082 -0.24743229128064614 -13.768306319422074 129 50 21
1.34064222973611 -0.2638624393900111 -13.76041145236151 156 85 68
1.4305386378177225 -0.29377127520834234 -13.699775009750294 153 101 76
1.4754072603291162 -0.3106314180019649 -13.689567199630709 129 77 55
1.5160304561868587 -0.32625058252987094 -13.684003094046599 138 75 50
1.4806532287205876 -0.3199518498726537 -13.76465992141122 147 86 50
1.533841249747665 -0.3391847443706286 -13.744738904414607 154 76 32
1.55137429300538 -0.34814202384445236 -13.765340264692567 146 56 26
1.6566371623291456 -0.38230357103931745 -13.685414380706105 123 40 23
1.6984578036899496 -0.3982048305574124 -13.677835366908704 105 33 22
1.7608762606577093 -0.41999618050850707 -13.646367978956064 102 26 9
1.7654479161711816 -0.4251954578180115 -13.681465702771582 174 92 37
1.7954545564424311 -0.437678751915227 -13.68717623977851 161 87 41
1.831447853157929 -0.45186525220055795 -13.68585321553378 158 92 72
1.835688001490519 -0.45697797886790337 -13.721421003014004 116 40 16
1.873007364089168 -0.4715302520248792 -13.718420715282761 164 85 34
1.906391603018788 -0.4849498514118049 -13.719907410922968 178 105 65
1.9528476564108637 -0.5020782321357458 -13.705930970875876 167 90 64
1.951728372530214 -0.5056706432350073 -13.747841551709598 137 55 20
1.9931249708852459 -0.5213422398274266 -13.739629053991539 173 98 46
2.0290901452079346 -0.5354591921209613 -13.737700195299462 172 106 58
2.0981330766993507 -0.5589315435283357 -13.696335805874119 148 75 48
2.1252149313953552 -0.5705022557764525 -13.704647201018716 120 41 19
2.159458119134162 -0.5840904526268356 -13.7043381899167 139 63 27
2.1791487048902747 -0.5935613670182409 -13.72136474801374 134 57 22
2.2333284492634053 -0.6127529851350917 -13.696921381126732 126 50 18
2.2720211901375826 -0.6275606248043244 -13.690902476412507 130 49 26
2.304580099642873 -0.6406297422552159 -13.692158090384813 119 38 14
2.3267511991674485 -0.6507714045987321 -13.705907474392479 138 54 28
2.3440881239722193 -0.6595540018823582 -13.725505178704072 131 45 19
2.3729060598185203 -0.6715543957111476 -13.73111013196521 141 51 27
2.3979428649777956 -0.6824892463189469 -13.74126320837874 138 49 24
2.4314740881443893 -0.6957941697129295 -13.740952779579818 127 37 17
2.4605293001726096 -0.7078388259766846 -13.746037698132344 143 53 29
2.486230054926751 -0.718940466197677 -13.755181269818433 153 65 32
2.5043518497482493 -0.7279256353477801 -13.773641731571978 143 55 25
2.52891152797583 -0.7387018552336484 -13.784117789341586 140 50 22
2.5347033262420133 -0.7442581521190763 -13.817884645063833 149 58 28
2.5655164582447494 -0.756767361631657 -13.820534946324745 150 61 29
2.5510842305251735 -0.7567252468189634 -13.879674848364598 152 63 29
2.602360841189376 -0.7748980280632018 -13.856640006132503 147 58 23
2.6370625286066893 -0.7884645557980037 -13.854213351286756 157 66 33
2.6661944959520305 -0.8004812645166879 -13.85869131707885 158 66 32
2.765114540532222 -0.8317406463333381 -13.774823785582003 152 59 27
2.798800533333475 -0.844972314701198 -13.773114053621546 146 52 20
2.818550651601911 -0.8543584670798048 -13.789015007504736 150 57 23
2.8242955983909983 -0.859894533566008 -13.822765272282082 166 73 37
2.8204626748748387 -0.8628102394544768 -13.868853546348006 148 58 22
2.8834522311339867 -0.8840573263599338 -13.829379043173924 161 76 42
2.881503507632929 -0.8874955916654257 -13.87311352701902 151 62 28
2.8993860586759412 -0.8963695627393626 -13.891407337377286 150 60 26
