ply
format ascii 1.0
element vertex 702
property float x
property float y
property float z
property uchar diffuse_red
property uchar diffuse_green
property uchar diffuse_blue
end_header
-1.5845386541906237 2.5735508865861276 -12.42257753733406 125 49 30
-1.5527763557538288 2.5957198168023314 -12.427331746380478 127 49 29
-1.5000370619841914 2.632276268922562 -12.447785825349719 129 48 27
-1.4215548484861968 2.6881838152937867 -12.403589942421412 127 46 25
-1.3855110655498661 2.7134538935882717 -12.403398308080211 129 48 27
-1.356553519279399 2.733608876915312 -12.410521991697955 129 48 25
-1.2969043333981571 2.775931815667976 -12.385285961276828 128 47 23
-1.2468659247580298 2.8113182850932192 -12.36992545855373 130 49 25
-1.2217468668281155 2.8287082510549952 -12.380727571401545 132 51 27
-1.1916430581320232 2.849700334790488 -12.386188238328522 131 50 25
-1.2287345129799148 2.822146685554054 -12.463087532356365 133 52 28
-1.2021241763948547 2.8406136734979612 -12.472322201836878 132 52 27
-1.1763260679587249 2.858494966917147 -12.482365631146521 132 51 28
-1.1507513574764534 2.8762159476051705 -12.492592949038663 131 51 27
-1.1060626191299554 2.907752441738352 -12.4821804341221 136 55 31
-1.068511468602515 2.9341334406929835 -12.479301290309195 133 52 28
-1.0018421377247049 2.981565598583096 -12.444746867607442 133 51 27
-0.9589242085536087 3.011833594097686 -12.435680437025951 133 52 27
-0.909009905346641 3.04716329896716 -12.418822999504869 132 51 26
-0.8822803212526327 3.0657334004301857 -12.427090998398954 134 54 29
-0.8936418693312245 3.056760234622581 -12.477045776510657 131 51 26
-0.8629687470812835 3.078182396758193 -12.480971601994337 129 49 25
-0.8238153506347983 3.105739770667271 -12.475457144909823 129 49 27
-0.7904003301942559 3.1291494127161092 -12.476142380013794 121 40 20
-0.7562479580840993 3.1530946460353686 -12.475900802953335 134 53 33
-0.7228218947654566 3.1765167403003898 -12.47635275570394 129 48 28
-0.6838914480612561 3.203923568133309 -12.470554144408995 129 50 31
-0.6441536254655817 3.2319175604167363 -12.463705569142025 132 53 32
-0.5273928166522883 3.3141428894363094 -12.445010076610686 178 125 124
-0.5041244296829208 3.3302277395128557 -12.456199418861 179 118 109
-0.46179113903638935 3.3601149045274297 -12.445697374764672 161 83 65
-0.4661316198555907 3.3562145240274437 -12.488169808526271 168 101 68
-0.5440976194829021 3.299002715137079 -12.61486440381858 145 78 29
-0.5078832632641794 3.3244582652345698 -12.611409593081707 80 19 4
-0.5125225558143969 3.3203308220678442 -12.65475348114501 66 9 2
-0.5183096245304126 3.3153692176737617 -12.699562309714938 78 15 5
-0.5244989001304314 3.3101132372186166 -12.744986834517514 85 15 6
-0.49668049202266573 3.329489024707517 -12.751153646158972 90 26 13
-0.5002932684818795 3.3260957062071475 -12.793777051967016 99 45 30
-0.5033565253733485 3.3230977485192206 -12.835897630111303 101 54 40
-0.514954420104778 3.3139128860529707 -12.8881311489601 105 63 47
-0.5224275165487833 3.307713218153647 -12.935721788477927 111 72 54
-0.5234836263637974 3.30616082285766 -12.975932099760499 112 71 51
-0.5267905435689912 3.3029745485945976 -13.018919889315779 110 67 48
-0.5271531961320477 3.30191970103068 -13.05856357058995 102 56 40
-0.5332833767734009 3.2966812965046937 -13.105168980991024 105 60 43
-0.5383908049001684 3.2921811803070513 -13.150717111240137 106 61 43
-0.5387456620075608 3.291124002439759 -13.190746755989679 107 62 46
-0.5405938338706289 3.2889814975012226 -13.232684401779688 112 67 50
-0.5373030364339582 3.2905632686760757 -13.268584750638322 112 72 50
-0.5348186012362337 3.291558245076019 -13.30555194234695 114 73 50
-0.5177624523510214 3.303121083101428 -13.325026033325525 104 62 43
-0.5110892825082431 3.307151662475202 -13.357073560512362 97 53 38
-0.4988745053618451 3.3152012918891267 -13.382463358065547 98 54 38
-0.47457588954995344 3.3320181302878047 -13.393166868345508 99 55 40
-0.47186137322359434 3.3331732958865983 -13.430188258865904 103 63 46
-0.47089045269073093 3.3330610103651495 -13.469448433285345 102 68 47
-0.4698821766498984 3.3329735089480597 -13.508778008789022 105 70 49
-0.4663203410456016 3.3347372487331968 -13.545075744057858 99 65 46
-0.4900155545965599 3.3167117054778656 -13.61516564629285 95 63 44
-0.48395875542253197 3.32028090123041 -13.648664770341265 94 63 47
-0.48882724272520006 3.315915628430721 -13.695829624372093 94 60 46
-0.480779104669284 3.3209268115132087 -13.727046805409522 89 57 44
-0.4733261271240856 3.3255044112141423 -13.759075239773031 87 55 43
-0.46813055128088976 3.3284409673798105 -13.794007022799398 82 49 38
-0.46740151440876954 3.328131260386949 -13.834646908423299 79 43 33
-0.4624081924462278 3.330916967790173 -13.8700278709371 79 41 32
-0.45055843489902436 3.338682353221859 -13.896822428089788 77 40 34
-0.44586735478247874 3.341245281848602 -13.932743668183644 63 24 18
-0.43734385873676995 3.3465913166096897 -13.963880034728444 59 10 6
-0.4272016552255842 3.3531124575521254 -13.993015286309884 76 25 21
-0.41862777222793834 3.35849258254724 -14.024212573811557 96 46 42
-0.40939862513481895 3.3643477054401982 -14.054634124904371 88 43 34
-0.4016753201498249 3.369106845015109 -14.08705650562552 95 55 46
-0.4327180500777068 3.345678617060279 -14.169632926568404 103 59 48
-0.45033021311252064 3.332009040663621 -14.235175823173424 108 55 43
-0.465539356286655 3.3200816130870434 -14.297863455052909 107 57 49
-0.47713483839364823 3.310777376145534 -14.356091592940718 102 57 50
-0.474762450638444 3.3116286535212778 -14.396284975473556 94 55 52
-0.46889996692205393 3.315016483999912 -14.432019856861075 97 56 52
-0.4668002062434349 3.315664944365313 -14.472793019871965 113 64 53
-0.4651688588370746 3.3159701482530437 -14.514304213257113 90 51 42
-0.46323606734731104 3.3164921980498923 -14.555541207443877 74 44 43
-0.461596387408969 3.3167984489048257 -14.597289779051035 110 63 56
-0.46686919303384933 3.3120708643960945 -14.648360904418306 107 55 47
-0.4779740839985456 3.3030942500171347 -14.707394917907239 102 50 43
-0.4835584158213244 3.298132097468736 -14.759267814633736 103 48 44
-0.49696136742075847 3.2874735133429125 -14.821820398268706 82 37 32
-0.4977332488094577 3.2860075622261897 -14.867615857843752 98 52 44
-0.48890490088099536 3.2915300366934934 -14.90059703895173 108 56 47
-0.5111635198530875 3.274409283224225 -14.975749582943557 112 53 48
-0.5172740800959401 3.2690445558342027 -15.029290940565353 106 47 44
-0.5185938048051044 3.2671660354038945 -15.076499495977792 90 42 39
-0.5185893049034869 3.2662491706593615 -15.12205463207901 79 40 35
-0.52117537473874 3.2634417122507093 -15.17130555216465 79 39 36
-0.52128902379512 3.262432628576195 -15.217326038973619 77 37 34
-0.5175935356163546 3.2641967450560943 -15.258244155765324 83 41 38
-0.5172818725568886 3.2634919844782413 -15.303958389110111 79 35 34
-0.5190820131431462 3.261244787345932 -15.352747061888802 75 33 33
-0.5308565062002488 3.2517222410443365 -15.4155714732467 74 36 33
-0.5408877946834982 3.2434657705883767 -15.476211618914265 76 38 36
-0.5481577239897666 3.2372182670540646 -15.533222719854505 77 42 37
-0.5662991048112866 3.2230376717548728 -15.605699971093596 78 43 36
-0.5866014344942148 3.2072747300268 -15.681522002995894 60 21 13
-0.5945444388633581 3.2005212865525783 -15.7402227362644 67 19 12
-0.5877896960351272 3.204486501986252 -15.778338156182006 77 22 10
-0.5799005105300337 3.209277478023724 -15.814941795327545 109 51 33
-0.5666968908344643 3.217944827906317 -15.844067278418748 83 42 33
-0.5475172641937238 3.230972740891122 -15.864702726338336 68 55 50
-0.5082717221763833 3.258647217296442 -15.85658822982813 50 46 44
-0.5013085877608159 3.2627589820195517 -15.894680398119466 36 35 35
-0.4787565236436446 3.2782500644837187 -15.910407081579208 36 34 35
-0.45319502386839794 3.29593925542986 -15.921749943021307 36 34 35
-0.7181977204981314 3.096395439125329 -16.604096371459978 30 29 27
-0.8534691053362682 2.9944482899565568 -16.95683057499852 41 39 34
-2.1560533016728542 2.1396960758946095 -12.300205476826338 124 53 35
-2.1381574320250727 2.1518402852159424 -12.320091707078724 123 52 34
-2.1039234128910826 2.1758063457573353 -12.323942099605764 123 52 34
-2.0882210358456135 2.1863643869987666 -12.345935400036394 124 52 36
-2.0762938697829374 2.1941901016357654 -12.371665895568016 124 52 37
-2.0633917044964223 2.202720781918038 -12.396463534314854 125 53 38
-2.0532894581593615 2.209224243450122 -12.42406846572283 125 53 38
-1.969796005175097 2.2688535069750584 -12.37862227593331 126 53 38
-1.964084449423968 2.272181109843049 -12.410484139733537 126 53 38
-1.9123011756565953 2.308863652547301 -12.396258037694107 128 55 40
-1.8581368092800696 2.3464678513762376 -12.416981705495854 127 54 39
-1.8239224908395055 2.3704369177340032 -12.42004818236827 129 53 39
-1.7599329865063504 2.415166141829846 -12.43039247790659 128 52 36
-1.7008191469682292 2.4571785226573195 -12.407778473624163 128 52 36
-1.6361213732009063 2.503241646075825 -12.37920192469657 128 53 33
-1.6060236023390222 2.524242368913894 -12.385830337022005 128 53 33
-1.570756606916495 2.5489903380636574 -12.387062552328354 129 54 35
-1.53474281028676 2.5742818411204733 -12.387414339772313 127 51 32
-1.4916804965010124 2.6046840153292403 -12.380357013813573 126 49 29
-1.4509280991912799 2.633415397753418 -12.375538826938445 129 49 28
-1.4115600401748 2.661146453785488 -12.372016816306072 129 48 27
-1.4134534243879981 2.658969313650878 -12.411436456716523 129 48 27
-1.373779745177873 2.686925111441067 -12.407446805567336 130 50 28
-1.336840197380885 2.7129015291229353 -12.406188869713024 131 51 27
-1.2810843161336467 2.752524628102716 -12.38498840253622 130 50 26
-1.2425942884452965 2.7796319941723135 -12.381786948985201 131 51 27
-1.2080893611498373 2.803852050516421 -12.382673550922435 133 53 28
-1.1759516694518286 2.826357472460008 -12.385965749692478 130 50 25
-1.2139709519888373 2.797974191349612 -12.463932854701383 138 58 33
-1.1840188051532317 2.8188934913657655 -12.469589795591752 130 50 25
-1.142785505752908 2.8479992456813124 -12.463070861826063 134 52 28
-1.1212921586854443 2.8627852466846115 -12.477622776580375 129 47 23
-1.0907478144326839 2.884139777464382 -12.482385174371505 130 48 24
-1.0553269901329543 2.9090351484694814 -12.481786658306063 132 50 26
-0.9816049740728774 2.9617317415549893 -12.43952387797319 130 48 24
-0.9530978640596768 2.981616441656023 -12.446087665287111 132 52 27
-0.8959225670278537 3.022313826318419 -12.421295940483162 131 51 26
-0.8759563131914581 3.0360031048550153 -12.436963154983307 132 54 29
-0.8720280502876947 3.0380481835512634 -12.470211437550166 127 50 25
-0.841209303752938 3.0596176554781973 -12.473941734804118 129 51 28
-0.801922044598153 3.087338979468086 -12.468231188759379 127 48 25
-0.7673847060951391 3.1116137089430036 -12.467633054528793 121 40 19
-0.735150297452885 3.1342182217941565 -12.46947569302733 124 43 22
-0.7023711494999394 3.15722063618112 -12.47060950306004 127 46 25
-0.6595487537731364 3.187521612370548 -12.460418404509948 126 47 27
-0.6668573658298009 3.1814032707701396 -12.506218121783302 125 47 27
-0.4681821353936879 3.3225501701539626 -12.43264294579059 168 105 97
-0.4669757276950697 3.3226208150810703 -12.468794080497883 176 91 69
-0.46580038396034196 3.322666701048031 -12.50508189585306 179 106 69
-0.5106216859500239 3.2892682323691305 -12.59407291149815 148 77 19
-0.4867424432923615 3.305815065894438 -12.604679348592578 91 29 8
-0.5188298875941055 3.281663924100729 -12.679615691792446 65 11 5
-0.5098333573824094 3.28738502846995 -12.707481735186771 78 16 7
-0.513083089751992 3.2841977521221244 -12.749569091837657 83 14 5
-0.49449255694661876 3.296894623024888 -12.76644567903114 87 22 9
-0.47705507626710597 3.308752949536522 -12.784650668365229 94 39 23
-0.48408038444231805 3.302813090756502 -12.831405927312279 100 51 38
-0.49455174813784364 3.2943622608796495 -12.882357716715054 105 63 51
-0.4978245789324909 3.2911458998744827 -12.925043458034885 88 51 37
-0.49800593883910294 3.290176518998907 -12.96422612956519 89 53 38
-0.49939800011158963 3.288323403342394 -13.004955589638296 90 49 34
-0.5003610733470953 3.286779862188181 -13.045302617780065 86 43 29
-0.5002165091854271 3.286040044906231 -13.084457012192665 91 50 34
-0.5022942899880767 3.283679670816953 -13.126375591804894 89 50 36
-0.5036876005736355 3.281814861235202 -13.167608403929595 87 47 34
-0.5042415888366127 3.28055852768191 -13.207963224116636 85 46 32
-0.5052191949075318 3.278991031619291 -13.248949934647284 82 46 27
-0.4885478130466563 3.290276167642869 -13.26878460425904 86 51 33
-0.48289919151632876 3.2935315618634324 -13.301949415930203 85 48 33
-0.4752014959991726 3.2982780737267383 -13.332709272465461 84 47 34
-0.45237631310312443 3.3140453484837376 -13.345135293437231 85 47 33
-0.45237149900294105 3.313184418190106 -13.385357281484998 89 50 36
-0.4545691059292607 3.3107158136618766 -13.42839527978985 90 52 37
-0.44397889175254246 3.317564656370576 -13.455879574800006 90 54 40
-0.44096361977234055 3.318890920597341 -13.492732303287454 91 55 43
-0.43597780756014126 3.3216515457394924 -13.527253982875079 97 61 49
-0.43351313827480187 3.3225721696297548 -13.564983995875561 96 61 49
-0.47594845319040147 3.290751145669541 -13.658566735649423 92 57 46
-0.46878145005301874 3.29509280668213 -13.690818025338151 91 55 45
-0.45977297805768647 3.30077591575294 -13.720842622811714 90 52 44
-0.4570579191031241 3.3018673322399352 -13.75881005381068 89 52 44
-0.45496846252140255 3.3025000953122876 -13.797669992113693 87 51 44
-0.45450356728821895 3.3019452476190394 -13.83868851380777 84 48 41
-0.449350036145872 3.3048087309428795 -13.873906444924508 81 45 37
-0.43516658551633025 3.3142595655629576 -13.897769921587347 80 45 33
-0.42420831933368763 3.321356176976594 -13.925755944037864 79 40 28
-0.41625810644873873 3.3262562634814916 -13.957624037126465 90 41 27
-0.4070292212019737 3.332088222676875 -13.98792721697978 113 63 45
-0.39846591839419965 3.3374329759463954 -14.019144646591544 119 75 52
-0.3888104437025959 3.3435737273748716 -14.049023386098597 113 68 46
-0.38039247876074445 3.348809599371129 -14.080556517060746 102 51 36
-0.4111231742571171 3.3254543908855245 -14.162806477123846 89 37 22
-0.4225932110121313 3.3161586237706357 -14.220430977767439 106 47 32
-0.4367574735638806 3.304890115261504 -14.281782806991346 107 46 33
-0.45384299974980635 3.291482318360054 -14.347190367017436 93 38 24
-0.46137100962504807 3.2850516428816254 -14.400352645389452 85 36 21
-0.43940033370991927 3.3001713757758173 -14.414978240267008 84 37 22
-0.44261393271261973 3.296887689280064 -14.462733416225149 96 47 26
-0.43243563556640563 3.303388166338599 -14.492963412745915 107 55 35
-0.4287186759328643 3.3051645024667433 -14.531810292113466 66 22 14
-0.47911965265075107 3.2673766259174677 -14.642663368121738 64 22 16
-0.4440889266040644 3.2920376722968463 -14.640216771081235 98 46 34
-0.4584894375285353 3.2805575386152723 -14.7036936774182 104 38 26
-0.4651902906153813 3.274702590646025 -14.757104258862405 106 33 24
-0.46599782247393406 3.273153669063263 -14.802786478899355 97 31 22
-0.47136055484202366 3.268269640566584 -14.854758477155311 104 47 30
-0.47556550836722344 3.264228595856597 -14.905350000906315 110 52 33
-0.4771172449219243 3.2621249166894586 -14.952519841112561 111 47 30
-0.4884855836927331 3.2528349448763203 -15.013199259868582 106 40 25
-0.4961265190890174 3.2462676107857806 -15.069029489951102 94 33 21
-0.49557198839366023 3.2456939730511714 -15.113852707378737 83 31 18
-0.48986891333673466 3.2488858856447322 -15.151751867692845 84 37 24
-0.489262105195313 3.2483448618432975 -15.196766352519369 92 41 26
-0.48780855592190164 3.248420713427098 -15.240754497883549 101 44 27
-0.4879807418860951 3.247303212846738 -15.287130035120942 92 34 19
-0.49133113104676696 3.243855006206088 -15.33806957937928 87 37 23
-0.5015468948430808 3.2353747038353644 -15.39874873405325 95 47 34
-0.5105340048491458 3.2277893456616624 -15.457946337173073 90 45 33
-0.515074347214652 3.2234567943259176 -15.511139331709856 83 40 29
-0.5313954932840792 3.21048860670966 -15.581077415748464 74 34 25
-0.5515580457203182 3.1946993420038403 -15.656718829850888 69 30 24
-0.5633315350671841 3.185051145187911 -15.720823971339595 70 26 20
-0.5407486256605587 3.200578993965615 -15.73647185213298 73 20 9
-0.5446087559776327 3.196723778039323 -15.789688192201341 107 51 29
-0.5382610888178849 3.2003481500612274 -15.828534613066509 97 53 39
-0.518809977996181 3.2135780300647667 -15.848740038933988 77 58 50
-0.4946289439436038 3.2302765872973422 -15.862151666564337 55 51 48
-0.47509775434111656 3.2435659570848827 -15.882206508006966 37 36 34
-0.4556723856442293 3.256777887928518 -15.902405687165771 37 35 35
-0.4269795081599108 3.27678852359369 -15.909181812528248 37 35 36
-2.896759010569988 1.5797692590964925 -12.419759534367799 116 50 34
-2.7071885505103985 1.7163939142691031 -12.28059402792912 122 56 40
-2.6916355416984037 1.7268200783307535 -12.303542982163723 121 54 38
-2.6651676142045093 1.7451635609337721 -12.316246600059905 118 51 35
-2.144003678065429 2.112331864267782 -12.304007402477026 124 53 35
-2.1355045678064615 2.117651888283751 -12.333115656758412 124 53 35
-2.141792143788445 2.111372768069389 -12.414437178151015 123 52 35
-2.0706846123463216 2.1621726760464526 -12.381888822010598 125 53 38
-2.034327544827121 2.187731186602825 -12.383476385476754 126 54 39
-2.0156589818323916 2.2004391543557347 -12.402540371243587 125 53 38
-1.9635301920909658 2.237462846671991 -12.388230855813875 126 53 38
-1.918952565216506 2.269003252643798 -12.381269296851283 126 53 38
-1.670757224104639 2.4434562742818122 -12.39319704803213 127 51 35
-1.624047878550265 2.4765724023590616 -12.38294218593001 128 53 34
-1.59027194652871 2.5002850734351583 -12.38579248098786 125 50 30
-1.5573664550434492 2.523366834195681 -12.389438827193505 130 55 36
-1.5225537792780681 2.5478382889219326 -12.391019084835351 127 52 33
-1.480497987598698 2.5775822078856963 -12.3849864105722 127 50 30
-1.4476844317108868 2.600604410391061 -12.388406160592062 129 49 29
-1.4238359215910394 2.6171046933733058 -12.401073780692432 130 49 28
-1.3887268563498645 2.64180133974246 -12.401928112391904 129 48 27
-1.3433500905278741 2.6739740586875094 -12.391905807676793 130 49 28
-1.304628006320911 2.701306569359075 -12.388705973272184 131 51 28
-1.2713265499797006 2.7246958814161735 -12.391088262776076 131 51 28
-1.2280592512615116 2.75534344358145 -12.38282742109189 131 51 29
-1.1948695285575477 2.7786567452161166 -12.38509348938788 134 54 30
-1.157492211752535 2.8050218689837476 -12.382802048038428 135 55 30
-1.1268276538963655 2.826501059203113 -12.387545509103585 135 55 30
-1.1553398696099695 2.804879894813696 -12.455538181809493 130 50 25
-1.1277593616894155 2.8241122643885133 -12.463604596171743 128 46 22
-1.0880752455614462 2.8521637693567263 -12.45857263529847 131 49 25
-1.0119246814714775 2.906787362732105 -12.414020544868148 135 53 29
-1.0435031168695441 2.882922349810664 -12.485756652971826 131 49 25
-0.9494403846160657 2.950608420446258 -12.421336954163753 127 45 21
-0.9200818993556985 2.9711493020885875 -12.426908139168292 132 51 27
-0.8824336377125639 2.9977342246917202 -12.423341262588945 136 56 31
-0.8520223024495719 3.019046887856539 -12.427569577832866 137 60 34
-0.8312091470531708 3.0333643089794875 -12.442257527902942 138 61 35
-0.819090205033675 3.0413434505350483 -12.466501504382531 136 58 35
-0.7870058772521435 3.0638800295968527 -12.46870374005401 130 51 28
-0.7527179063847744 3.08802588472017 -12.468362314641237 127 46 25
-0.7102584721088592 3.118133942630692 -12.458819101661932 125 44 23
-0.6680414205804102 3.1480690644696523 -12.449376981650987 127 46 25
-0.6352533890887679 3.171129881484687 -12.450313212539864 124 43 23
-0.669837570392112 3.145042408701581 -12.526722540206071 126 45 26
-0.4799974791350081 3.2801326280336403 -12.46323693014947 191 145 136
-0.4235121051138795 3.31964887165227 -12.474138703629482 187 112 69
-0.4817267771626934 3.2762896939588537 -12.578475772025428 149 75 16
-0.538304387846249 3.23411436538156 -12.681435122671385 107 44 15
-0.5101778593195676 3.2537808554282095 -12.687318709410079 60 8 2
-0.46871066079965873 3.283191846559561 -12.677711931415121 76 16 7
-0.47122719743956143 3.280481878176066 -12.718898566275794 82 14 5
-0.4499955661625039 3.294240341329927 -12.771050379097481 95 36 21
-0.4592351390559446 3.2866115743764635 -12.820396854304185 98 48 35
-0.4648757934058092 3.281608462060988 -12.865701595076558 102 60 51
-0.47029046834715915 3.27676699199414 -12.91089410260328 93 53 44
-0.4757270786877914 3.271906013802698 -12.956265073802463 90 53 45
-0.4823133138542972 3.2662012471608084 -13.00314918297858 95 54 44
-0.48496602757205665 3.2633682193427447 -13.045529374733082 97 55 40
-0.4924486069528071 3.2570010566724723 -13.093791097718245 95 53 38
-0.4917540622878662 3.2566088638956865 -13.132465572807265 92 50 36
-0.49462650337815584 3.253605747792952 -13.175521886754208 92 49 37
-0.5030784966361335 3.2465189948167867 -13.225413802710047 96 54 40
-0.5046060069285807 3.24449278403436 -13.267148995137209 94 56 40
-0.49706016906796124 3.2491006424986 -13.298060310595602 93 53 38
-0.43796935773894985 3.2914156755264634 -13.266623884145893 93 53 39
-0.4340646444395655 3.293360646155037 -13.301907040296703 94 54 40
-0.4313059308053151 3.2944649397731083 -13.338678781714641 94 53 38
-0.4303360702658914 3.29425781739627 -13.377737162877256 90 49 32
-0.4292193287985291 3.294155582976995 -13.41673029538521 91 50 32
-0.42170829162902335 3.298731226225238 -13.447980285886342 91 49 29
-0.4165648943417781 3.3015720569937645 -13.482216618286252 88 46 26
-0.4122231839717836 3.3038239813649413 -13.517529789363108 90 48 28
-0.40910567969596556 3.3051774117179185 -13.554452737759512 86 45 26
-0.4594147853103294 3.267403770406147 -13.65790457321102 95 55 35
-0.4544963251432579 3.2700671124170015 -13.692980870683678 92 49 29
-0.4482522024649169 3.2736994238575137 -13.726488998510009 94 47 28
-0.4433586534342151 3.276340526822523 -13.761771677222276 97 53 34
-0.4396491764867827 3.278112058021848 -13.798634784097842 102 62 42
-0.4313746370751925 3.2832262611296645 -13.829837860278271 104 65 45
-0.41378881736874185 3.295162376002777 -13.849324182644771 115 77 58
-0.4048133827319633 3.3007880177282742 -13.87973625689817 115 77 57
-0.39950130668253525 3.3037270717990173 -13.914873387912758 120 79 56
-0.3915345425235959 3.3086101543294104 -13.946710813365154 106 56 32
-0.3835540790433871 3.313501686171503 -13.978600678081998 109 49 26
-0.37734860138533755 3.3170901269677264 -14.012840269754772 126 70 40
-0.36737328402744485 3.323441179179376 -14.042308143994187 120 69 37
-0.3589663395184264 3.3286406962124753 -14.073857819321951 116 60 39
-0.40892503496383004 3.291027451254301 -14.18109686054462 100 40 23
-0.3985696642508625 3.2976481215187166 -14.210473978067544 116 54 35
-0.4080315576130893 3.2897281266758105 -14.265733446177125 121 54 36
-0.4305290909684967 3.2722383502712455 -14.338239629510102 112 47 29
-0.43865353504986526 3.265289238460846 -14.392211133588066 122 64 44
-0.40933393064355794 3.2858172303196156 -14.397146700254885 118 66 44
-0.41496214853364943 3.2806946481346166 -14.448079419102294 117 65 40
-0.39978860231530344 3.2908388523842085 -14.471679081679332 121 60 37
-0.3982568608457875 3.2909667420230937 -14.513394714247958 121 65 48
-0.4269412661745253 3.268904214261192 -14.595439026111231 74 30 21
-0.4168795654637041 3.2752879004411426 -14.626143685390254 70 28 19
-0.4241738356455116 3.2689227050247336 -14.680137581448077 117 56 40
-0.4241209531634915 3.26794995072746 -14.724467190521242 123 48 32
-0.4331577819768899 3.2602961947115645 -14.781175010655733 122 47 31
-0.4445472429565296 3.250908983440114 -14.841273321792787 120 60 40
-0.4485697900584027 3.2469299259926236 -14.891628289180892 122 63 42
-0.4556632853792628 3.240689942498502 -14.946330143216862 124 64 42
-0.4594727156056999 3.2368592266538005 -14.996759225942771 128 65 43
-0.4610988016387614 3.2346295098772764 -15.044380726519888 120 54 34
-0.450930495681348 3.241067451879103 -15.07599798733439 119 57 37
-0.4613999809636331 3.2323290571875765 -15.136044889754677 117 59 39
-0.46149493107166784 3.231214687385835 -15.182022367976444 118 59 38
-0.4623782572258026 3.2295170964976423 -15.229238437547913 125 58 37
-0.460104957832594 3.2301378927219577 -15.27223289266982 121 54 33
-0.4597128253641811 3.229371798752556 -15.31797427844593 116 58 37
-0.47040466763569544 3.220447184186944 -15.379324090206417 111 55 35
-0.47939474737371235 3.212769374510682 -15.43853214857494 110 55 36
-0.4844575693186659 3.207976683838293 -15.492455474755467 108 54 38
-0.4901446046077762 3.2027201094256856 -15.547451924064877 101 53 39
-0.5127796183937114 3.184982839968338 -15.626572965525579 88 49 41
-0.5459238701023956 3.1595004378966873 -15.72091687960772 80 42 36
-0.5309134461880083 3.1694660506134156 -15.747314910176254 71 23 12
-0.5176794976637682 3.178122739993409 -15.776272629675349 99 45 24
-0.5205347337749755 3.1749283023111037 -15.828257939451525 104 54 35
-0.496573489241829 3.1914833622628667 -15.84200467074157 57 29 20
-0.47418346876048734 3.2068819183484942 -15.857963187468844 35 26 25
-0.45261674069322577 3.2216746056128827 -15.875075465597376 40 35 34
-0.43731367971031787 3.2318520901030636 -15.901216254051988 39 36 36
-0.40382312817183497 3.2554333658808208 -15.9010157806335 37 35 36
-2.8855192521109165 1.5504968616686456 -12.424596754905087 116 50 34
-2.7395504645263733 1.6558483606902987 -12.326044492878863 125 59 43
-2.6866593411669157 1.6934495594907224 -12.314106264934093 120 53 37
-2.673768724095473 1.7019294276596115 -12.339613460160534 118 51 35
-2.2310807964874955 2.0117594345855787 -12.442527745551136 126 55 37
-2.101016513720308 2.104781796139463 -12.390021019457663 122 51 34
-2.04363302905709 2.1457247140352074 -12.370921800028002 125 53 38
-1.9873445129201999 2.1858746024822002 -12.352675933649635 128 56 41
-1.947507175429895 2.2131254596548775 -12.388125996834678 125 52 37
-1.9149077112323312 2.236003272843944 -12.39313056339488 126 53 38
-1.6130167844607617 2.449110996886808 -12.3877653561123 128 53 34
-1.5779362064980331 2.4738234233587506 -12.389271953368828 127 52 31
-1.5406370619737486 2.5001587265723386 -12.388381649598594 128 53 34
-1.5045365324015711 2.5256215241906057 -12.388608625499106 130 55 36
-1.4685458901267285 2.5510068419336895 -12.388833790674603 131 54 34
-1.4330962109095937 2.5759997494339064 -12.389506234495967 132 53 32
-1.4109240995357601 2.591294607454122 -12.403922911767316 131 50 29
-1.3827909280269215 2.6109458942024992 -12.412068550665385 130 49 28
-1.3534392819044463 2.6314892432439474 -12.418866596306357 131 50 29
-1.2755328369529781 2.687520038638314 -12.374464579572761 132 51 30
-1.250206185621483 2.7051287870569634 -12.385209401970638 132 51 30
-1.21593785871484 2.729275034612741 -12.386431563974279 132 51 30
-1.181012398056597 2.7539042962188782 -12.38684733924169 135 54 31
-1.1373175734841747 2.7849478816596505 -12.37780742018067 132 52 27
-1.1722897948281137 2.758473200862332 -12.452657077512669 134 54 29
-1.1439821993801438 2.778266449326856 -12.460017483314303 130 50 25
-1.0984430704657902 2.8106639618259006 -12.44878475075854 133 51 27
-1.06072040854797 2.8373485628545883 -12.445796732707166 132 50 26
-1.0161505183472497 2.8690452224411 -12.435272985317601 132 50 26
-0.9607856304301312 2.908643694738347 -12.412866632113293 130 48 24
-0.9458534614561271 2.918664659986211 -12.434187058386106 137 55 31
-0.9153882750092928 2.9400516030519745 -12.438576032102784 128 47 22
-0.8737798977966782 2.9695955421845093 -12.430686248663385 131 51 26
-0.8235424023418618 3.0054590236997316 -12.413168045999296 131 54 28
-0.8121984440699412 3.012858401725898 -12.438233001884697 135 57 32
-0.7953390963953253 3.0242945445228124 -12.457244996432063 130 52 29
-0.7645142776363594 3.0459553636498966 -12.460796693913588 132 53 31
-0.7358240583918598 3.0660554227128856 -12.46662571600821 126 45 24
-0.6966100115866904 3.093863923980415 -12.460657882994493 128 47 26
-0.6508556466468489 3.126465952029836 -12.447237885296651 127 46 25
-0.6093722972011921 3.1559442858699773 -12.438409604058489 125 43 24
-0.6478036234997466 3.126886518083784 -12.519187361848042 128 46 25
-0.5116283544110005 3.223021818194436 -12.516440805633778 228 197 194
-0.3800682503363313 3.3176325682536434 -12.441795270170989 167 94 58
-0.4405199324040976 3.2724101348019072 -12.54872310960332 147 70 20
-0.500075770319611 3.2278320296709375 -12.655139055631361 108 42 9
-0.4998140330407099 3.2271032125626786 -12.693072960665598 65 11 4
-0.47446787092646847 3.2447671233190722 -12.70209864054143 72 13 5
-0.42637315940653453 3.2791167414338758 -12.68467049106091 84 16 8
-0.41953312764431105 3.28228610684617 -12.753446091765072 91 29 17
-0.43050964825308435 3.2733052515479555 -12.804820440383372 96 45 33
-0.43503758759959865 3.2690514845932643 -12.848814041095647 97 57 43
-0.43935981453521933 3.2649451607868243 -12.892711431035249 87 47 31
-0.44664331439479454 3.2586620072158032 -12.940251013836178 90 51 34
-0.44169090837675684 3.2613560258435497 -12.973465138783704 97 53 35
-0.44318340010975454 3.259316963235096 -13.014416795636901 106 61 40
-0.44509534821548113 3.256966882274438 -13.055995496940572 105 59 37
-0.45312684449521345 3.250120343129901 -13.105017098721472 105 58 39
-0.44872243156320524 3.252401782049967 -13.139310129519693 107 60 41
-0.44924992412707665 3.2510590017817287 -13.179618399936865 105 58 39
-0.4292160841370669 3.264815763926847 -13.19526364411765 111 64 44
-0.4266917536686594 3.265710668749461 -13.23205538837687 108 60 40
-0.4245100805273454 3.266351374565979 -13.269364585406223 110 62 41
-0.42232383141837326 3.2669929174318058 -13.306773083142893 112 65 43
-0.4201317285867856 3.2676362260573315 -13.34427974881881 113 66 43
-0.4179994164129859 3.2682330457896005 -13.381965300942188 112 64 42
-0.41276971890334124 3.271103957953254 -13.415957255581773 116 68 47
-0.4080622946703203 3.2735888992063464 -13.45067663098159 118 71 49
-0.4037424741849285 3.275786732604545 -13.485963290776837 107 61 38
-0.4586017065607413 3.23446866337362 -13.594594031821797 105 59 37
-0.4517763700820465 3.238499347132872 -13.627170838655726 111 65 43
-0.44493816352370885 3.2425376829149033 -13.6598069292302 116 68 46
-0.431827698101964 3.2511877779618574 -13.684685903339421 111 62 39
-0.41904626763818786 3.259595105591031 -13.710006698279116 110 61 36
-0.40159648606658127 3.271436304536041 -13.729495599854845 111 63 38
-0.40042799599156975 3.271297458711452 -13.7694945034522 113 64 40
-0.3867197800111297 3.2803838519747326 -13.79376733893361 114 64 40
-0.37782509019609023 3.2859268708086273 -13.824166279333392 112 60 38
-0.377474837755158 3.28517892913148 -13.865487586860151 108 57 36
-0.3727604061082834 3.2876407625464816 -13.90137186427019 99 49 28
-0.3677189265817722 3.2903411243834224 -13.936932140108084 76 23 10
-0.36033824187514796 3.294761767162141 -13.969584900372045 71 11 3
-0.35493089083634555 3.2977273422934132 -14.004850430255242 92 27 9
-0.34716783467277423 3.3024258252820164 -14.03716747756738 105 41 16
-0.3381860801434957 3.3080202950290953 -14.067980514186898 98 40 20
-0.40607977682895147 3.256976995468806 -14.198606389687175 112 56 40
-0.3557330284622413 3.29303983011187 -14.176010338956887 105 55 36
-0.3635931136990065 3.286215435383986 -14.229134134513181 130 74 57
-0.40466481520329456 3.2549092209041044 -14.325929418468004 123 63 49
-0.37894614571993745 3.2728231598448883 -14.335485359060065 115 60 44
-0.37138472948241397 3.2773532532184753 -14.368887779140874 109 58 41
-0.3873572196888153 3.264530273577331 -14.433449518896849 117 65 49
-0.3704304537110792 3.275960223575705 -14.454693823598532 114 59 42
-0.3658180731167091 3.2783085115397137 -14.492303574900232 123 62 41
-0.37478437948182197 3.270639131446491 -14.548108650011066 119 65 48
-0.3861045456123735 3.261228347422996 -14.60726909019403 80 38 30
-0.38505071630228205 3.26094106453259 -14.650072999964483 97 49 38
-0.3839931263017995 3.2606533745564192 -14.693003991071915 123 63 46
-0.40154810432891175 3.2466273437227837 -14.761163452029054 119 59 44
-0.4100770419252333 3.2392561560706463 -14.817398884445801 114 60 45
-0.4168295962453916 3.2331911102861817 -14.871436026782922 108 54 37
-0.4274815072174114 3.2242426429055318 -14.93097541022059 119 64 45
-0.43152296516739774 3.2201693712258894 -14.981725861931773 122 67 47
-0.42617397760478326 3.223026040718076 -15.01980409220707 124 65 46
-0.4228170667751501 3.2244090311330815 -15.060718863896799 121 58 42
-0.4278364910706056 3.219602142447033 -15.11328321523255 112 53 38
-0.4267303592772551 3.2193158419852423 -15.157578622032954 110 54 35
-0.43097327443383726 3.2150741787429826 -15.209419880484209 123 58 40
-0.43189378748826 3.213283103775744 -15.256830404781596 122 57 39
-0.42871713790358257 3.214516152641667 -15.298690776588034 106 51 35
-0.43933244468189336 3.2055522452158653 -15.359943729449425 103 52 36
-0.44754963730035513 3.198355327634472 -15.418075313549414 106 55 38
-0.46367108031032167 3.185309300428962 -15.48753578930079 111 59 41
-0.4669584295562581 3.1817462088412976 -15.539192775013555 106 55 38
-0.49073832759491776 3.163023978303719 -15.620002816421064 91 52 41
-0.5512240647177515 3.1171445673609606 -15.753215487019098 81 47 43
-0.5274374393739585 3.133587840794095 -15.767241585541147 74 31 22
-0.5119256402137493 3.1439102080423798 -15.793026887002842 88 34 19
-0.5041444890656885 3.1485117914761673 -15.829898041034173 109 53 34
-0.4800763206472709 3.165164141838919 -15.843490035882713 58 23 14
-0.45881120283042076 3.179742978103363 -15.861069203265172 31 17 18
-0.43733913016705017 3.1944755700408054 -15.878326416815694 45 36 37
-0.430357935671295 3.198480508022949 -15.916538516628794 40 35 36
-0.3924403553473699 3.225389875523602 -15.909927025349058 37 35 36
-2.8742661551572604 1.5211944794786092 -12.429437771566958 115 51 36
-2.7571984158635794 1.60577702605827 -12.357828752532143 118 52 37
-2.709060935489124 1.6399976193634567 -12.350416608830635 118 51 35
-2.6612286554030766 1.6739994178235182 -12.343123569338164 117 50 34
-2.091734107603565 2.0781222950627747 -12.284068960805012 123 52 34
-2.2039744081359856 1.9950225257938357 -12.431728976875892 125 54 36
-2.1469216581041124 2.0358234218333715 -12.413389150393296 126 55 37
-2.0814008225614478 2.0828292892839606 -12.386453383181088 124 53 35
-2.0419347482678227 2.110766734790225 -12.38505368739045 124 51 35
-1.9840369026485387 2.152203323374609 -12.365207826519548 124 51 34
-1.946810265189601 2.1785087934682084 -12.365728061364358 127 55 38
-1.9081669088019653 2.204900296844312 -12.402323061488719 125 53 38
-1.56767033015866 2.445814754731427 -12.394896190302775 128 53 34
-1.5295544119830597 2.4728062535123376 -12.393157901931563 129 52 34
-1.4920940652743808 2.4993202833143378 -12.391970834211861 129 52 33
-1.457306670723161 2.5238772582949958 -12.393436196245615 129 52 32
-1.4573616676632617 2.522882594416518 -12.431095542632011 132 54 33
-1.411788837804702 2.555353547658521 -12.421180241046645 129 51 29
-1.386066728605901 2.5732667750568656 -12.43189422576403 129 50 28
-1.3282489530634227 2.6147287684043317 -12.408816916360479 131 50 29
-1.2885916986684811 2.6428720454662202 -12.404632704869842 132 51 30
-1.256787265502139 2.6652563354182384 -12.408610949556163 132 51 30
-1.184500508377361 2.717352959322418 -12.369565036615192 130 49 28
-1.1529036260483871 2.7395928346222855 -12.373451843078007 131 49 27
-1.1174050335339132 2.764699141189596 -12.373084032899769 130 48 24
-1.0936819436663043 2.78116356744501 -12.38519774034482 129 47 23
-1.1089027590641294 2.769035728647415 -12.43905781143079 129 47 23
-1.0700566948014862 2.7966040330422306 -12.434931655411406 129 47 23
-1.0137109806313287 2.8370272767298297 -12.411776503482068 127 45 21
-1.0167254989194077 2.8338591239763735 -12.452633359184441 129 47 23
-0.9597546424889623 2.87474954746113 -12.428484750386339 129 47 23
-0.938772831269834 2.8892081033141253 -12.44327097367135 130 48 26
-0.9035029919837991 2.9141648325766094 -12.44242452092642 131 49 27
-0.8717401940745897 2.936547662284419 -12.445300495382515 133 51 29
-0.8304699912614288 2.9659196513638695 -12.437633901851527 129 50 28
-0.8150947396262751 2.9762641637501437 -12.45834179577087 136 58 36
-0.7563365547515457 3.0184963633990325 -12.431113485956592 131 53 31
-0.7136052221299067 3.048953928227269 -12.421375198115923 127 48 26
-0.6737390730872592 3.0773093456883083 -12.41465135488642 126 45 24
-0.6637825260279082 3.083676644083014 -12.441122571995766 128 47 26
-0.6511787344883442 3.091989537043876 -12.464676789880576 128 47 26
-0.6292589271157385 3.1071532260065235 -12.477808779065825 125 44 23
-0.645302426217639 3.0943945511642066 -12.533607843824548 125 45 24
-0.6234568630300097 3.109502236089685 -12.546878310513243 126 48 29
-0.35147498271224586 3.3048477788071797 -12.426370887065353 182 111 79
-0.39986803803270865 3.2682702270845505 -12.519531607398347 146 66 23
-0.4523523440396531 3.228669532470067 -12.617841728874966 99 34 1
-0.4630846801300823 3.219798909612997 -12.668394882002552 62 9 4
-0.45225793072042286 3.22679937868462 -12.694158813106462 68 12 7
-0.4308627935126168 3.241582179814281 -12.707683002305718 83 16 7
-0.4733540894607695 3.209309698404364 -12.795618474316347 86 17 7
-0.4276842881947198 3.2419704559576563 -12.780925846147895 88 24 14
-0.42829255777187614 3.240541684696307 -12.820277568190665 100 45 36
-0.4342578785727631 3.235162709979053 -12.8660457919975 98 54 41
-0.4317955206591897 3.235990197869548 -12.902033733746253 97 59 41
-0.4250577770417121 3.2399661315857213 -12.933064465860756 104 63 45
-0.41538974930540773 3.2461001791929616 -12.960689045385125 110 66 48
-0.4092632604255604 3.2496222504775325 -12.992575364358956 112 67 47
-0.41525763751359523 3.244206171055043 -13.038996171325064 108 63 44
-0.4145461567637647 3.2437306212879924 -13.077552854032211 106 60 40
-0.4118352472440425 3.244726664629563 -13.11382317928809 106 59 40
-0.40424237988182776 3.2493207837086175 -13.14431703604549 110 62 44
-0.4055112423949798 3.2473766406360336 -13.185573531645971 112 61 42
-0.4020029575472934 3.2489533934602854 -13.221174931652257 111 60 40
-0.3986504194174345 3.2504128225087854 -13.257060542807121 110 59 37
-0.3978916416423752 3.249955879557316 -13.296201609372595 112 61 39
-0.3959477844798931 3.2503705706643573 -13.334010872557698 111 60 39
-0.39098501705653854 3.2530107144313414 -13.368229527746852 106 56 35
-0.38745369566325083 3.2545920186270108 -13.404293310409933 105 56 36
-0.38689664732370455 3.2539750710499726 -13.444119371831773 105 57 37
-0.38310716998731476 3.255741768959943 -13.48006962503754 105 57 38
-0.4573741998629801 3.1998656162131343 -13.612871900635996 101 54 34
-0.4623097026140117 3.1951764520994304 -13.660147444471432 105 56 37
-0.43014946629391204 3.2178832240082498 -13.661330756617678 108 58 38
-0.4145914452823076 3.2283283412583925 -13.683165944047564 110 61 40
-0.4012856410772967 3.237109182909544 -13.70783773818119 111 61 41
-0.38785028555659906 3.245985028739831 -13.732375041019363 111 62 40
-0.38168473088014565 3.249487748031098 -13.766112090145986 111 60 36
-0.3700247504206091 3.2570493197444326 -13.792978446604543 113 61 38
-0.3557087746554135 3.2665731432475997 -13.81651524841089 111 58 36
-0.3531347861388934 3.2674156834769827 -13.855019724650036 112 57 37
-0.35003534664966907 3.268643944875735 -13.892963310086499 98 47 30
-0.34649082505584783 3.270198634061283 -13.930443476431613 77 26 17
-0.3298736710026544 3.281418917050959 -13.951239462541157 59 11 6
-0.32055342759218064 3.2872417436908163 -13.981438648729181 76 21 9
-0.3112223525967375 3.2930710491569313 -14.011684287117108 91 25 8
-0.36670465357846016 3.2509455266160865 -14.125963508186057 93 28 12
-0.37253025007057605 3.2455500495782266 -14.176274158977755 104 52 37
-0.3225202373037277 3.2814718493705772 -14.153993650923042 98 57 40
-0.32755423690497487 3.2766586624354055 -14.203412131334971 120 71 56
-0.3341756001493099 3.2706660178306777 -14.255084991470294 121 60 46
-0.33757408421570645 3.267054719393526 -14.302706617204398 113 56 44
-0.33953916428304076 3.2645006736383744 -14.348600183327122 103 50 37
-0.3598001223285463 3.248393687703988 -14.41884509939867 106 53 42
-0.30924817172043273 3.2847270149024093 -14.395446157159645 107 54 41
-0.33792853175906945 3.26237533771455 -14.47720818478653 111 54 37
-0.33924631549095796 3.260286068108517 -14.52282013327223 122 65 49
-0.3424833623350638 3.2567709185829807 -14.571150388311992 94 45 34
-0.34424915253372035 3.254341849890335 -14.617671144607504 77 37 30
-0.3533581281549303 3.2464664201457376 -14.674232978719074 107 62 48
-0.3781430794755414 3.226965646976933 -14.752176652452517 115 61 44
-0.3865732305344567 3.219580992814639 -14.808310710601345 115 61 47
-0.3905860366436791 3.2154662743298044 -14.858655129238304 111 55 41
-0.39692112382465883 3.2096249703497675 -14.91233953039464 114 58 42
-0.3971219341967416 3.2083282740054635 -14.957837613148076 119 64 47
-0.38829940956438147 3.213721064424127 -14.991116292279159 122 66 48
-0.38199005471923275 3.217247523328737 -15.027923709891965 122 59 45
-0.4016652093100683 3.2014917308336104 -15.100649383120544 114 53 40
-0.41874320230354733 3.1876554097114402 -15.17009222684222 107 50 36
-0.4168782828983604 3.1878708627577197 -15.21355287318064 118 60 43
-0.4150089810717139 3.1880861731094754 -15.257141220170023 123 59 44
-0.45731321079343434 3.1555040004749753 -15.362490007550553 107 53 42
-0.46359025057566683 3.1496591866379564 -15.417929691262174 98 51 40
-0.46542322378800804 3.14710936854042 -15.467336695367303 102 55 40
-0.46759965731003206 3.144300195483453 -15.517395153109039 113 63 46
-0.47589776816714746 3.136939390911155 -15.576267656758027 109 58 41
-0.4876933811464852 3.1269745315446844 -15.640316481451215 100 58 42
-0.5050432328720982 3.1128762527619696 -15.712507887880953 87 48 44
-0.5233097310037582 3.098089095758194 -15.78630778558696 76 34 28
-0.5067141917000866 3.109205005212197 -15.810614149277901 75 23 10
-0.4966077779195537 3.1154967858777987 -15.844235626172303 110 50 30
-0.4694887915029531 3.1344348995518097 -15.853479337139573 88 40 25
-0.44247626422739295 3.1532957095118617 -15.862803376190005 67 38 34
-0.4144531247358385 3.172909931455398 -15.870593733980504 54 41 40
-0.4116281695306272 3.173784133105144 -15.914841714599053 42 35 35
-0.3806456703653618 3.1956012019073565 -15.918273307534157 37 36 34
-2.8106089744527694 1.5302872386934245 -12.385303030681069 115 51 36
-2.770741502237836 1.558518504238771 -12.385845286350698 117 51 37
-2.724851942106777 1.591170719946053 -12.380602259082124 118 51 35
-2.2075243544266074 1.9558128149982528 -12.45105295230241 126 55 37
-2.150830147539742 1.9964596308589933 -12.433081429818838 124 53 35
-2.091323424562735 2.0391794047913203 -12.412099648644137 124 53 35
-2.043273873434568 2.0734851612297485 -12.402238825525082 124 51 34
-1.9825544911419914 2.1171085240761576 -12.3795917716048 122 49 32
-1.931323608261812 2.1537635169984037 -12.366159392566715 125 52 35
-1.9048509090683692 2.1722216951696103 -12.377309036237884 125 53 38
-1.8789458678433215 2.190263917237594 -12.388974992435065 125 53 38
-1.5617554316230073 2.414562157602251 -12.405025206374258 127 51 32
-1.518300194276911 2.4455432698105497 -12.397773571475607 127 50 32
-1.4836224241964673 2.4700670343772795 -12.39946440915528 128 51 32
-1.4682678370600453 2.480367101684442 -12.421147103848881 129 52 32
-1.4461666643544162 2.495634558671335 -12.435802443518966 129 51 30
-1.4042709601603147 2.5254796772397534 -12.429715643352154 131 53 31
-1.3677295269626804 2.5513855149606366 -12.429094526018819 128 49 28
-1.3246143387798606 2.5821366211209558 -12.421433774422644 131 50 29
-1.2889807826603454 2.6073806615175585 -12.42150884118059 138 57 36
-1.249899435734747 2.635167920431605 -12.41781752123164 135 54 33
-1.2131854083160714 2.6612145693346765 -12.416501909150366 132 51 30
-1.170643477533842 2.6915591410576445 -12.40885565846953 129 48 26
-1.1369698894454126 2.7153721268434134 -12.410521203754582 131 49 25
-1.1099898996112452 2.734254254119801 -12.419251953151154 135 53 29
-1.0816015988426808 2.7541762338976854 -12.42640564875601 129 47 23
-1.046553365980111 2.779010154617563 -12.426309192044702 129 47 23
-0.9980112392123348 2.8137965947378154 -12.411512322414815 128 46 22
-0.9759094626601845 2.8290909623419944 -12.425175088897058 129 47 23
-0.9409918449639112 2.853837906156526 -12.42487014165954 129 47 24
-0.9232768683997459 2.865899554278156 -12.443207121863978 130 48 26
-0.8933251010327248 2.886988085661372 -12.448155122008304 129 47 25
-0.8698003096906666 2.903337347066207 -12.460067536751623 129 48 25
-0.8275557286484472 2.93350004452752 -12.4513420417913 132 53 31
-0.8164982806218979 2.940653258454752 -12.476861566145768 133 55 33
-0.7597918407883175 2.9814951952536424 -12.451901761957554 130 52 30
-0.6984546491852579 3.025762076409946 -12.421541109349365 138 59 37
-0.6597731506100257 3.0533125437065483 -12.41610707716271 125 44 23
-0.6393382601606805 3.0673958084338806 -12.430899097536507 127 46 25
-0.6451113499789387 3.0621286691050393 -12.475011423763087 126 45 24
-0.6197812135062919 3.0798259118451834 -12.484341056106583 126 45 23
-0.6053077530796682 3.0895065839533165 -12.50584104054306 124 44 24
-0.5735635434344735 3.111943604627204 -12.507844595543036 122 44 25
-0.4532285725948477 3.197819004859533 -12.48463732522437 189 141 137
-0.3690097308467273 3.259047298029018 -12.426167645648258 161 102 84
-0.393891261685551 3.23965404923134 -12.492316540996782 183 109 77
-0.42519179511208893 3.2155086397539403 -12.566124721482142 164 87 44
-0.42012872896134956 3.2182367236243463 -12.598321901986925 121 55 15
-0.4376091926476704 3.2042951832327953 -12.656670433580128 66 12 3
-0.4390176321393553 3.2022317733051784 -12.696606926055935 66 11 6
-0.4217767079257002 3.2139568924087074 -12.714968917913355 80 15 5
-0.4488025942913296 3.192941356357038 -12.78497941826291 88 19 8
-0.3812880432848682 3.241850841809649 -12.744649009506853 89 23 15
-0.37386104128917763 3.2463164777277376 -12.774495244013163 97 40 33
-0.3747060614420157 3.2446599611070575 -12.814142543544023 93 47 39
-0.336698588363864 3.2717507752559247 -12.808038083595216 99 59 46
-0.3554998801348903 3.256802230423617 -12.869055561238406 102 60 44
-0.36051687763065043 3.252049936845346 -12.913948917729101 106 61 45
-0.36555485238433816 3.247278072767918 -12.959018741195688 107 61 45
-0.3706112042284855 3.2424885392264793 -13.004262826294749 106 61 43
-0.37568777372483764 3.237679949908306 -13.049684257317828 102 57 36
-0.3785759747243511 3.2344878583358314 -13.092629801822596 101 55 35
-0.37859123350891233 3.233419895622673 -13.1322517764761 102 56 36
-0.3799565582287765 3.231348696399884 -13.173625088377115 104 59 39
-0.3820417938623031 3.2287407041289855 -13.216000720519752 106 61 43
-0.38353064332967257 3.226570986562809 -13.257786394321554 109 63 47
-0.37931173619025893 3.2286273771725895 -13.292742638615714 108 62 45
-0.3781311363507385 3.2284295691699336 -13.331506323340353 109 63 44
-0.37677500249703444 3.228358844391537 -13.370168099893668 105 60 42
-0.37541425917824967 3.2282885303232685 -13.408936883611753 100 55 38
-0.4289246838597749 3.1875328465204475 -13.515531481912703 103 58 41
-0.431802287170858 3.184308357864987 -13.559972679444844 109 63 46
-0.43667672955521475 3.1795991028383894 -13.607038387933637 105 59 42
-0.4415687647695199 3.17487250110397 -13.654287086569973 103 57 40
-0.41411817204311063 3.1941335455113467 -13.661312523629057 108 62 44
-0.3967388153137863 3.2059247154861947 -13.680874895407257 111 66 48
-0.382259757677585 3.2155638983754447 -13.704078521817852 113 67 49
-0.3671792249936896 3.2256489081840884 -13.726544264528698 109 65 45
-0.35991356961615395 3.229933290205227 -13.758899454404194 108 64 42
-0.3526368001241993 3.234223951312488 -13.791314430775248 108 61 35
