ply
format ascii 1.0
element vertex 840
property float x
property float y
property float z
property float nx
property float ny
property float nz
property uchar diffuse_red
property uchar diffuse_green
property uchar diffuse_blue
property uchar class
property uchar detection
end_header
-4.5159 2.2054 -12.5144 -0.097 0.496 0.863 110 41 26 0 0
-4.6753 2.5834 -12.9726 -0.422 0.686 0.593 84 49 40 0 0
-4.7140 2.5603 -14.0101 -0.825 0.561 0.072 99 70 66 0 0
-4.7050 2.4839 -14.4268 -0.872 0.480 -0.098 104 75 71 0 0
-4.6622 2.2465 -15.4002 -0.927 0.342 -0.153 5 3 5 0 0
-4.6208 2.0393 -16.1602 0.380 0.925 0.023 7 3 3 0 0
-4.4841 2.1980 -12.4956 0.118 0.675 0.729 111 42 27 0 0
-4.5244 2.3077 -12.4947 -0.291 0.639 0.712 114 46 27 0 0
-4.6509 2.5942 -12.9720 -0.363 0.791 0.493 83 46 38 0 0
-4.6750 2.6276 -13.2389 -0.757 0.206 0.620 89 52 46 0 0
-4.6843 2.6460 -13.2955 -0.739 0.576 0.349 91 55 49 0 0
-4.6759 2.5026 -14.2935 -0.528 0.848 -0.048 101 70 67 0 0
-4.6740 2.4908 -14.3484 -0.751 0.610 0.251 102 71 68 0 0
-4.6509 2.3084 -15.3383 -0.925 0.356 -0.130 11 4 4 0 0
-4.6505 2.3007 -15.3922 -0.957 0.282 -0.062 5 3 4 0 0
-4.6500 2.2928 -15.4465 -0.964 0.262 -0.040 6 2 3 0 0
-4.3089 1.7996 -12.4972 -0.666 0.431 0.608 111 46 33 0 0
-4.3445 1.8940 -12.5147 -0.449 0.462 0.765 112 46 31 0 0
-4.4421 2.1594 -12.5080 0.042 0.824 0.565 112 43 28 0 0
-4.4550 2.1943 -12.5095 -0.117 0.733 0.670 112 43 27 0 0
-4.6583 2.5337 -14.3111 -0.497 0.866 -0.059 101 70 67 0 0
-4.6514 2.4487 -14.8758 -0.968 0.221 0.119 105 76 72 0 0
-4.6478 2.4073 -15.1429 -0.902 0.402 -0.155 94 58 49 0 0
-4.6409 2.3795 -15.2208 -0.862 0.467 -0.197 97 65 57 0 0
-4.6308 2.3354 -15.3636 -0.881 0.447 -0.154 10 4 5 0 0
-4.5112 1.8984 -16.3219 0.826 0.059 0.560 7 2 4 0 0
-4.5410 1.9608 -16.4798 0.280 0.929 -0.241 38 28 25 0 0
-4.5367 1.9404 -16.5538 0.186 0.898 -0.400 57 47 44 0 0
-4.5368 1.9070 -16.8392 -0.046 0.171 0.984 94 89 87 0 0
-3.9834 0.9841 -12.6160 -0.420 -0.470 0.777 216 214 214 0 0
-4.2224 1.6512 -12.4316 -0.575 0.352 0.739 108 46 33 0 0
-4.2327 1.6778 -12.4425 -0.620 0.190 0.761 111 49 36 0 0
-4.2429 1.7038 -12.4540 -0.766 0.312 0.562 110 48 35 0 0
-4.3056 1.8712 -12.4742 -0.132 0.331 0.934 112 46 32 0 0
-4.4216 2.1822 -12.4955 -0.022 0.733 0.680 112 43 28 0 0
-4.4877 2.3606 -12.4981 -0.315 0.937 0.150 109 41 22 0 0
-4.6234 2.6216 -13.4225 -0.705 0.648 0.290 92 53 46 0 0
-4.6317 2.5477 -14.2663 -0.459 0.832 0.312 100 69 66 0 0
-4.6316 2.5419 -14.3143 -0.523 0.705 0.478 101 70 67 0 0
-4.6245 2.4236 -15.1807 -0.813 0.533 -0.234 95 60 48 0 0
-4.5042 1.9522 -16.4585 -0.037 0.923 -0.383 31 21 17 0 0
-4.4936 1.9124 -16.5574 -0.142 0.891 -0.432 39 30 25 0 0
-4.2225 1.7284 -12.4403 -0.656 0.146 0.741 110 48 35 0 0
-4.6360 2.7228 -13.5162 -0.603 0.792 0.097 84 48 42 0 0
-4.6453 2.7366 -13.6184 -0.849 0.436 0.300 75 37 31 0 0
-4.6501 2.7464 -13.6467 -0.864 0.421 0.277 70 25 18 0 0
-4.6102 2.5663 -14.2985 -0.792 0.169 0.587 100 69 66 0 0
-4.6150 2.5759 -14.3287 -0.800 0.418 0.429 102 71 66 0 0
-4.6230 2.5413 -14.8338 -0.751 0.627 0.204 127 87 73 0 0
-4.6256 2.5439 -14.8736 -0.805 0.573 0.155 112 77 65 0 0
-4.9401 3.1711 -16.8550 -0.077 0.875 0.477 185 185 185 0 0
-4.9469 3.1864 -16.8825 -0.018 0.843 0.538 187 187 187 0 0
-3.8823 0.8720 -12.6274 -0.406 -0.462 0.788 216 215 217 0 0
-4.6189 2.7572 -13.4894 -0.254 0.967 0.039 86 50 42 0 0
-4.5828 2.5672 -14.3517 -0.618 0.736 0.277 103 70 65 0 0
-4.5978 2.5613 -14.7802 -0.851 0.417 0.318 131 89 75 0 0
-4.6004 2.5639 -14.8200 -0.751 0.627 0.204 120 79 65 0 0
-4.5664 2.4207 -15.3005 -0.434 0.774 -0.461 95 63 55 0 0
-4.4072 1.8568 -16.5638 -0.062 0.922 -0.383 22 15 12 0 0
-4.3990 1.8131 -16.7650 -0.141 0.990 -0.014 58 48 46 0 0
-4.9204 3.2013 -16.8780 -0.115 0.651 0.750 186 186 186 0 0
-3.8704 0.9248 -12.5891 -0.383 -0.418 0.823 213 209 209 0 0
-4.2069 1.8389 -12.4628 -0.190 0.880 0.436 114 47 31 0 0
-4.2121 1.8503 -12.4881 -0.190 0.880 0.436 112 45 29 0 0
-4.5505 2.7262 -12.7742 -0.253 0.585 0.771 75 29 17 0 0
-4.5338 2.6716 -12.8694 -0.314 0.514 0.798 72 28 18 0 0
-4.5419 2.6916 -12.8854 -0.314 0.514 0.798 76 35 25 0 0
-4.8921 3.2105 -16.8817 -0.115 0.651 0.750 186 186 186 0 0
-4.8993 3.2272 -16.9072 -0.145 0.760 0.634 187 187 187 0 0
-4.1627 1.7964 -12.4775 0.117 0.594 0.796 114 48 33 0 0
-4.1815 1.8479 -12.4641 -0.168 0.868 0.468 114 47 31 0 0
-4.5256 2.7387 -12.7347 -0.444 0.649 0.618 83 33 20 0 0
-4.8632 3.2180 -16.8881 -0.120 0.685 0.718 185 185 185 0 0
-3.9821 1.3937 -12.4690 -0.163 0.910 0.381 108 48 37 0 0
-4.2113 2.0035 -12.4681 0.183 0.700 0.690 115 46 31 0 0
-4.3224 2.2994 -12.4656 -0.286 0.568 0.772 116 45 27 0 0
-4.5100 2.7624 -12.8316 -0.873 0.179 0.455 77 33 25 0 0
-3.9428 1.3677 -12.4666 -0.509 0.715 0.480 108 49 36 0 0
-4.2389 2.1557 -12.4374 -0.411 0.523 0.746 118 46 31 0 0
-4.2117 2.1549 -12.4846 -0.046 0.573 0.818 123 53 35 0 0
-4.4610 2.7857 -12.7913 0.025 0.715 0.699 73 26 16 0 0
-4.4810 2.8100 -13.1032 -0.910 0.413 0.021 23 7 3 0 0
-4.4397 2.4913 -15.3727 -0.855 0.434 -0.285 98 61 53 0 0
-4.3871 2.2912 -16.0369 -0.986 0.169 -0.006 25 19 16 0 0
-4.3680 2.2189 -16.2709 -0.981 -0.167 0.097 40 34 31 0 0
-4.0717 1.8571 -12.5318 -0.467 0.110 0.878 119 48 33 0 0
-4.1823 2.1517 -12.4980 0.000 0.451 0.893 121 50 32 0 0
-4.2613 2.3625 -12.4693 -0.226 0.475 0.850 114 41 24 0 0
-4.3050 2.4749 -12.5010 -0.173 0.345 0.923 116 43 26 0 0
-4.4429 2.8142 -12.7717 -0.394 0.512 0.764 74 27 16 0 0
-4.4755 2.8380 -13.4692 -0.781 0.255 0.570 158 115 88 0 0
-4.4812 2.7660 -14.4438 -0.439 0.683 0.584 107 74 68 0 0
-3.8681 1.4008 -12.5017 -0.342 0.117 0.932 109 47 34 0 0
-4.0378 1.8557 -12.3976 -0.403 0.141 0.904 115 49 35 0 0
-4.0450 1.8729 -12.4172 -0.778 0.353 0.519 117 49 34 0 0
-4.2204 2.3322 -12.4374 -0.140 0.417 0.898 120 48 30 0 0
-4.3028 2.5419 -12.5156 -0.267 0.607 0.748 120 47 30 0 0
-4.4335 2.8531 -12.8900 -0.732 0.571 0.372 87 46 39 0 0
-4.4247 2.7915 -13.3384 -0.597 0.650 0.471 20 4 3 0 0
-4.4303 2.8042 -13.3631 -0.597 0.650 0.471 34 5 3 0 0
-4.4401 2.8251 -13.4174 -0.408 0.759 0.507 81 20 7 0 0
-4.4524 2.8573 -13.4202 -0.728 0.685 0.026 104 44 19 0 0
-4.4552 2.8616 -13.4544 -0.746 0.441 0.498 150 94 70 0 0
-4.4589 2.8687 -13.4854 -0.709 0.602 0.367 134 82 50 0 0
-4.4639 2.8794 -13.5125 -0.709 0.602 0.367 115 65 32 0 0
-4.4729 2.9021 -13.5260 -0.184 0.869 0.459 98 53 32 0 0
-3.9882 1.8027 -12.3859 -0.206 0.227 0.952 118 53 39 0 0
-4.4140 2.8876 -12.7519 -0.365 0.432 0.825 74 28 21 0 0
-4.3840 2.7632 -13.3040 0.009 0.974 0.228 14 2 1 0 0
-4.3781 2.7426 -13.3656 -0.170 0.955 0.245 16 4 3 0 0
-4.4113 2.8277 -13.3872 -0.648 0.291 0.703 55 10 4 0 0
-4.4245 2.8624 -13.3873 -0.739 0.593 0.320 79 16 6 0 0
-4.4315 2.8790 -13.4075 -0.728 0.685 0.026 97 25 5 0 0
-4.4302 2.8718 -13.4547 -0.581 0.804 0.129 130 68 41 0 0
-4.4320 2.8733 -13.4921 -0.647 0.745 0.159 143 90 60 0 0
-3.7938 1.3627 -12.4839 0.001 0.236 0.972 109 48 35 0 0
-3.9935 1.8830 -12.5003 -0.584 0.295 0.756 122 50 35 0 0
-3.9998 1.8975 -12.5227 -0.532 0.503 0.681 119 47 32 0 0
-4.0760 2.1010 -12.4693 -0.477 0.295 0.828 119 46 29 0 0
-4.0853 2.1241 -12.4829 -0.477 0.295 0.828 119 46 29 0 0
-4.1078 2.1815 -12.4990 -0.250 0.289 0.924 121 48 31 0 0
-4.3907 2.8971 -12.7897 -0.189 0.558 0.808 71 28 19 0 0
-4.3935 2.8919 -12.9451 -0.679 0.095 0.728 107 67 59 0 0
-4.4216 2.9659 -12.9395 -0.079 -0.204 0.976 15 2 2 0 0
-4.3484 2.7463 -13.2956 -0.634 0.591 0.500 13 1 1 0 0
-4.3471 2.7356 -13.3850 -0.856 0.313 0.411 16 4 4 0 0
-4.3827 2.8274 -13.3993 -0.608 0.175 0.775 53 10 5 0 0
-4.4096 2.8910 -13.4839 -0.614 0.745 0.261 147 97 67 0 0
-4.4168 2.9081 -13.5037 -0.325 0.633 0.702 142 97 64 0 0
-3.7675 1.3714 -12.4856 0.012 0.256 0.966 110 47 34 0 0
-3.9676 1.8971 -12.4238 -0.028 0.916 0.401 118 46 31 0 0
-3.9854 1.9380 -12.4933 -0.359 0.301 0.884 120 48 33 0 0
-3.9950 1.9619 -12.5065 -0.267 0.362 0.893 119 47 32 0 0
-4.3645 2.8923 -12.9181 -0.679 0.095 0.728 87 46 39 0 0
-4.3989 2.9806 -12.9346 -0.079 -0.204 0.976 20 1 1 0 0
-4.3249 2.7604 -13.2915 -0.924 0.060 0.377 12 1 1 0 0
-4.3593 2.8423 -13.3943 -0.406 0.573 0.712 49 10 4 0 0
-4.3739 2.8806 -13.3903 -0.547 0.683 0.483 64 12 5 0 0
-4.3852 2.9062 -13.4394 -0.319 0.883 0.345 96 28 11 0 0
-4.4140 2.9135 -14.3187 -0.750 0.659 -0.056 103 70 63 0 0
-3.9522 1.9284 -12.4763 -0.429 0.369 0.824 121 49 34 0 0
-3.9641 1.9587 -12.4832 -0.565 0.308 0.765 121 48 33 0 0
-4.2028 2.5753 -12.5230 -0.140 0.855 0.499 126 51 33 0 0
-4.3537 2.9378 -12.9173 -0.652 0.174 0.738 91 52 41 0 0
-4.3614 2.9566 -12.9344 -0.110 -0.097 0.989 104 64 56 0 0
-4.2990 2.7679 -13.2948 -0.966 0.257 -0.026 14 3 2 0 0
-4.3864 2.9777 -13.5268 -0.280 0.480 0.832 115 55 24 0 0
-3.9379 1.9658 -12.4864 -0.452 0.242 0.859 119 46 31 0 0
-3.9479 1.9907 -12.4987 -0.452 0.242 0.859 123 50 35 0 0
-4.1700 2.5649 -12.5076 -0.648 0.109 0.754 118 43 24 0 0
-4.3364 2.9708 -12.8549 -0.862 0.392 0.322 77 39 30 0 0
-4.3413 2.9815 -12.8807 -0.862 0.392 0.322 87 48 39 0 0
-4.3391 2.9727 -12.9280 -0.156 -0.071 0.985 102 59 50 0 0
-4.3096 2.8663 -13.3520 -0.618 -0.007 0.787 39 8 6 0 0
-4.3518 2.9638 -13.5152 -0.454 0.373 0.810 148 97 64 0 0
-4.3999 3.0903 -13.4879 -0.804 0.591 0.060 90 45 33 0 0
-4.4031 3.0869 -13.6499 -0.818 0.472 0.328 65 19 10 0 0
-4.4011 3.0660 -13.8749 -0.854 0.353 0.383 101 73 69 0 0
-4.3822 2.9771 -14.4354 -0.716 0.698 -0.022 104 71 64 0 0
-3.6537 1.3091 -12.4632 -0.311 -0.175 0.934 111 48 35 0 0
-3.9024 1.9499 -12.4755 -0.211 0.567 0.796 120 48 33 0 0
-4.1283 2.5324 -12.4783 -0.319 0.664 0.677 123 48 29 0 0
-4.3068 2.9662 -12.8711 -0.629 0.773 0.082 73 33 25 0 0
-4.3086 2.9684 -12.9062 -0.629 0.773 0.082 81 42 34 0 0
-4.3094 2.9679 -12.9444 -0.778 0.553 0.299 94 52 43 0 0
-4.2901 2.8886 -13.3775 -0.430 0.718 0.547 42 9 5 0 0
-4.3369 2.9993 -13.5259 -0.415 0.492 0.765 140 86 51 0 0
-4.3468 3.0240 -13.5370 -0.477 0.359 0.802 110 49 24 0 0
-4.3784 3.0981 -13.6491 -0.621 0.379 0.686 65 21 14 0 0
-4.3867 3.1184 -13.6651 -0.479 0.169 0.861 80 27 15 0 0
-4.3792 3.0855 -13.8643 -0.951 0.210 0.225 101 75 70 0 0
-4.3485 2.9434 -14.7889 -0.625 0.770 -0.128 93 61 54 0 0
-3.6060 1.2646 -12.4410 -0.162 0.172 0.972 111 47 35 0 0
-3.6200 1.3004 -12.4445 -0.219 0.262 0.940 111 47 35 0 0
-4.0132 2.3081 -12.4967 -0.030 0.287 0.957 120 45 26 0 0
-4.0942 2.5182 -12.4667 -0.280 0.264 0.923 119 44 25 0 0
-4.2970 3.0190 -12.7872 -0.463 0.483 0.743 70 26 19 0 0
-4.3016 3.0291 -12.8135 -0.840 0.284 0.461 70 28 20 0 0
-4.2893 2.9926 -12.8909 -0.778 0.628 -0.011 77 38 29 0 0
-4.2872 2.9814 -12.9785 -0.166 -0.214 0.963 104 62 51 0 0
-4.2652 2.8990 -13.3775 -0.569 0.709 0.417 38 7 5 0 0
-4.2699 2.9066 -13.4472 -0.385 0.657 0.648 45 8 6 0 0
-4.3599 3.1263 -13.6284 -0.494 0.374 0.785 63 25 19 0 0
-3.2545 0.4292 -12.6136 -0.253 -0.454 0.854 216 213 216 0 0
-3.3705 0.7341 -12.4914 -0.373 -0.327 0.868 102 58 50 0 0
-3.5557 1.2131 -12.4250 0.191 0.136 0.972 110 48 36 0 0
-3.5797 1.2736 -12.4424 -0.063 0.038 0.997 112 48 37 0 0
-3.5928 1.3067 -12.4484 -0.254 0.077 0.964 112 48 36 0 0
-4.0709 2.5316 -12.4634 -0.280 0.264 0.923 120 45 26 0 0
-4.0811 2.5571 -12.4738 -0.280 0.264 0.923 124 49 30 0 0
-4.2926 3.0860 -12.6882 -0.071 0.550 0.832 72 27 18 0 0
-4.2732 3.0203 -12.9470 -0.923 0.270 0.275 102 60 52 0 0
-4.2791 3.0342 -12.9695 -0.478 -0.117 0.871 99 62 56 0 0
-4.2387 2.9047 -13.3829 -0.069 0.779 0.623 35 7 4 0 0
-4.3267 3.1136 -13.6555 -0.528 0.608 0.594 62 29 23 0 0
-4.3157 3.0364 -14.4449 -0.582 0.792 -0.184 103 70 63 0 0
-4.2347 2.6808 -16.8302 -0.747 -0.125 0.653 139 139 140 0 0
-4.9765 4.5763 -16.9335 -0.163 0.552 0.817 205 203 204 0 0
-3.2388 0.4700 -12.5873 -0.253 -0.454 0.854 212 204 205 0 0
-3.4209 0.9384 -12.5386 -0.706 0.679 -0.200 108 47 35 0 0
-3.5275 1.2172 -12.4310 -0.239 0.013 0.971 110 48 35 0 0
-3.5446 1.2612 -12.4270 -0.087 0.050 0.995 111 47 36 0 0
-3.5554 1.2880 -12.4390 -0.176 0.023 0.984 112 48 36 0 0
-3.9132 2.2002 -12.4789 -0.271 -0.030 0.962 121 46 27 0 0
-3.9265 2.2342 -12.4816 -0.271 -0.030 0.962 120 45 26 0 0
-4.2697 3.0827 -12.9649 -0.724 0.074 0.686 50 24 20 0 0
-4.2116 2.9041 -13.4737 -0.625 0.107 0.773 37 8 4 0 0
-4.2908 3.1039 -13.5204 -0.807 0.462 0.369 124 70 40 0 0
-4.2961 3.1158 -13.5461 -0.858 0.451 0.248 106 57 35 0 0
-4.3314 3.1928 -13.7747 -0.947 0.286 0.148 115 82 71 0 0
-4.2901 3.0476 -14.4445 -0.455 0.864 -0.216 102 67 61 0 0
-4.9514 4.5912 -16.9278 -0.341 0.561 0.755 206 204 205 0 0
-3.1923 0.4303 -12.5946 -0.253 -0.454 0.854 216 209 211 0 0
-3.4878 1.1928 -12.4265 -0.157 -0.007 0.988 110 46 34 0 0
-3.5039 1.2338 -12.4254 -0.239 0.013 0.971 111 46 34 0 0
-3.5195 1.2735 -12.4255 -0.087 0.050 0.995 112 46 34 0 0
-3.7276 1.8052 -12.4001 -0.517 0.426 0.742 120 52 35 0 0
-3.7824 1.9422 -12.4504 0.084 0.307 0.948 122 49 34 0 0
-3.9032 2.2483 -12.4777 -0.110 0.080 0.991 126 51 32 0 0
-4.2398 3.0824 -12.9010 -0.928 0.197 0.316 85 45 37 0 0
-4.2447 3.0934 -12.9266 -0.920 0.221 0.325 100 60 52 0 0
-4.2510 3.1082 -12.9479 -0.724 0.074 0.686 82 49 43 0 0
-4.2190 3.0073 -13.2906 -0.873 -0.210 0.441 31 7 3 0 0
-4.1922 2.9299 -13.4564 -0.621 0.162 0.767 35 9 5 0 0
-4.2588 3.0971 -13.5009 -0.714 0.643 0.278 158 103 82 0 0
-4.2663 3.1151 -13.5195 -0.728 0.613 0.307 129 79 50 0 0
-4.2711 3.1259 -13.5465 -0.707 0.485 0.514 112 61 35 0 0
-4.2737 3.1282 -13.6232 -0.555 0.726 0.406 83 46 38 0 0
-4.3122 3.2211 -13.7133 -0.708 0.105 0.699 121 66 50 0 0
-4.3192 3.2379 -13.7336 -0.888 0.237 0.393 119 76 61 0 0
-4.3221 3.2435 -13.7670 -0.926 0.347 0.147 108 78 70 0 0
-4.2046 2.7716 -16.8365 -0.693 0.020 0.720 142 142 144 0 0
-4.9211 4.5915 -16.9461 -0.256 0.703 0.664 207 205 206 0 0
-3.4797 1.2487 -12.4215 -0.238 -0.047 0.970 113 47 35 0 0
-3.4946 1.2864 -12.4233 -0.238 -0.047 0.970 114 47 34 0 0
-4.2241 3.1157 -12.8755 -0.941 0.170 0.292 80 40 32 0 0
-4.2285 3.1254 -12.9024 -0.920 0.221 0.325 93 53 45 0 0
-4.1655 2.9357 -13.4617 -0.299 0.169 0.939 34 8 5 0 0
-4.1779 2.9668 -13.4655 -0.342 0.232 0.911 37 8 5 0 0
-4.2497 3.1456 -13.5357 -0.707 0.485 0.514 117 64 33 0 0
-4.2699 3.1980 -13.5143 -0.623 0.760 0.183 105 52 35 0 0
-4.2558 3.1577 -13.6009 -0.620 0.653 0.434 89 49 40 0 0
-4.3021 3.2671 -13.7513 -0.835 0.467 0.291 112 81 71 0 0
-4.2912 3.2353 -13.8297 -0.736 0.669 -0.108 102 76 69 0 0
-4.2302 3.0339 -14.7017 -0.741 0.652 -0.161 105 72 65 0 0
-4.1541 2.7909 -15.6334 -0.565 0.758 -0.325 54 47 47 0 0
-4.1464 2.7648 -15.7596 -0.385 0.888 -0.253 59 55 52 0 0
-4.1743 2.8250 -15.9595 -0.837 -0.412 0.361 67 62 61 0 0
-4.1910 2.8679 -15.9491 -0.837 -0.412 0.361 70 68 66 0 0
-3.4403 1.2232 -12.4548 0.055 0.191 0.980 115 49 36 0 0
-3.8138 2.1724 -12.3911 -0.262 0.448 0.855 119 46 29 0 0
-3.8227 2.1943 -12.4059 -0.067 0.438 0.897 120 47 29 0 0
-4.2214 3.1875 -12.7327 -0.766 0.318 0.559 75 32 24 0 0
-4.2073 3.1457 -12.8536 -0.861 0.412 0.298 77 36 28 0 0
-4.2119 3.1562 -12.8796 -0.804 0.490 0.338 87 47 39 0 0
-4.1546 2.9817 -13.4606 -0.342 0.232 0.911 38 8 6 0 0
-4.2340 3.1784 -13.5493 -0.533 0.439 0.723 115 60 33 0 0
-4.8715 4.6256 -16.8762 -0.735 0.261 0.626 205 203 204 0 0
-3.0560 0.3214 -12.6072 -0.334 -0.495 0.802 213 208 209 0 0
-3.6939 1.9380 -12.4847 0.055 0.571 0.819 121 48 31 0 0
-3.7872 2.1780 -12.3957 -0.110 0.155 0.982 119 46 29 0 0
-3.7972 2.2024 -12.4080 -0.067 0.438 0.897 120 47 30 0 0
-4.1959 3.1899 -12.8159 -0.869 0.487 0.090 74 34 26 0 0
-4.1924 3.1787 -12.8658 -0.804 0.490 0.338 83 43 35 0 0
-4.2130 3.1990 -13.5374 -0.604 0.618 0.503 119 60 28 0 0
-4.2298 3.2418 -13.5269 -0.378 0.074 0.923 101 50 32 0 0
-4.2267 3.2316 -13.5785 -0.574 0.713 0.403 83 42 35 0 0
-4.1834 3.0498 -15.1026 -0.946 0.059 0.319 88 50 44 0 0
-4.1082 2.8151 -16.0509 0.866 0.448 0.221 65 64 62 0 0
-3.6031 1.7878 -12.3838 -0.352 0.291 0.890 117 49 30 0 0
-3.7001 2.0310 -12.4042 -0.360 0.343 0.867 121 48 31 0 0
-3.8700 2.4580 -12.4178 0.128 0.092 0.988 120 45 26 0 0
-3.9855 2.7474 -12.4500 -0.398 0.402 0.825 117 40 20 0 0
-4.1045 3.0038 -13.4199 0.211 0.942 0.259 33 7 3 0 0
-4.2016 3.2431 -13.5376 -0.693 0.166 0.702 109 53 30 0 0
-4.2066 3.2543 -13.5641 -0.839 0.487 0.244 90 44 36 0 0
-4.2224 3.2776 -13.9389 -0.719 0.691 -0.077 99 69 61 0 0
-4.2040 3.2207 -14.1727 -0.669 0.725 -0.163 100 66 57 0 0
-4.2090 3.2243 -14.3775 -0.925 0.381 0.015 102 68 59 0 0
-4.1496 3.0517 -14.8945 -0.524 0.848 0.075 105 72 67 0 0
-4.1584 3.0604 -15.1924 -0.706 0.644 -0.294 103 60 50 0 0
-3.0855 0.5560 -12.5319 -0.308 -0.176 0.935 102 52 42 0 0
-3.6670 2.0218 -12.3868 -0.360 0.343 0.867 124 53 35 0 0
-3.6767 2.0454 -12.4002 -0.360 0.343 0.867 122 50 31 0 0
-3.7893 2.3244 -12.4896 0.061 0.777 0.626 121 45 26 0 0
-3.9167 2.6455 -12.4561 -0.585 0.020 0.810 123 46 26 0 0
-4.1545 3.2282 -12.7959 -0.765 0.447 0.463 71 31 22 0 0
-4.1493 3.2096 -12.9295 -0.890 0.380 0.250 97 55 48 0 0
-4.1071 3.0815 -13.4609 0.263 0.438 0.860 40 8 5 0 0
-4.1864 3.2768 -13.5499 -0.103 0.725 0.682 97 47 35 0 0
-4.2001 3.2955 -13.9300 -0.421 0.902 -0.099 99 70 63 0 0
-4.1973 3.2862 -13.9821 -0.579 0.788 -0.210 99 69 61 0 0
-4.0706 2.9008 -15.5959 -0.627 0.675 -0.389 59 55 54 0 0
-3.6528 2.0588 -12.3972 -0.286 0.391 0.875 121 48 29 0 0
-3.7638 2.3342 -12.4534 -0.529 0.379 0.759 121 46 27 0 0
-3.7723 2.3551 -12.4691 -0.414 0.481 0.773 120 44 25 0 0
-4.1348 3.2500 -12.7829 -0.637 0.427 0.642 66 27 20 0 0
-4.0937 3.1220 -13.4263 -0.707 0.419 0.570 39 9 5 0 0
-4.1651 3.2964 -13.5391 -0.182 0.635 0.751 106 53 32 0 0
-4.1565 3.2722 -13.6074 -0.598 0.052 0.800 88 45 39 0 0
-4.1695 3.3045 -13.6090 -0.795 0.508 0.331 80 42 34 0 0
-4.1289 3.1482 -15.0191 -0.595 0.772 0.222 95 62 56 0 0
-4.1109 3.0989 -15.1270 -0.168 0.986 0.007 92 55 48 0 0
-3.9798 2.6983 -16.9911 -0.934 0.340 -0.107 127 129 128 0 0
-3.6286 2.0710 -12.3955 -0.355 0.388 0.850 120 47 28 0 0
-3.8041 2.5076 -12.4351 -0.673 0.149 0.725 121 44 26 0 0
-4.1138 3.2680 -12.7741 -0.637 0.427 0.642 67 28 26 0 0
-4.1272 3.3015 -12.7743 -0.251 0.007 0.968 68 32 27 0 0
-4.1159 3.2705 -12.8464 -0.817 0.571 -0.075 74 39 31 0 0
-4.0714 3.1390 -13.4188 -0.520 0.530 0.670 39 8 4 0 0
-4.1331 3.2893 -13.5201 -0.574 0.356 0.737 128 78 38 0 0
-4.2053 3.4609 -13.7549 -0.606 0.779 -0.164 102 74 67 0 0
-4.2029 3.4532 -13.8047 -0.387 0.878 0.280 99 69 62 0 0
-3.9852 2.7956 -16.9718 0.586 -0.113 0.802 131 133 133 0 0
-3.2737 1.2578 -12.4818 -0.360 0.302 0.883 114 47 31 0 0
-3.2857 1.2874 -12.4912 -0.048 0.660 0.750 114 48 32 0 0
-3.7061 2.3351 -12.4366 -0.446 0.716 0.537 121 47 28 0 0
-3.7240 2.3785 -12.4662 -0.364 0.414 0.834 120 44 25 0 0
-4.0928 3.2860 -12.7653 -0.637 0.427 0.642 74 32 30 0 0
-4.1013 3.3066 -12.7798 -0.437 0.563 0.702 70 32 26 0 0
-4.1112 3.3070 -13.5115 -0.574 0.356 0.737 133 84 47 0 0
-4.1828 3.4758 -13.7899 -0.159 0.873 0.461 99 70 62 0 0
-2.8797 0.3544 -12.5240 -0.228 -0.404 0.886 104 66 61 0 0
-2.9236 0.4640 -12.5027 -0.231 -0.131 0.964 102 53 45 0 0
-3.0729 0.8340 -12.5084 -0.304 0.268 0.914 109 48 36 0 0
-3.6766 2.3342 -12.4112 -0.586 0.683 0.435 119 46 27 0 0
-4.0785 3.3199 -12.7763 -0.437 0.563 0.702 70 31 24 0 0
-4.0854 3.3365 -12.7953 -0.665 0.507 0.549 72 34 25 0 0
-4.0905 3.3471 -12.8586 -0.938 0.330 0.107 87 47 39 0 0
-4.1443 3.4549 -13.7070 -0.499 0.812 0.302 121 66 44 0 0
-2.7643 0.1445 -12.6035 -0.275 -0.502 0.820 208 204 203 0 0
-3.0173 0.7721 -12.5367 -0.112 0.366 0.924 109 48 37 0 0
-3.0471 0.8466 -12.5068 -0.497 0.007 0.868 111 49 37 0 0
-3.6540 2.3499 -12.4057 -0.663 0.647 0.377 120 47 28 0 0
-3.7635 2.6193 -12.4621 -0.660 0.343 0.669 122 44 24 0 0
-3.7713 2.6381 -12.4794 -0.660 0.343 0.669 123 45 25 0 0
-4.0561 3.3341 -12.7717 -0.501 0.545 0.672 68 30 22 0 0
-4.0356 3.2775 -12.9864 -0.102 0.068 0.992 93 53 45 0 0
-4.1238 3.4750 -13.7355 -0.522 0.833 0.184 115 71 58 0 0
-3.1930 1.2836 -12.4506 -0.473 -0.150 0.868 116 49 33 0 0
-3.6241 2.3474 -12.4185 -0.286 0.619 0.732 121 47 28 0 0
-4.1025 3.4931 -13.7667 -0.626 0.693 0.357 114 78 66 0 0
-4.0994 3.4842 -13.8181 -0.027 0.985 0.173 103 77 70 0 0
-4.0233 3.2653 -15.0723 -0.868 0.424 0.259 94 58 50 0 0
-3.9977 3.1955 -15.3437 -0.683 0.618 -0.390 68 45 42 0 0
-2.7049 0.1555 -12.5756 -0.197 -0.400 0.895 173 155 152 0 0
-2.7273 0.2109 -12.5653 -0.158 -0.284 0.946 110 75 70 0 0
-2.8910 0.6152 -12.4728 -0.120 -0.011 0.993 106 47 37 0 0
-2.9612 0.7863 -12.5434 -0.497 0.688 0.529 110 48 37 0 0
-3.1589 1.2754 -12.3944 -0.087 0.678 0.730 117 51 34 0 0
-4.0247 3.3948 -12.8014 -0.867 0.468 0.172 70 32 24 0 0
-4.0426 3.4223 -13.5434 -0.707 0.582 0.403 121 55 23 0 0
-4.0685 3.4832 -13.6704 -0.524 0.599 0.606 73 26 17 0 0
-4.0751 3.4989 -13.6916 -0.524 0.599 0.606 81 30 14 0 0
-4.0734 3.4918 -13.8217 -0.308 0.945 0.110 108 78 71 0 0
-4.0052 3.2969 -15.0456 -0.515 0.847 0.132 93 59 52 0 0
-3.9988 3.2798 -15.1126 -0.705 0.124 0.698 95 53 46 0 0
-2.6562 0.1139 -12.5835 -0.197 -0.400 0.895 185 170 169 0 0
-2.6818 0.1769 -12.5667 -0.160 -0.356 0.921 113 81 78 0 0
-2.7051 0.2344 -12.5545 -0.158 -0.284 0.946 104 63 56 0 0
-2.7515 0.3486 -12.5301 -0.145 -0.245 0.959 101 50 43 0 0
-3.7252 2.7366 -12.4459 -0.404 0.457 0.792 124 46 27 0 0
-3.8333 3.0005 -12.4996 -0.197 0.398 0.896 128 50 28 0 0
-4.0029 3.4104 -12.7951 -0.833 0.376 0.406 73 33 26 0 0
-4.0219 3.4426 -13.5317 -0.732 0.487 0.477 121 54 17 0 0
-4.0361 3.4758 -13.6117 -0.494 0.830 0.259 78 40 31 0 0
-3.9814 3.3142 -15.0377 -0.577 0.802 0.153 95 62 57 0 0
-3.9868 3.3269 -15.0655 -0.623 0.775 0.107 93 56 48 0 0
-3.9032 3.1091 -15.7186 -0.209 0.962 -0.174 61 58 58 0 0
-2.6072 0.0721 -12.5915 -0.197 -0.400 0.895 198 187 185 0 0
-2.6332 0.1359 -12.5741 -0.160 -0.356 0.921 123 89 89 0 0
-3.7292 2.8162 -12.4471 -0.726 0.367 0.581 128 50 29 0 0
-3.9860 3.4383 -12.7751 -0.642 0.413 0.646 78 34 25 0 0
-3.9931 3.4553 -12.7935 -0.675 0.160 0.720 77 34 27 0 0
-4.0056 3.4725 -13.5881 -0.801 0.524 0.289 98 47 33 0 0
-4.0180 3.5028 -13.5917 -0.716 0.627 0.305 83 44 35 0 0
-4.0239 3.5162 -13.6558 -0.555 0.772 0.311 63 27 17 0 0
-4.0287 3.5275 -13.6823 -0.422 0.712 0.561 67 24 13 0 0
-3.9580 3.3320 -15.0289 -0.365 0.929 0.065 95 65 59 0 0
-3.9598 3.3358 -15.0684 -0.311 0.929 0.201 95 62 54 0 0
-3.9627 3.3422 -15.1045 -0.483 0.845 0.230 93 52 43 0 0
-3.9687 3.3566 -15.1303 -0.547 0.785 -0.291 103 57 47 0 0
-2.5580 0.0300 -12.5995 -0.204 -0.405 0.891 208 198 200 0 0
-2.5888 0.1054 -12.5724 -0.200 -0.384 0.902 136 108 107 0 0
-2.6115 0.1609 -12.5622 -0.084 -0.263 0.961 106 66 62 0 0
-3.1892 1.5705 -12.4065 -0.119 -0.072 0.990 117 48 33 0 0
-3.6153 2.6080 -12.4526 -0.024 0.405 0.914 122 42 22 0 0
-3.9646 3.4545 -12.7681 -0.564 0.475 0.676 80 33 22 0 0
-3.9496 3.4160 -12.9251 -0.758 -0.144 0.636 83 42 36 0 0
-3.9914 3.5089 -13.5569 -0.848 0.352 0.396 104 48 32 0 0
-3.9923 3.5100 -13.6357 -0.593 0.244 0.767 78 41 31 0 0
-4.0009 3.5307 -13.6508 -0.555 0.772 0.311 67 31 22 0 0
-4.0067 3.5445 -13.6743 -0.542 0.760 0.358 65 24 16 0 0
-4.0110 3.5546 -13.7024 -0.542 0.760 0.358 76 27 14 0 0
-3.9374 3.3558 -15.1014 -0.483 0.845 0.230 95 57 48 0 0
-3.9461 3.3767 -15.1183 -0.594 0.754 -0.281 94 52 41 0 0
-3.9244 3.3221 -15.2356 -0.871 0.472 -0.133 108 66 56 0 0
-3.8833 3.2189 -15.4639 -0.490 0.783 -0.383 62 46 45 0 0
-3.8630 3.1678 -15.5781 -0.619 0.721 -0.311 57 49 47 0 0
-2.5084 -0.0127 -12.6080 -0.239 -0.464 0.853 211 205 207 0 0
-2.7650 0.6122 -12.4768 -0.123 0.173 0.977 108 48 37 0 0
-2.7826 0.6549 -12.4762 0.058 0.265 0.963 109 48 37 0 0
-3.5919 2.6212 -12.4496 -0.312 0.365 0.877 122 42 21 0 0
-3.6010 2.6431 -12.4638 -0.045 0.274 0.961 125 44 23 0 0
-3.6198 2.6889 -12.4534 0.138 0.364 0.921 127 46 25 0 0
-3.6220 2.6940 -12.4849 -0.518 0.266 0.813 127 46 25 0 0
-3.7457 2.9946 -12.4645 -0.238 0.460 0.855 128 45 27 0 0
-3.9342 3.4477 -12.9007 -0.779 -0.021 0.627 83 43 33 0 0
-3.9727 3.5340 -13.5392 -0.848 0.352 0.396 113 51 30 0 0
-4.0108 3.6272 -13.4667 -0.537 0.828 0.159 93 45 33 0 0
-3.9725 3.5324 -13.6212 -0.638 0.065 0.767 82 42 33 0 0
-4.0094 3.6215 -13.6737 -0.438 0.128 0.890 97 45 31 0 0
-4.0295 3.6702 -13.6946 -0.536 0.270 0.800 117 76 64 0 0
-4.0426 3.7015 -13.7369 0.278 0.853 0.442 100 71 64 0 0
-3.9127 3.3705 -15.0966 -0.566 0.777 0.277 95 58 51 0 0
-3.9092 3.3608 -15.1991 -0.811 0.580 -0.079 101 59 48 0 0
-3.8670 3.2557 -15.4298 -0.712 0.614 -0.341 62 46 43 0 0
-3.8442 3.1991 -15.5514 -0.723 0.617 -0.312 56 47 47 0 0
-3.8323 3.1692 -15.6377 -0.635 0.695 -0.338 52 49 50 0 0
-2.5209 0.0959 -12.5621 -0.122 -0.270 0.955 108 72 66 0 0
-2.7534 0.6598 -12.4816 0.014 0.220 0.975 110 50 39 0 0
-3.1595 1.6441 -12.3937 -0.338 -0.101 0.936 123 51 36 0 0
-3.5685 2.6342 -12.4467 -0.312 0.365 0.877 124 43 22 0 0
-3.6019 2.7150 -12.4737 -0.268 0.229 0.936 129 48 27 0 0
-3.7315 3.0289 -12.4756 -0.163 0.489 0.857 129 48 28 0 0
-3.9230 3.4903 -12.7505 -0.247 0.757 0.605 89 40 27 0 0
-3.9442 3.5414 -12.7677 -0.124 0.201 0.972 75 32 24 0 0
-3.9384 3.5270 -12.8219 -0.855 0.456 0.248 79 39 28 0 0
-3.9420 3.5355 -12.8500 -0.855 0.456 0.248 91 49 37 0 0
-3.9867 3.6384 -13.4657 -0.609 0.733 0.302 100 49 28 0 0
-3.9982 3.6646 -13.6740 -0.548 0.209 0.810 111 57 40 0 0
-4.0077 3.6874 -13.6862 -0.548 0.209 0.810 117 72 60 0 0
-3.9013 3.4225 -14.5179 0.051 0.987 0.152 100 65 61 0 0
-3.8883 3.3862 -15.0907 -0.566 0.777 0.277 97 63 56 0 0
-3.8924 3.3954 -15.1681 -0.922 0.386 -0.034 97 57 47 0 0
-3.8863 3.3799 -15.2337 -0.900 0.381 -0.210 113 69 59 0 0
-3.8129 3.1989 -15.6132 -0.635 0.695 -0.338 52 50 50 0 0
-2.5484 0.2393 -12.5984 -0.294 0.107 0.950 105 49 39 0 0
-3.2080 1.8338 -12.3699 -0.346 -0.138 0.928 121 49 34 0 0
-3.5023 2.5441 -12.4391 0.060 0.155 0.986 121 43 25 0 0
-3.5160 2.5771 -12.4421 -0.275 0.388 0.880 122 42 23 0 0
-3.5302 2.6115 -12.4437 -0.403 0.498 0.768 124 43 22 0 0
-3.5393 2.6333 -12.4581 -0.135 0.385 0.913 125 44 23 0 0
-3.6458 2.8905 -12.4485 -0.444 0.537 0.717 125 45 24 0 0
-3.9240 3.5601 -12.8333 -0.855 0.456 0.248 82 42 31 0 0
-3.9499 3.6177 -13.6635 -0.261 0.122 0.958 66 26 17 0 0
-3.9870 3.7074 -13.6744 -0.099 0.292 0.951 117 70 56 0 0
-3.9968 3.7309 -13.6858 -0.149 0.678 0.720 113 77 69 0 0
-3.9921 3.7193 -13.7406 -0.806 0.418 0.420 105 75 71 0 0
-3.8383 3.3379 -15.3958 -0.898 0.379 -0.223 56 48 47 0 0
-3.8253 3.3060 -15.4845 -0.728 0.565 -0.387 52 51 49 0 0
-3.6937 2.9843 -16.1556 0.440 0.891 -0.110 63 58 58 0 0
-2.3812 -0.0863 -12.6240 -0.267 -0.516 0.814 193 183 180 0 0
-3.6213 2.9004 -12.4488 -0.398 0.550 0.734 126 45 24 0 0
-3.9396 3.6634 -13.5002 -0.844 0.449 0.295 97 47 33 0 0
-3.9312 3.6428 -13.5651 -0.822 0.496 0.279 83 43 36 0 0
-3.9647 3.7231 -13.6679 -0.380 0.480 0.791 114 64 50 0 0
-3.9695 3.7346 -13.6941 -0.818 0.366 0.444 114 76 65 0 0
-3.9728 3.7425 -13.7247 -0.844 0.474 0.253 107 77 72 0 0
-3.9178 3.6087 -14.1814 -0.419 0.893 -0.163 99 64 57 0 0
-3.8977 3.5595 -14.4132 -0.981 -0.023 0.191 101 66 62 0 0
-3.7991 3.3185 -15.4829 -0.839 0.434 -0.328 51 50 48 0 0
-3.4984 2.6737 -12.4376 -0.476 0.188 0.859 126 45 24 0 0
-3.6497 3.0370 -12.4623 -0.497 0.302 0.814 131 49 28 0 0
-3.6592 3.0597 -12.4749 -0.527 0.309 0.792 127 45 24 0 0
-3.8371 3.4864 -13.4468 -0.888 0.315 0.334 45 10 6 0 0
-3.9326 3.7157 -13.4493 -0.272 0.538 0.798 102 50 32 0 0
-3.9537 3.7661 -13.7085 -0.890 0.436 0.133 112 78 69 0 0
-3.8125 3.4262 -15.3075 -0.887 0.359 -0.291 73 55 51 0 0
-3.7838 3.3570 -15.4924 -0.797 0.464 -0.387 54 50 46 0 0
-3.6771 3.1004 -16.1726 0.421 0.133 0.897 69 68 68 0 0
-3.3096 2.2906 -12.3580 -0.306 0.370 0.877 122 49 32 0 0
-3.3178 2.3105 -12.3750 -0.541 0.141 0.829 122 49 32 0 0
-3.4809 2.7010 -12.4200 -0.451 0.380 0.808 124 43 22 0 0
-3.4898 2.7222 -12.4349 -0.451 0.380 0.808 123 42 21 0 0
-3.6366 3.0738 -12.4707 -0.513 0.370 0.775 128 46 25 0 0
-3.8635 3.6203 -14.1517 -0.616 0.478 0.627 100 66 57 0 0
-3.8758 3.6499 -14.2402 -0.848 0.501 0.170 100 66 57 0 0
-3.1087 1.8811 -12.3647 0.207 0.344 0.916 121 48 33 0 0
-3.2984 2.3341 -12.3984 -0.187 -0.096 0.978 119 46 29 0 0
-3.3261 2.4001 -12.4058 0.054 0.342 0.938 125 50 31 0 0
-3.3357 2.4232 -12.4194 -0.121 0.379 0.917 123 48 27 0 0
-3.5019 2.8196 -12.3813 -0.273 0.621 0.734 128 47 26 0 0
-3.5092 2.8371 -12.3997 -0.168 0.595 0.786 126 45 24 0 0
-3.5687 2.9793 -12.4344 -0.595 0.461 0.658 131 49 28 0 0
-3.6223 3.1075 -12.4824 -0.013 0.220 0.975 132 50 29 0 0
-3.7035 3.3015 -12.4942 -0.525 0.649 0.550 126 49 28 0 0
-3.8293 3.6027 -12.7175 -0.820 0.533 0.207 115 63 37 0 0
-3.8207 3.5854 -13.3932 -0.649 0.513 0.562 41 10 4 0 0
-3.7972 3.5358 -14.8333 -0.208 0.956 -0.206 100 69 63 0 0
-3.7988 3.5412 -15.1377 -0.832 0.530 -0.165 95 52 42 0 0
-2.2466 -0.0983 -12.5967 -0.148 -0.394 0.907 117 82 75 0 0
-3.2507 2.2904 -12.4155 -0.078 0.044 0.996 122 49 32 0 0
-3.5483 2.9987 -12.4246 0.080 0.476 0.876 133 51 30 0 0
-3.7778 3.5521 -13.4057 -0.636 0.238 0.734 40 9 6 0 0
-3.7951 3.5931 -13.3964 -0.182 0.445 0.877 41 10 5 0 0
-3.8711 3.7744 -13.4552 -0.693 0.035 0.720 107 52 29 0 0
-3.7804 3.5696 -14.9802 -0.871 0.492 -0.002 100 70 64 0 0
-3.7820 3.5744 -15.1081 -0.819 0.559 -0.133 90 49 40 0 0
-2.2298 -0.0611 -12.5747 -0.180 -0.444 0.878 106 62 56 0 0
-2.5695 0.7432 -12.4009 0.076 0.903 0.424 112 50 37 0 0
-3.4211 2.7641 -12.3865 0.070 0.360 0.930 131 52 30 0 0
-3.7469 3.5466 -13.3455 -0.691 -0.351 0.632 37 8 4 0 0
-3.8376 3.7644 -13.6004 -0.637 0.516 0.573 78 40 31 0 0
-3.8406 3.7719 -13.6314 -0.507 0.822 0.258 71 32 23 0 0
-3.8437 3.7796 -13.6622 -0.507 0.822 0.258 67 22 12 0 0
-3.7538 3.5813 -15.2040 -0.775 0.582 -0.245 110 67 58 0 0
-2.1761 -0.1113 -12.5890 -0.180 -0.444 0.878 107 67 63 0 0
-2.5356 0.7372 -12.4159 -0.015 0.782 0.623 114 50 38 0 0
-2.9263 1.6613 -12.3836 -0.075 0.166 0.983 119 49 33 0 0
-3.0010 1.8382 -12.3993 -0.261 0.227 0.938 122 49 34 0 0
-3.7841 3.6959 -12.7582 -0.545 0.616 0.569 75 36 25 0 0
-3.7879 3.7152 -13.5930 -0.436 0.658 0.614 101 50 33 0 0
-3.7949 3.7320 -13.6126 -0.262 0.350 0.899 89 49 39 0 0
-3.8105 3.7689 -13.6075 -0.801 0.495 0.336 83 45 36 0 0
-3.7268 3.5873 -14.9416 -0.775 0.540 0.328 102 71 66 0 0
-3.7136 3.5605 -15.2929 -0.814 0.517 -0.266 97 59 49 0 0
-3.6080 3.3307 -16.9187 0.276 -0.433 0.858 131 133 132 0 0
-2.5033 0.7353 -12.4273 -0.157 0.478 0.865 115 51 39 0 0
-2.5106 0.7527 -12.4490 -0.154 0.704 0.693 116 52 40 0 0
-2.8963 1.6614 -12.3567 0.150 0.330 0.932 119 50 35 0 0
-2.9545 1.7988 -12.3734 -0.377 0.301 0.876 119 47 32 0 0
-3.1622 2.2889 -12.3743 -0.294 0.273 0.916 121 49 32 0 0
-3.2073 2.3961 -12.4145 -0.187 0.298 0.936 128 54 37 0 0
-3.2810 2.5701 -12.4226 -0.227 0.056 0.972 121 43 25 0 0
-3.4613 2.9956 -12.4232 -0.125 0.368 0.922 130 48 27 0 0
-3.4718 3.0205 -12.4337 -0.220 0.437 0.872 128 46 25 0 0
-3.7624 3.7108 -12.7526 -0.604 0.575 0.551 75 36 25 0 0
-3.7664 3.7328 -13.5842 -0.078 0.813 0.577 108 52 32 0 0
-3.7935 3.7968 -13.5859 -0.696 0.687 0.210 90 52 43 0 0
-3.7149 3.6316 -14.9417 -0.846 0.275 0.457 102 71 66 0 0
-3.7148 3.6320 -14.9857 -0.903 0.281 0.324 101 69 61 0 0
-2.0704 -0.2063 -12.6127 -0.241 -0.467 0.851 111 80 76 0 0
-2.1115 -0.1102 -12.5694 -0.254 -0.487 0.836 106 62 55 0 0
-2.4756 0.7440 -12.4292 -0.515 0.633 0.578 115 51 39 0 0
-2.4788 0.7518 -12.4596 -0.512 0.743 0.431 116 52 40 0 0
-2.4849 0.7667 -12.4836 -0.542 0.647 0.537 114 51 37 0 0
-2.9371 1.8289 -12.3916 -0.126 0.077 0.989 120 48 33 0 0
-3.1386 2.3027 -12.3709 -0.294 0.273 0.916 120 49 31 0 0
-3.6839 3.6056 -13.5108 -0.403 0.333 0.853 44 11 5 0 0
-3.6915 3.6493 -14.9774 0.310 0.182 0.933 101 69 62 0 0
-3.7137 3.7010 -14.9525 -0.478 0.877 -0.056 99 66 57 0 0
-3.6803 3.6274 -15.2324 -0.926 0.349 -0.143 109 59 49 0 0
-3.6710 3.6066 -15.3062 -0.917 0.355 -0.184 88 57 51 0 0
-3.1974 2.5109 -12.4300 -0.268 0.222 0.937 121 46 27 0 0
-3.4112 3.0131 -12.4629 -0.145 0.345 0.928 128 46 25 0 0
-3.5702 3.3863 -12.4673 -0.408 0.748 0.523 128 48 25 0 0
-3.5768 3.4022 -12.4869 -0.344 0.703 0.622 128 49 26 0 0
-3.7154 3.7484 -13.5502 -0.720 0.589 0.367 144 98 63 0 0
-3.5879 3.4910 -15.6191 -0.815 0.450 -0.364 57 50 50 0 0
-2.4191 0.7573 -12.3624 -0.836 0.292 0.464 115 52 37 0 0
-2.4254 0.7726 -12.3860 -0.797 0.346 0.495 115 51 39 0 0
-2.4237 0.7695 -12.4259 -0.671 0.702 0.240 114 50 38 0 0
-2.4267 0.7771 -12.4565 -0.671 0.702 0.240 114 50 38 0 0
-2.4297 0.7848 -12.4870 -0.671 0.702 0.240 113 49 36 0 0
-3.0913 2.3298 -12.3646 -0.360 0.443 0.821 122 47 31 0 0
-3.1027 2.3566 -12.3746 -0.368 0.383 0.848 124 48 32 0 0
-3.7172 3.8017 -12.7200 -0.500 0.284 0.818 76 37 30 0 0
-3.7479 3.8959 -13.7038 -0.463 0.734 0.497 85 36 25 0 0
-3.6449 3.6894 -15.2236 -0.975 0.161 0.152 112 68 56 0 0
-3.6388 3.6765 -15.2869 -0.845 0.436 -0.310 88 55 49 0 0
-3.5925 3.5736 -15.5208 -0.854 0.402 -0.329 55 48 48 0 0
-2.1191 0.1351 -12.5401 0.279 0.396 0.875 107 49 38 0 0
-2.1362 0.1751 -12.5434 0.252 0.275 0.928 108 50 38 0 0
-2.4072 0.8028 -12.3688 -0.746 0.333 0.577 116 50 37 0 0
-3.0799 2.3718 -12.3697 -0.492 0.319 0.810 124 48 32 0 0
-3.1767 2.5985 -12.3987 -0.222 0.324 0.920 123 48 29 0 0
-3.4489 3.2341 -12.4329 -0.005 0.444 0.896 128 46 24 0 0
-3.4900 3.3311 -12.4756 -0.104 0.354 0.930 132 51 29 0 0
-3.5024 3.3601 -12.4809 -0.052 0.334 0.941 132 54 31 0 0
-3.5123 3.3835 -12.4924 -0.157 0.677 0.719 136 58 36 0 0
-3.5247 3.4126 -12.4974 -0.253 0.406 0.878 138 60 37 0 0
-3.6895 3.8029 -12.7302 -0.672 0.399 0.623 78 35 28 0 0
-3.7248 3.9096 -13.6996 -0.529 0.691 0.493 73 29 18 0 0
-3.6036 3.6619 -15.0950 -0.716 0.611 0.338 101 68 61 0 0
-3.6318 3.7301 -15.1832 -0.976 0.158 0.151 100 55 44 0 0
-1.8501 -0.4115 -12.6710 -0.225 -0.533 0.816 196 185 185 0 0
-2.0967 0.1581 -12.5299 -0.236 0.094 0.967 109 51 39 0 0
-3.0485 2.3667 -12.3483 -0.565 0.290 0.773 123 47 31 0 0
-3.4918 3.4016 -12.4835 -0.272 0.507 0.818 136 58 36 0 0
-3.6800 3.8461 -12.7294 -0.505 0.220 0.834 76 35 27 0 0
-3.6908 3.8713 -12.7378 -0.293 0.371 0.881 71 31 24 0 0
-3.6343 3.7599 -13.4540 -0.706 0.483 0.518 52 10 3 0 0
-3.6881 3.8884 -13.5768 -0.571 0.740 0.354 95 55 48 0 0
-3.7019 3.9237 -13.6949 -0.529 0.691 0.493 64 20 12 0 0
-3.6826 3.8936 -14.2326 -0.783 0.608 0.127 101 66 60 0 0
-1.8999 -0.2225 -12.5601 -0.242 -0.528 0.814 111 67 64 0 0
-3.1399 2.6488 -12.4052 -0.492 0.681 0.542 123 46 28 0 0
-3.2619 2.9327 -12.4429 -0.493 0.542 0.681 125 43 22 0 0
-3.4340 3.3325 -12.4589 -0.457 0.668 0.587 135 55 32 0 0
-3.4737 3.4260 -12.5048 -0.319 0.394 0.862 129 50 28 0 0
-3.4861 3.4547 -12.5102 -0.437 0.340 0.833 132 53 32 0 0
-3.6610 3.8667 -12.7170 -0.239 0.400 0.885 74 33 24 0 0
-3.6680 3.8834 -12.7353 -0.293 0.371 0.881 72 32 24 0 0
-3.6125 3.7762 -13.4467 -0.555 0.690 0.466 53 14 7 0 0
-3.6793 3.9443 -13.8874 -0.663 0.733 -0.152 103 72 70 0 0
-2.0302 0.1536 -12.5152 0.237 -0.044 0.970 108 50 38 0 0
-3.1897 2.8318 -12.4114 0.434 0.321 0.842 127 45 24 0 0
-3.2019 2.8602 -12.4187 0.114 0.433 0.894 127 45 24 0 0
-3.4075 3.3371 -12.4649 -0.155 0.665 0.731 130 49 26 0 0
-3.4456 3.4269 -12.5148 -0.035 0.639 0.768 135 54 33 0 0
-3.6346 3.8708 -12.7239 -0.442 0.534 0.720 75 34 24 0 0
-3.6461 3.8975 -12.7305 -0.114 0.434 0.893 72 33 25 0 0
-3.6470 3.9007 -12.7646 -0.119 0.689 0.715 70 32 25 0 0
-3.6683 3.9739 -13.4961 -0.724 0.666 0.179 105 52 32 0 0
-3.6689 3.9804 -13.6497 -0.775 0.565 0.283 66 26 21 0 0
-3.6726 3.9897 -13.6786 -0.655 0.328 0.681 66 21 13 0 0
-3.6943 4.0406 -13.6956 -0.566 0.119 0.816 119 66 51 0 0
-3.6408 3.9310 -14.1270 -0.593 0.776 0.212 97 64 54 0 0
-1.8495 -0.1832 -12.6605 -0.901 0.195 0.388 105 48 39 0 0
-1.9756 0.1031 -12.5304 0.229 -0.115 0.967 109 49 39 0 0
-2.9185 2.2716 -12.3634 -0.512 0.302 0.804 120 47 30 0 0
-2.9557 2.3569 -12.3523 -0.011 0.759 0.651 122 46 30 0 0
-3.1403 2.7854 -12.4333 -0.478 -0.133 0.868 127 47 26 0 0
-3.1779 2.8715 -12.4176 -0.102 0.449 0.888 128 46 25 0 0
-3.3638 3.3011 -12.4410 0.133 0.420 0.898 128 46 24 0 0
-3.3887 3.3589 -12.4520 -0.156 0.436 0.886 130 48 24 0 0
-3.6196 3.9014 -12.7376 -0.472 0.312 0.825 73 35 25 0 0
-3.5466 3.7568 -13.4156 -0.336 -0.164 0.927 38 7 4 0 0
-3.5623 3.7956 -13.4884 -0.233 0.818 0.526 49 10 5 0 0
-3.6584 4.0160 -13.4564 -0.762 0.156 0.629 113 56 28 0 0
-3.6644 4.0306 -13.4782 -0.824 0.158 0.543 91 47 35 0 0
-3.6223 3.9542 -14.0685 -0.576 0.807 0.127 101 68 61 0 0
-3.6254 3.9654 -14.1805 -0.556 0.705 0.439 99 65 56 0 0
-3.6210 3.9572 -14.2337 -0.585 0.810 0.034 99 65 56 0 0
-3.5065 3.7348 -15.4219 -0.624 0.658 -0.422 61 42 39 0 0
-3.4358 3.5825 -15.7281 -0.743 0.488 -0.458 55 48 49 0 0
-2.8380 2.1551 -12.3778 0.220 0.121 0.968 122 49 32 0 0
-3.0275 2.5911 -12.3849 -0.182 0.541 0.821 124 48 30 0 0
-3.1250 2.8163 -12.4118 -0.064 0.167 0.984 128 47 26 0 0
-3.1527 2.8802 -12.4191 -0.102 0.449 0.888 127 45 24 0 0
-3.6051 3.9330 -12.7502 -0.611 0.438 0.660 71 31 27 0 0
-3.5364 3.8016 -13.4536 -0.107 0.888 0.448 43 9 5 0 0
-3.5415 3.8141 -13.4784 0.115 0.945 0.306 46 9 5 0 0
-3.6378 4.0344 -13.4462 -0.848 0.268 0.457 114 56 23 0 0
-3.6270 4.0180 -13.6691 -0.755 0.443 0.483 62 20 14 0 0
-3.6007 3.9736 -14.0992 -0.635 0.732 0.249 100 67 60 0 0
-3.6023 3.9802 -14.1751 -0.556 0.705 0.439 99 65 56 0 0
-3.5984 3.9732 -14.2266 -0.585 0.810 0.034 99 65 56 0 0
-3.4183 3.6145 -15.6994 -0.837 0.401 -0.372 53 49 51 0 0
-2.8103 2.1602 -12.3830 0.191 0.260 0.947 122 49 32 0 0
-2.8785 2.3165 -12.3763 0.117 0.570 0.813 122 46 30 0 0
-2.8890 2.3410 -12.3889 0.070 0.446 0.892 122 46 30 0 0
-2.9022 2.3716 -12.3952 -0.046 0.431 0.901 123 47 33 0 0
-3.1213 2.8740 -12.3993 -0.238 0.385 0.892 125 43 22 0 0
-3.1312 2.8974 -12.4118 -0.068 0.450 0.891 126 44 23 0 0
-3.2204 3.1034 -12.4532 -0.575 0.136 0.807 131 50 29 0 0
-3.2524 3.1751 -12.4136 -0.198 0.263 0.944 130 49 28 0 0
-3.2971 3.2792 -12.4495 -0.030 0.370 0.929 126 45 23 0 0
-3.4220 3.5691 -12.5392 -0.487 0.228 0.843 129 50 32 0 0
-3.5797 3.9394 -12.7544 -0.397 0.721 0.568 78 37 32 0 0
-3.5126 3.8150 -13.4900 -0.049 0.929 0.368 43 9 6 0 0
-3.5808 3.9968 -14.1249 -0.771 0.588 0.245 100 66 57 0 0
-3.5840 4.0055 -14.1558 -0.771 0.588 0.245 99 65 56 0 0
-3.5314 3.9176 -14.9719 -0.502 0.863 -0.055 98 65 58 0 0
-3.5181 3.8953 -15.1838 -0.694 0.701 -0.167 102 58 46 0 0
-3.3869 3.6177 -15.7583 -0.896 0.318 -0.311 55 52 54 0 0
-1.7734 -0.1325 -12.6082 -0.791 0.103 0.603 106 48 38 0 0
-2.8474 2.3138 -12.3893 0.033 0.540 0.841 123 47 31 0 0
-3.0832 2.8531 -12.3948 -0.357 0.421 0.834 127 44 24 0 0
-3.0963 2.8834 -12.4001 -0.126 0.511 0.850 131 48 28 0 0
-3.1055 2.9051 -12.4145 -0.126 0.511 0.850 129 47 26 0 0
-3.1157 2.9288 -12.4265 -0.068 0.450 0.891 131 49 28 0 0
-3.2000 3.1222 -12.4440 -0.476 0.103 0.873 141 59 38 0 0
-3.2288 3.1867 -12.4120 -0.142 0.264 0.954 131 49 28 0 0
-3.2399 3.2126 -12.4212 0.044 0.472 0.880 123 41 20 0 0
-3.2602 3.2599 -12.4442 -0.006 0.315 0.949 139 59 36 0 0
-3.2706 3.2843 -12.4549 -0.006 0.447 0.895 130 49 26 0 0
-3.4791 3.8059 -13.5140 -0.111 0.582 0.805 43 10 6 0 0
-3.5003 3.9046 -14.6929 -0.853 0.522 0.007 101 68 60 0 0
-3.4980 3.9193 -15.1659 -0.763 0.634 -0.125 94 52 40 0 0
-3.2046 3.1971 -12.4117 -0.232 0.143 0.962 129 47 26 0 0
-3.2159 3.2233 -12.4206 -0.125 0.380 0.917 131 49 28 0 0
-3.2154 3.2236 -12.4573 -0.188 0.154 0.970 131 49 27 0 0
-3.3305 3.4882 -12.5026 -0.398 0.179 0.900 134 52 31 0 0
-3.4981 3.9639 -14.5838 -0.880 0.443 0.170 101 68 59 0 0
-3.4784 3.9364 -14.9762 -0.644 0.754 -0.129 104 71 64 0 0
-3.1808 3.2081 -12.4107 -0.142 0.264 0.954 129 47 26 0 0
-3.2956 3.4713 -12.4580 -0.397 0.410 0.821 136 55 34 0 0
-3.3048 3.4929 -12.4713 -0.497 0.299 0.815 135 54 33 0 0
-3.3074 3.5002 -12.5005 -0.220 0.259 0.940 132 50 29 0 0
-3.5301 4.0194 -12.7713 -0.503 0.679 0.535 72 29 23 0 0
-3.4473 3.8640 -13.4679 -0.413 0.903 0.121 41 8 3 0 0
-3.4503 3.8723 -13.4979 -0.632 0.763 0.134 45 8 2 0 0
-3.5193 4.0724 -14.4090 -0.668 0.713 -0.213 99 66 57 0 0
-3.4637 3.9692 -14.9013 -0.500 0.866 0.012 103 70 65 0 0
-2.7489 2.2938 -12.4033 0.122 0.052 0.991 123 49 32 0 0
-3.4374 3.9057 -13.4293 0.204 0.290 0.935 41 8 3 0 0
-3.4565 3.9521 -13.4925 0.320 0.501 0.804 52 9 2 0 0
-3.5181 4.0949 -13.5558 -0.790 0.260 0.556 95 48 32 0 0
-3.5271 4.1391 -14.0358 -0.659 0.585 0.472 99 66 57 0 0
-3.5345 4.1589 -14.0940 -0.573 0.744 0.343 97 63 54 0 0
-3.4387 3.9797 -14.8572 -0.631 0.776 -0.011 103 70 65 0 0
-3.4368 3.9777 -14.9047 -0.756 0.647 0.095 103 70 65 0 0
-3.4352 3.9764 -14.9514 -0.719 0.681 0.143 105 72 66 0 0
-3.9525 5.2472 -16.9182 -0.125 0.046 0.991 203 201 202 0 0
-1.7033 0.0059 -12.5671 0.593 0.618 0.516 109 49 39 0 0
-2.7362 2.3292 -12.3415 0.482 0.703 0.523 121 48 32 0 0
-2.9525 2.8211 -12.3967 0.245 0.315 0.917 127 48 30 0 0
-2.9650 2.8497 -12.4039 0.197 0.229 0.953 129 51 31 0 0
-2.9784 2.8804 -12.4089 0.219 0.349 0.911 124 43 22 0 0
-3.4942 4.1042 -13.5166 -0.453 0.382 0.806 117 60 22 0 0
-3.5014 4.1215 -13.5351 -0.287 0.549 0.785 103 51 28 0 0
-3.5134 4.1570 -13.6937 -0.303 0.417 0.857 65 18 9 0 0
-3.4984 4.1393 -14.0073 -0.679 0.470 0.564 102 69 62 0 0
-3.5051 4.1556 -14.0279 -0.656 0.453 0.603 102 65 57 0 0
-3.5023 4.1516 -14.0753 -0.392 0.920 -0.007 99 62 53 0 0
-3.5013 4.1517 -14.1175 -0.392 0.920 -0.007 99 62 53 0 0
-4.4541 6.4500 -16.8848 -0.864 0.404 0.300 214 214 214 0 0
-3.1488 3.3330 -12.4568 -0.456 0.303 0.837 128 46 24 0 0
-3.2746 3.6196 -12.5128 -0.218 0.485 0.847 134 56 34 0 0
-3.3299 3.7448 -12.5210 -0.175 0.637 0.750 130 59 43 0 0
-3.5019 4.1863 -13.5065 -0.569 0.813 0.121 95 48 34 0 0
-3.4946 4.1791 -13.6786 -0.511 0.440 0.739 59 14 9 0 0
-3.5208 4.2407 -13.7221 -0.502 0.609 0.615 116 68 56 0 0
-3.4775 4.1622 -14.0753 -0.392 0.920 -0.007 100 63 54 0 0
-3.4734 4.1558 -14.1261 -0.525 0.850 -0.041 99 62 53 0 0
-3.4046 4.0539 -15.1008 -0.676 0.730 -0.102 90 49 38 0 0
-3.4017 4.0502 -15.1516 -0.660 0.733 -0.164 96 52 37 0 0
-3.3482 3.9427 -15.3956 -0.581 0.707 -0.404 79 48 42 0 0
-3.2576 3.7603 -15.7964 -0.156 0.946 -0.284 44 43 43 0 0
-3.2466 3.7399 -15.8735 -0.146 0.956 -0.256 31 31 32 0 0
-4.4195 6.4386 -16.8747 -0.682 -0.033 0.731 214 214 214 0 0
-4.4356 6.4741 -16.8583 -0.891 0.396 0.222 214 214 214 0 0
-4.4394 6.4845 -16.8921 -0.891 0.396 0.222 214 214 214 0 0
-4.4474 6.5035 -16.9086 -0.786 0.589 0.190 214 214 214 0 0
-1.5651 -0.1564 -12.5716 0.185 0.202 0.962 106 48 38 0 0
-2.8119 2.6361 -12.3861 -0.303 0.190 0.934 122 45 27 0 0
-3.0422 3.1587 -12.4702 -0.103 0.638 0.763 140 58 37 0 0
-3.0507 3.1786 -12.4861 -0.312 0.751 0.581 125 43 22 0 0
-3.4417 4.1634 -14.3441 -0.783 0.621 0.034 100 67 58 0 0
-3.2806 3.8730 -15.6044 -0.460 0.780 -0.424 61 48 45 0 0
-3.2523 3.8166 -15.7323 -0.472 0.808 -0.352 53 49 46 0 0
-4.3987 6.4579 -16.8579 -0.625 -0.121 0.771 214 214 214 0 0
-4.4193 6.5023 -16.8234 -0.837 0.500 0.221 213 213 213 0 0
-1.5427 -0.1307 -12.5977 -0.428 0.190 0.884 108 50 40 0 0
-3.0119 3.1542 -12.4487 -0.138 0.538 0.831 129 47 26 0 0
-3.0263 3.1887 -12.4861 -0.312 0.751 0.581 126 44 23 0 0
-3.2185 3.6203 -12.4971 -0.243 0.470 0.849 135 54 33 0 0
-3.2260 3.6382 -12.5144 -0.197 0.605 0.771 137 59 37 0 0
-3.4580 4.1751 -12.7976 -0.833 0.540 0.119 75 35 29 0 0
-3.3285 3.9239 -13.4579 -0.422 -0.030 0.906 43 9 4 0 0
-3.4226 4.1865 -14.3273 -0.783 0.621 0.034 99 66 56 0 0
-3.7676 5.1190 -17.0111 -0.402 0.608 0.685 201 201 201 0 0
-4.4035 6.5342 -16.8357 -0.837 0.500 0.221 207 207 207 0 0
-4.4071 6.5443 -16.8700 -0.838 0.500 0.218 204 204 204 0 0
-4.4098 6.5527 -16.9081 -0.814 0.515 0.268 211 211 211 0 0
-1.5271 -0.0926 -12.5750 -0.414 0.101 0.905 110 51 43 0 0
-3.2006 3.6452 -12.5178 -0.093 0.687 0.721 136 58 36 0 0
-3.4382 4.1930 -12.7879 -0.796 0.503 0.338 72 32 27 0 0
-3.4278 4.2236 -13.6612 -0.530 0.645 0.551 64 26 21 0 0
-3.4196 4.2209 -13.9133 -0.773 0.585 0.247 102 72 66 0 0
-3.4102 4.2037 -13.9778 -0.581 0.813 0.036 100 70 64 0 0
-3.3997 4.2015 -14.3214 -0.812 0.540 0.221 100 66 56 0 0
-3.3633 4.1338 -14.5437 -0.675 0.737 0.033 99 65 55 0 0
-3.3416 4.1222 -15.1426 -0.852 0.502 -0.151 94 48 33 0 0
-3.3366 4.1146 -15.1993 -0.850 0.518 -0.100 107 59 45 0 0
-3.1751 3.6522 -12.5212 -0.093 0.687 0.721 135 57 35 0 0
-3.1841 3.6730 -12.5352 -0.155 0.502 0.851 139 61 39 0 0
-3.3832 4.1267 -12.6886 -0.469 0.642 0.606 73 17 7 0 0
-3.4236 4.2707 -13.5321 0.085 0.453 0.888 85 44 36 0 0
-3.4051 4.2375 -13.6566 -0.490 0.688 0.536 69 34 27 0 0
-3.3999 4.2414 -13.9000 -0.773 0.585 0.247 104 72 64 0 0
-3.3941 4.2321 -13.9542 -0.495 0.868 0.019 99 69 63 0 0
-1.2347 -0.5890 -12.6642 -0.019 -0.380 0.925 112 62 58 0 0
-3.1662 3.6957 -12.5209 -0.656 0.246 0.714 139 61 41 0 0
-3.3694 4.2424 -13.9545 -0.718 0.696 0.005 100 70 65 0 0
-3.3752 4.2914 -13.5319 0.091 0.489 0.868 91 49 39 0 0
-3.3789 4.3017 -13.5594 -0.049 0.445 0.894 83 47 39 0 0
-3.6680 5.1747 -16.9407 -0.619 0.006 0.786 199 199 199 0 0
-2.8517 3.1172 -12.3939 -0.019 0.156 0.988 125 44 23 0 0
-2.9615 3.3625 -12.4273 -0.164 0.518 0.839 127 45 24 0 0
-3.0159 3.4863 -12.4780 -0.245 0.892 0.380 132 50 29 0 0
-3.3483 4.2964 -13.5387 -0.413 0.663 0.624 94 50 40 0 0
-3.3449 4.2975 -13.6600 -0.367 0.662 0.654 71 35 29 0 0
-3.3387 4.3039 -13.9427 -0.543 0.834 -0.097 101 70 65 0 0
-3.6185 5.1340 -16.9255 -0.810 0.228 0.541 195 195 195 0 0
-3.6349 5.1698 -16.9161 -0.477 0.106 0.872 196 196 196 0 0
-1.0019 -0.8696 -12.7684 -0.172 -0.531 0.829 198 194 192 0 0
-1.2702 -0.2906 -12.5986 -0.258 0.550 0.794 109 49 39 0 0
-1.2350 -0.3610 -12.6964 0.424 0.872 0.246 109 50 39 0 0
-3.0233 3.5657 -12.4758 -0.423 0.556 0.715 134 53 32 0 0
-3.3240 4.2484 -12.7429 -0.706 0.636 0.311 72 27 15 0 0
-3.3212 4.3091 -13.6584 -0.367 0.662 0.654 78 43 36 0 0
-3.3160 4.3183 -13.9375 -0.438 0.898 -0.049 100 69 64 0 0
-3.2619 4.2737 -14.9601 -0.735 0.655 -0.175 102 59 45 0 0
-3.6028 5.1668 -16.8884 -0.771 0.292 0.566 196 196 196 0 0
-3.6099 5.1841 -16.9113 0.068 0.614 0.787 196 196 196 0 0
-3.6203 5.2079 -16.9227 -0.248 0.558 0.792 198 198 198 0 0
-3.6309 5.2319 -16.9337 -0.664 0.468 0.583 198 198 198 0 0
-3.6264 5.2267 -16.9963 0.055 0.661 0.748 199 199 199 0 0
-0.9919 -0.8180 -12.7358 -0.103 -0.485 0.868 155 139 136 0 0
-1.2018 -0.3645 -12.6317 -0.057 0.620 0.782 108 48 38 0 0
-2.5946 2.6798 -12.3889 0.126 0.629 0.767 121 47 28 0 0
-3.0767 3.7434 -12.4375 -0.573 0.449 0.686 135 55 34 0 0
-3.3000 4.3488 -13.9529 0.198 0.979 -0.053 102 69 63 0 0
-3.3112 4.3800 -14.0380 -0.476 0.140 0.868 99 61 52 0 0
-3.5802 5.1857 -16.8753 -0.659 0.320 0.681 195 195 195 0 0
-3.5938 5.2156 -16.8762 -0.741 0.597 0.307 196 196 196 0 0
-3.5963 5.2241 -16.9143 -0.799 0.583 0.147 196 196 196 0 0
-3.6076 5.2495 -16.9229 -0.814 0.503 0.292 199 199 199 0 0
-1.1903 -0.3177 -12.6021 -0.142 0.572 0.807 109 49 40 0 0
-2.7034 2.9829 -12.3824 -0.412 0.060 0.909 124 46 26 0 0
-2.8150 3.2304 -12.4170 -0.452 0.388 0.803 124 43 22 0 0
-3.0019 3.6454 -12.4842 -0.381 0.120 0.917 130 52 29 0 0
-3.2579 4.2223 -12.6837 -0.409 0.440 0.800 76 16 6 0 0
-3.2651 4.2394 -12.7013 -0.293 0.469 0.833 77 17 7 0 0
-3.2848 4.2870 -12.7585 -0.529 0.746 0.405 70 25 15 0 0
-3.2694 4.3473 -13.9688 0.010 0.993 -0.118 102 70 64 0 0
-3.2594 4.3336 -14.0720 -0.697 0.360 0.620 103 68 58 0 0
-3.2677 4.3529 -14.0886 -0.591 0.375 0.714 100 63 54 0 0
-3.2252 4.2838 -14.3978 -0.414 0.496 0.763 98 61 52 0 0
-3.2334 4.3032 -14.4149 -0.414 0.496 0.763 100 63 54 0 0
-3.2617 4.3623 -14.3773 -0.709 0.685 0.169 100 66 56 0 0
-3.0305 3.9905 -16.1137 -0.778 0.612 -0.140 74 74 74 0 0
-3.5590 5.2073 -16.8576 -0.784 0.414 0.463 195 195 195 0 0
-3.5631 5.2189 -16.8904 -0.710 0.541 0.451 196 196 196 0 0
-3.5690 5.2338 -16.9175 -0.710 0.541 0.451 196 196 196 0 0
-0.7733 -1.1325 -12.8941 -0.071 -0.493 0.867 212 213 215 0 0
-0.8390 -0.9945 -12.8211 -0.071 -0.493 0.867 207 203 203 0 0
-2.7946 3.2486 -12.4084 -0.058 0.791 0.609 125 44 23 0 0
-3.2633 4.3011 -12.7534 -0.705 0.673 0.223 77 29 16 0 0
-3.2680 4.3134 -12.7768 -0.664 0.641 0.384 71 25 18 0 0
-3.2462 4.3699 -14.0798 -0.591 0.375 0.714 101 64 55 0 0
-3.2012 4.2968 -14.3947 -0.858 0.393 0.330 98 61 52 0 0
-3.2098 4.3168 -14.4109 -0.414 0.496 0.763 98 61 52 0 0
-3.2457 4.3907 -14.3528 -0.415 0.837 0.358 98 63 54 0 0
-3.2039 4.3470 -14.9479 -0.732 0.675 -0.093 108 67 52 0 0
-3.5250 5.2080 -16.9297 0.534 0.843 0.056 196 196 196 0 0
-2.5528 2.7832 -12.3888 -0.623 0.162 0.765 120 44 28 0 0
-2.5737 2.8279 -12.3797 -0.344 0.647 0.680 121 45 27 0 0
-2.7679 3.2543 -12.4132 -0.058 0.791 0.609 127 46 25 0 0
-2.7830 3.2873 -12.4149 0.119 0.564 0.817 126 45 24 0 0
-3.0776 3.9378 -12.5121 -0.127 0.471 0.873 136 60 40 0 0
-3.1093 4.0065 -12.5077 0.170 0.722 0.670 144 74 63 0 0
-3.2503 4.4062 -13.6267 -0.704 0.563 0.434 77 44 37 0 0
-3.2442 4.4158 -13.9053 -0.445 0.895 0.034 100 69 59 0 0
-3.2466 4.4236 -13.9369 -0.281 0.927 0.250 98 69 61 0 0
-3.1861 4.3304 -14.4069 -0.414 0.496 0.763 97 60 51 0 0
-3.1350 4.2870 -15.2337 -0.598 0.714 -0.364 95 51 42 0 0
