ply
format ascii 1.0
element vertex 838
property float x
property float y
property float z
property float nx
property float ny
property float nz
property uchar diffuse_red
property uchar diffuse_green
property uchar diffuse_blue
property uchar class
property uchar detection
end_header
-5.1823 1.6148 -16.1654 -0.736 0.602 -0.309 129 116 115 0 0
-5.2489 1.6736 -17.0053 -0.124 0.182 0.976 178 178 176 0 0
-5.2506 1.7522 -16.9625 -0.304 0.047 0.951 180 180 179 0 0
-4.9401 1.9400 -13.0401 -0.734 0.654 0.182 211 211 210 0 0
-4.9429 1.9482 -13.0702 -0.746 0.650 0.146 211 211 210 0 0
-4.9457 1.9495 -13.1069 -0.817 0.564 0.122 208 208 207 0 0
-4.9485 1.9516 -13.1428 -0.849 0.520 0.094 206 206 205 0 0
-4.9513 1.9527 -13.1796 -0.767 0.636 0.087 206 206 205 0 0
-4.9541 1.9532 -13.2172 -0.770 0.634 0.073 207 206 206 0 0
-4.9569 1.9517 -13.2568 -0.475 0.880 0.029 207 208 207 0 0
-4.9597 1.9521 -13.2947 -0.675 0.737 0.013 210 211 210 0 0
-4.9626 1.9502 -13.3348 -0.675 0.737 0.013 212 213 212 0 0
-4.9655 1.9483 -13.3751 -0.675 0.737 0.013 212 213 212 0 0
-5.1548 1.6224 -16.2084 -0.725 0.601 -0.338 131 121 118 0 0
-5.2087 1.7388 -16.8373 -0.045 0.034 0.998 172 172 170 0 0
-5.2196 1.7371 -16.9855 -0.345 0.159 0.925 176 176 174 0 0
-4.9291 2.0803 -13.5286 -0.984 0.177 0.025 155 147 148 0 0
-5.0514 1.7984 -15.4797 -0.251 0.633 0.732 88 52 42 0 0
-5.0863 1.8665 -15.9019 -0.712 0.628 -0.313 104 85 78 0 0
-5.1512 1.8435 -16.8232 0.441 -0.261 0.859 169 169 167 0 0
-5.0331 1.9010 -15.5522 0.367 0.828 0.424 91 59 51 0 0
-5.1108 1.7761 -16.7616 -0.576 0.097 0.812 157 157 155 0 0
-5.1165 1.8442 -16.7793 0.435 -0.345 0.832 163 163 161 0 0
-4.8178 2.1100 -12.7135 -0.881 0.186 0.434 134 91 79 0 0
-5.0119 1.9675 -15.6190 -0.638 0.762 -0.110 94 63 55 0 0
-5.0827 1.7937 -16.7949 -0.388 -0.047 0.920 155 155 153 0 0
-4.9726 1.9876 -15.4677 -0.579 0.073 0.812 88 55 48 0 0
-5.0007 1.9786 -15.8836 -0.791 0.568 -0.226 101 81 74 0 0
-5.0039 1.9813 -15.9264 -0.753 0.586 -0.300 107 87 81 0 0
-4.7562 2.0951 -12.6234 -0.824 -0.037 0.565 88 36 27 0 0
-4.7587 2.0915 -12.6632 -0.413 -0.025 0.910 86 36 27 0 0
-4.7616 2.1426 -12.6540 -0.393 -0.061 0.917 88 40 30 0 0
-4.7644 2.1870 -12.6507 -0.455 -0.083 0.886 89 40 31 0 0
-4.7725 2.2744 -12.6814 -0.895 0.189 0.405 126 59 31 0 0
-4.7751 2.2885 -12.7052 -0.924 0.273 0.267 132 65 34 0 0
-4.8112 2.3775 -13.1447 -0.843 0.513 0.161 105 85 79 0 0
-4.9340 1.9355 -15.3952 -0.864 0.386 0.323 82 44 35 0 0
-4.9370 1.9384 -15.4365 -0.836 0.205 0.510 86 48 39 0 0
-4.9399 1.9518 -15.4665 -0.760 -0.018 0.649 87 51 42 0 0
-4.9736 1.9826 -15.9298 -0.874 0.476 -0.099 101 82 74 0 0
-4.8076 2.4630 -13.4106 -0.855 0.471 0.216 107 86 81 0 0
-4.8498 2.3034 -14.2056 0.090 0.992 0.086 129 101 92 0 0
-4.8924 1.9337 -15.2255 -0.626 0.531 0.572 79 34 28 0 0
-4.8953 1.9349 -15.2681 -0.788 0.170 0.592 79 34 28 0 0
-4.8982 1.9634 -15.2816 -0.802 0.195 0.564 79 34 28 0 0
-4.9011 1.9986 -15.2878 -0.802 0.283 0.526 77 36 29 0 0
-4.9304 2.1563 -15.5603 -0.475 0.864 0.168 91 62 55 0 0
-4.6976 1.9066 -12.7613 -0.160 0.330 0.930 95 39 27 0 0
-4.7222 2.3649 -12.6422 -0.910 0.237 0.340 104 39 21 0 0
-4.7247 2.3747 -12.6699 -0.899 0.400 0.180 114 44 23 0 0
-4.7832 2.5289 -13.3887 -0.876 0.450 0.172 105 84 79 0 0
-4.8039 2.5502 -13.6795 -0.886 0.370 0.280 116 76 65 0 0
-4.8216 2.3370 -14.1754 -0.717 0.691 -0.095 117 93 88 0 0
-4.8242 2.3048 -14.2491 0.090 0.992 0.086 120 97 90 0 0
-4.8269 2.3086 -14.2863 0.088 0.992 0.091 126 101 95 0 0
-4.8297 2.3126 -14.3235 0.397 0.902 0.170 128 101 95 0 0
-4.8324 2.3087 -14.3687 0.106 0.986 0.132 103 73 65 0 0
-4.8351 2.3111 -14.4076 0.006 0.989 0.151 92 61 52 0 0
-4.8889 2.1628 -15.3796 0.030 0.933 0.359 87 51 42 0 0
-4.9345 1.9879 -16.2585 0.256 0.874 0.412 120 112 110 0 0
-4.9703 1.8234 -16.9766 0.511 -0.137 0.848 153 153 151 0 0
-4.6959 2.3964 -12.6168 -0.183 0.114 0.977 97 40 27 0 0
-4.6987 2.4307 -12.6220 -0.175 0.113 0.978 96 36 22 0 0
-4.7591 2.6042 -13.3572 -0.612 0.658 0.438 106 83 78 0 0
-4.7613 2.5679 -13.4315 -0.846 0.523 0.101 106 82 77 0 0
-4.7739 2.5638 -13.6304 -0.842 0.388 0.375 93 63 58 0 0
-4.7961 2.3546 -14.2023 -0.692 0.719 -0.060 114 93 89 0 0
-4.7989 2.3761 -14.2212 -0.895 0.443 -0.053 116 96 91 0 0
-4.8040 2.3272 -14.3538 -0.754 0.646 -0.121 123 100 95 0 0
-4.8066 2.3062 -14.4169 -0.692 0.707 -0.148 131 106 100 0 0
-4.8092 2.2903 -14.4750 -0.687 0.708 -0.164 132 104 98 0 0
-4.8147 2.3019 -14.5465 0.713 0.695 0.092 88 57 49 0 0
-4.8448 2.0821 -15.2512 -0.861 0.386 0.333 81 38 31 0 0
-4.9070 2.0039 -16.2923 0.001 0.930 0.369 117 108 106 0 0
-4.9389 1.8239 -16.9814 0.051 0.011 0.999 150 149 147 0 0
-4.9419 1.8667 -16.9801 -0.157 0.049 0.986 154 154 152 0 0
-4.6351 1.8600 -12.6984 -0.478 0.600 0.642 101 44 33 0 0
-4.6638 2.3469 -12.5922 -0.148 -0.031 0.989 90 33 21 0 0
-4.6695 2.4163 -12.6019 -0.370 0.236 0.898 93 37 24 0 0
-4.6750 2.4732 -12.6228 -0.384 0.450 0.807 99 40 23 0 0
-4.6949 2.5495 -12.8464 -0.631 0.249 0.735 85 54 50 0 0
-4.7094 2.5630 -13.0579 -0.824 0.513 0.242 96 68 65 0 0
-4.7215 2.5534 -13.2569 -0.071 0.771 0.633 96 72 70 0 0
-4.7241 2.5684 -13.2806 -0.248 0.662 0.707 99 75 73 0 0
-4.7268 2.5880 -13.2999 -0.248 0.662 0.707 102 78 76 0 0
-4.7294 2.6076 -13.3191 -0.248 0.662 0.707 104 80 77 0 0
-4.7321 2.6272 -13.3384 -0.248 0.662 0.707 104 80 75 0 0
-4.7348 2.6506 -13.3539 -0.196 0.488 0.851 105 82 76 0 0
-4.7368 2.6027 -13.4396 -0.796 0.604 -0.031 104 80 74 0 0
-4.7467 2.5977 -13.6005 -0.841 0.411 0.353 93 65 61 0 0
-4.7494 2.6129 -13.6245 -0.841 0.411 0.353 90 60 52 0 0
-4.7546 2.6258 -13.6903 -0.851 0.514 0.113 124 81 71 0 0
-4.7785 2.3742 -14.3506 -0.830 0.534 -0.161 120 99 95 0 0
-4.7810 2.3505 -14.4167 -0.830 0.534 -0.161 121 100 96 0 0
-4.7835 2.3240 -14.4858 -0.819 0.546 -0.177 125 104 100 0 0
-4.8125 2.0923 -15.2009 -0.900 0.270 0.342 77 35 26 0 0
-4.8154 2.1182 -15.2169 -0.861 0.386 0.333 73 30 22 0 0
-4.8212 2.1611 -15.2583 -0.814 0.535 0.227 71 32 24 0 0
-4.8241 2.1914 -15.2695 -0.693 0.677 0.249 74 36 29 0 0
-4.8763 2.0605 -16.2326 0.480 0.724 0.496 111 101 99 0 0
-4.8793 2.0207 -16.3253 0.015 0.937 0.350 114 105 103 0 0
-4.8823 2.0875 -16.2956 -0.145 0.248 0.958 118 110 108 0 0
-4.9074 1.8133 -16.9993 -0.398 0.254 0.882 147 146 144 0 0
-4.6456 2.4455 -12.6150 -0.332 0.241 0.912 91 35 22 0 0
-4.6484 2.4755 -12.6240 -0.332 0.241 0.912 100 43 27 0 0
-4.6821 2.5378 -13.0855 -0.636 0.730 0.249 94 66 62 0 0
-4.6847 2.5518 -13.1099 -0.535 0.753 0.383 95 67 62 0 0
-4.6944 2.5557 -13.2583 -0.248 0.662 0.707 94 69 66 0 0
-4.6996 2.5841 -13.3073 -0.131 0.413 0.901 97 73 71 0 0
-4.7049 2.6280 -13.3413 -0.391 0.684 0.615 102 76 72 0 0
-4.7124 2.6391 -13.4462 -0.942 0.229 0.246 104 77 72 0 0
-4.7223 2.6460 -13.5952 -0.821 0.422 0.385 89 62 55 0 0
-4.7250 2.6621 -13.6184 -0.821 0.422 0.385 87 53 44 0 0
-4.7374 2.6589 -13.8193 -0.809 0.588 -0.011 122 102 100 0 0
-4.7394 2.6016 -13.9176 -0.737 0.651 -0.183 117 97 94 0 0
-4.7861 2.1610 -15.1753 -0.876 0.308 0.370 69 29 19 0 0
-4.7889 2.1680 -15.2115 -0.846 0.368 0.387 67 27 16 0 0
-4.7919 2.1930 -15.2283 -0.814 0.535 0.227 66 28 16 0 0
-4.8256 2.1722 -15.7877 -0.667 0.744 -0.031 66 36 30 0 0
-4.8286 2.2095 -15.7914 -0.573 0.812 -0.114 68 39 34 0 0
-4.8343 2.1797 -15.9165 -0.545 0.825 -0.152 75 50 45 0 0
-4.8487 2.0676 -16.2766 -0.377 0.923 0.082 109 99 96 0 0
-4.8517 2.0628 -16.3292 -0.299 0.803 0.515 114 106 103 0 0
-4.8579 2.2553 -16.2011 -0.937 0.160 0.312 118 113 110 0 0
-4.6901 2.6541 -13.5128 -0.799 0.598 0.056 98 71 66 0 0
-4.6951 2.6629 -13.5821 -0.879 0.411 0.240 92 65 58 0 0
-4.7028 2.6887 -13.6741 -0.817 0.559 0.142 95 50 38 0 0
-4.7102 2.6981 -13.7833 -0.698 0.716 0.018 117 92 88 0 0
-4.7626 2.2246 -15.1987 -0.796 0.549 0.255 65 28 17 0 0
-4.7654 2.2329 -15.2335 -0.801 0.577 0.158 65 29 20 0 0
-4.8211 2.0833 -16.3106 -0.209 0.951 0.229 108 100 97 0 0
-4.8934 2.4557 -17.0251 0.710 -0.056 0.702 177 177 177 0 0
-5.0304 4.4110 -16.8691 0.482 0.069 0.874 202 202 202 0 0
-5.0329 4.4600 -16.8492 -0.463 0.867 0.186 202 202 202 0 0
-5.0361 4.4539 -16.9079 -0.630 0.548 0.550 203 203 203 0 0
-5.0384 4.5124 -16.8740 -0.094 -0.346 0.934 203 203 203 0 0
-5.0410 4.5435 -16.8794 0.237 0.133 0.962 203 203 203 0 0
-4.5698 2.2201 -12.5342 -0.142 0.640 0.755 101 42 28 0 0
-4.5721 2.2238 -12.5673 -0.268 0.857 0.440 103 43 30 0 0
-4.6422 2.5480 -13.3114 -0.369 0.833 0.412 95 64 59 0 0
-4.6448 2.5625 -13.3358 -0.413 0.871 0.267 95 64 59 0 0
-4.6756 2.7116 -13.6548 -0.782 0.562 0.270 81 39 30 0 0
-4.6782 2.7259 -13.6798 -0.798 0.595 0.094 102 56 44 0 0
-4.6929 2.5432 -14.1473 -0.783 0.614 -0.102 112 92 88 0 0
-4.7362 2.2568 -15.2122 -0.797 0.598 0.087 54 20 14 0 0
-4.7677 2.0869 -15.9392 0.295 0.954 -0.044 44 24 21 0 0
-5.0041 4.4681 -16.8440 -0.406 0.861 0.307 202 202 202 0 0
-5.0071 4.4771 -16.8810 -0.391 0.884 0.257 202 202 202 0 0
-5.0126 4.5307 -16.9041 -0.359 0.228 0.905 202 202 202 0 0
-4.5430 2.2248 -12.5332 -0.142 0.640 0.755 103 44 30 0 0
-4.5453 2.2306 -12.5644 -0.268 0.857 0.440 105 46 32 0 0
-4.7374 2.0801 -15.9517 0.203 0.975 -0.093 41 23 20 0 0
-4.7401 2.0758 -16.0027 0.203 0.975 -0.093 42 24 19 0 0
-4.7669 2.2656 -16.2045 -0.094 -0.200 0.975 107 102 99 0 0
-4.7756 1.8739 -16.8519 -0.338 0.583 0.739 123 121 117 0 0
-4.9810 4.5239 -16.8702 -0.222 0.009 0.975 194 194 194 0 0
-4.4773 1.7245 -12.5398 -0.201 0.067 0.977 103 47 37 0 0
-4.5226 2.3131 -12.5298 -0.235 0.300 0.925 100 41 27 0 0
-4.6106 2.7833 -13.3956 -0.369 0.924 0.097 103 64 56 0 0
-4.6193 2.7578 -13.5767 -0.573 0.802 0.168 87 61 55 0 0
-4.6388 2.6674 -14.0272 -0.865 0.481 -0.141 116 96 92 0 0
-4.6435 2.6597 -14.1163 -0.491 0.808 -0.327 114 93 89 0 0
-4.6535 2.5253 -14.4630 -0.756 0.638 -0.145 122 102 97 0 0
-4.6912 2.3165 -15.3766 -0.869 0.494 -0.001 11 4 7 0 0
-4.7149 2.0488 -16.1311 0.474 0.878 -0.070 42 23 22 0 0
-4.7178 2.0549 -16.1707 0.644 0.764 -0.039 47 25 22 0 0
-4.7365 2.2682 -16.2066 -0.205 -0.030 0.978 104 99 96 0 0
-4.7398 2.3197 -16.1937 -0.318 -0.156 0.935 107 103 102 0 0
-4.7494 1.8034 -17.0383 0.275 -0.341 0.899 133 132 130 0 0
-4.9549 4.5663 -16.8656 -0.215 0.209 0.954 201 201 201 0 0
-4.4404 1.6168 -12.5262 -0.119 0.008 0.993 95 53 44 0 0
-4.4501 1.7323 -12.5362 -0.173 -0.058 0.983 103 46 35 0 0
-4.4537 1.7851 -12.5268 -0.647 0.041 0.761 103 48 35 0 0
-4.4895 2.2356 -12.5300 -0.275 0.139 0.951 105 45 31 0 0
-4.4926 2.2696 -12.5359 -0.275 0.139 0.951 104 44 31 0 0
-4.5311 2.6954 -12.6199 -0.108 0.708 0.698 99 40 26 0 0
-4.5563 2.7561 -12.9692 -0.314 0.939 0.138 106 69 63 0 0
-4.5585 2.7592 -13.0037 -0.380 0.924 0.031 107 68 59 0 0
-4.5945 2.7735 -13.6039 -0.753 0.551 0.361 87 57 54 0 0
-4.6904 2.0922 -16.1800 0.507 0.862 0.012 49 26 22 0 0
-4.6931 2.0971 -16.2213 0.271 0.954 -0.131 51 26 22 0 0
-4.7099 1.8698 -16.8188 -0.178 0.614 0.769 113 108 105 0 0
-4.7263 2.0827 -16.8116 -0.210 0.149 0.966 139 137 137 0 0
-4.9264 4.5498 -16.8958 -0.587 0.752 0.300 201 201 201 0 0
-4.4066 1.5486 -12.5148 -0.324 -0.069 0.943 96 67 64 0 0
-4.4100 1.5922 -12.5140 -0.276 -0.047 0.960 97 55 49 0 0
-4.5075 2.7251 -12.6320 -0.160 0.492 0.856 102 43 29 0 0
-4.5319 2.7679 -12.9989 -0.339 0.938 0.070 112 74 66 0 0
-4.5496 2.7800 -13.2908 -0.157 0.930 0.334 88 48 30 0 0
-4.5620 2.8422 -13.4217 0.292 0.415 0.862 116 72 56 0 0
-4.5649 2.8688 -13.4338 0.370 0.388 0.844 99 64 54 0 0
-4.5656 2.8055 -13.5364 -0.744 0.468 0.476 89 61 57 0 0
-4.5839 2.8131 -13.8447 -0.825 0.543 -0.160 110 86 81 0 0
-4.5871 2.7491 -13.9911 -0.799 0.553 -0.239 115 95 93 0 0
-4.5932 2.7051 -14.1587 -0.698 0.664 -0.266 113 92 87 0 0
-4.6596 2.0804 -16.1986 0.517 0.856 0.017 45 23 22 0 0
-4.6623 2.0828 -16.2427 0.321 0.938 -0.129 47 23 20 0 0
-4.6745 2.1832 -16.3154 -0.419 0.906 -0.062 98 93 89 0 0
-4.6893 1.8426 -17.0523 -0.372 0.100 0.923 131 130 128 0 0
-4.3760 1.5197 -12.5060 -0.380 -0.141 0.914 99 72 68 0 0
-4.3862 1.6430 -12.5100 -0.270 -0.045 0.962 103 48 38 0 0
-4.4811 2.7267 -12.6339 0.169 0.627 0.760 95 36 22 0 0
-4.4875 2.8066 -12.6321 0.380 0.327 0.865 95 37 22 0 0
-4.5226 2.7844 -13.2902 -0.157 0.930 0.334 53 15 5 0 0
-4.5396 2.8556 -13.4897 -0.454 0.473 0.755 99 64 51 0 0
-4.5608 2.8138 -13.9282 -0.852 0.493 -0.176 119 101 97 0 0
-4.5623 2.7788 -14.0047 -0.879 0.446 -0.171 115 95 92 0 0
-4.6076 2.4504 -15.2868 -0.807 0.557 -0.199 23 9 6 0 0
-4.6097 2.4338 -15.3495 -0.720 0.640 -0.269 7 4 4 0 0
-4.6311 2.0465 -16.2895 0.407 0.896 -0.177 44 23 22 0 0
-4.6334 2.0258 -16.3604 0.349 0.898 -0.269 48 29 25 0 0
-4.6441 2.1981 -16.3033 -0.419 0.906 -0.062 95 89 86 0 0
-4.6558 1.9027 -16.9375 -0.805 0.591 0.056 122 120 120 0 0
-4.6632 2.0330 -16.8813 -0.679 0.557 0.479 133 131 131 0 0
-4.3525 1.5806 -12.4936 -0.340 0.028 0.940 98 51 44 0 0
-4.4197 2.3830 -12.5160 -0.179 0.131 0.975 109 47 32 0 0
-4.4975 2.7788 -13.3379 0.354 0.898 0.263 44 10 2 0 0
-4.5329 2.8916 -13.8115 -0.824 0.540 -0.169 125 95 85 0 0
-4.5380 2.8308 -13.9951 -0.829 0.522 -0.202 116 92 88 0 0
-4.5802 2.5451 -15.1866 -0.778 0.607 -0.164 77 48 41 0 0
-4.5812 2.4759 -15.3074 -0.746 0.635 -0.199 26 10 8 0 0
-4.6025 2.0255 -16.3659 0.291 0.916 -0.278 43 25 23 0 0
-4.6162 1.9074 -16.7909 -0.252 0.928 0.274 106 100 100 0 0
-4.6199 1.9632 -16.7741 -0.344 0.803 0.487 110 104 104 0 0
-4.8403 4.5686 -16.8876 0.068 0.915 0.398 203 203 203 0 0
-4.3043 1.2928 -12.5580 -0.420 -0.355 0.835 217 213 215 0 0
-4.3219 1.5519 -12.4848 -0.314 0.039 0.949 98 52 42 0 0
-4.3253 1.5914 -12.4875 -0.314 0.039 0.949 101 51 40 0 0
-4.3595 1.9918 -12.5045 0.254 0.391 0.885 109 48 34 0 0
-4.3974 2.4582 -12.4874 -0.545 0.347 0.763 112 49 32 0 0
-4.4006 2.4927 -12.4923 -0.543 0.506 0.670 109 46 29 0 0
-4.4376 2.8377 -12.6461 0.352 0.525 0.775 99 40 28 0 0
-4.5146 2.7469 -14.2092 -0.449 0.814 0.368 111 89 87 0 0
-4.5172 2.7602 -14.2364 -0.653 0.612 0.447 112 89 85 0 0
-4.5521 2.5946 -15.1364 -0.778 0.607 -0.164 111 76 68 0 0
-4.5530 2.5295 -15.2526 -0.737 0.650 -0.186 83 57 51 0 0
-4.5883 1.9521 -16.7925 -0.430 0.773 0.466 108 103 103 0 0
-4.3710 2.4650 -12.4845 -0.380 0.568 0.730 107 44 27 0 0
-4.3737 2.4869 -12.5009 -0.361 0.592 0.720 107 44 27 0 0
-4.4384 2.8857 -13.0871 -0.824 0.555 0.116 26 5 2 0 0
-4.4835 2.9384 -13.8509 -0.769 0.592 -0.240 117 92 88 0 0
-4.4898 2.7851 -14.2142 -0.778 0.349 0.522 112 88 84 0 0
-4.4951 2.8172 -14.2625 -0.831 0.480 0.282 113 89 85 0 0
-4.4973 2.8180 -14.3029 -0.826 0.563 0.004 115 91 87 0 0
-4.5249 2.5761 -15.2054 -0.724 0.658 -0.207 108 75 67 0 0
-4.5266 2.5506 -15.2779 -0.710 0.663 -0.237 76 52 43 0 0
-4.5599 1.9709 -16.8245 -0.478 0.784 0.395 111 107 107 0 0
-4.5668 2.0524 -16.8258 -0.060 0.209 0.976 122 120 121 0 0
-4.2359 1.1309 -12.5895 -0.364 -0.348 0.864 216 216 216 0 0
-4.2411 1.2107 -12.5596 -0.364 -0.348 0.864 216 216 218 0 0
-4.2836 1.7844 -12.4372 -0.463 0.506 0.727 108 49 37 0 0
-4.3110 2.0443 -12.5374 0.036 0.425 0.905 110 48 33 0 0
-4.4034 2.9321 -12.8580 -0.854 0.319 0.412 96 62 55 0 0
-4.4125 2.9113 -13.0657 -0.912 0.376 0.163 25 4 3 0 0
-4.4162 2.8443 -13.2458 -0.019 0.965 0.262 25 3 2 0 0
-4.4404 3.0298 -13.4066 -0.298 0.627 0.720 121 74 43 0 0
-4.4493 2.9923 -13.6403 -0.276 0.339 0.899 71 37 31 0 0
-4.4525 3.0266 -13.6443 -0.506 0.347 0.789 75 34 25 0 0
-4.4565 3.0237 -13.7264 -0.801 0.596 -0.049 124 74 61 0 0
-4.4661 2.8583 -14.1820 -0.840 0.543 0.017 111 87 83 0 0
-4.4682 2.8564 -14.2250 -0.840 0.543 0.017 111 87 83 0 0
-4.4969 2.6212 -15.1599 -0.724 0.658 -0.207 104 69 60 0 0
-4.4986 2.5978 -15.2299 -0.710 0.663 -0.237 111 77 66 0 0
-4.5336 2.0779 -16.7523 -0.532 0.075 0.843 114 112 113 0 0
-4.2036 1.0807 -12.5976 -0.398 -0.334 0.854 216 216 218 0 0
-4.2092 1.1648 -12.5643 -0.386 -0.327 0.862 216 216 214 0 0
-4.3738 2.9003 -12.8550 -0.494 0.183 0.850 82 42 37 0 0
-4.4107 3.0111 -13.3906 -0.348 0.214 0.913 131 73 39 0 0
-4.4176 3.0371 -13.4807 -0.528 0.813 0.245 104 65 49 0 0
-4.4223 2.9991 -13.6372 -0.287 0.319 0.903 75 48 41 0 0
-4.4257 3.0420 -13.6323 -0.458 0.408 0.790 72 37 27 0 0
-4.4283 3.0594 -13.6538 -0.638 0.588 0.497 80 37 26 0 0
-4.4309 3.0757 -13.6764 -0.638 0.588 0.497 108 59 47 0 0
-4.4334 3.0909 -13.7001 -0.647 0.635 0.421 125 81 68 0 0
-4.4359 3.1036 -13.7266 -0.586 0.686 0.431 125 92 83 0 0
-4.4403 2.9222 -14.1185 -0.732 0.656 -0.185 111 87 83 0 0
-4.4416 2.8978 -14.1853 -0.813 0.582 -0.017 111 86 82 0 0
-4.4996 2.0684 -16.7204 -0.471 0.878 -0.081 108 105 104 0 0
-4.5023 2.0787 -16.7568 -0.345 0.859 0.379 112 110 110 0 0
-4.5048 2.0762 -16.8085 -0.280 0.859 0.428 116 114 115 0 0
-4.5081 2.1111 -16.8158 0.100 0.662 0.743 120 118 119 0 0
-4.5226 2.2875 -16.8002 0.558 -0.272 0.784 135 135 135 0 0
-4.1880 1.2783 -12.5091 -0.375 -0.349 0.859 178 164 163 0 0
-4.2635 2.1604 -12.4773 -0.444 0.264 0.856 112 49 32 0 0
-4.3813 2.9995 -13.3675 -0.396 0.302 0.867 95 29 11 0 0
-4.3866 3.0370 -13.4069 -0.179 0.572 0.801 143 90 57 0 0
-4.3990 3.0569 -13.6210 -0.571 0.589 0.572 76 45 36 0 0
-4.4016 3.0747 -13.6419 -0.571 0.589 0.572 72 34 25 0 0
-4.4065 3.1003 -13.6943 -0.656 0.692 0.303 117 68 53 0 0
-4.4107 3.1058 -13.7679 -0.625 0.777 0.075 120 92 87 0 0
-4.1505 1.1526 -12.5438 -0.375 -0.349 0.859 216 215 215 0 0
-4.1561 1.2327 -12.5137 -0.375 -0.349 0.859 202 189 187 0 0
-4.2534 2.3815 -12.4281 -0.294 0.781 0.552 111 44 28 0 0
-4.2558 2.3966 -12.4507 -0.294 0.781 0.552 110 43 27 0 0
-4.3404 2.9334 -13.2068 -0.885 0.463 0.055 31 5 2 0 0
-4.3503 2.9460 -13.3865 -0.111 0.398 0.911 68 13 6 0 0
-4.3532 2.9726 -13.3985 -0.111 0.398 0.911 76 13 3 0 0
-4.3572 3.0249 -13.3843 -0.110 0.354 0.929 95 29 10 0 0
-4.3598 3.0436 -13.4040 -0.145 0.364 0.920 129 69 39 0 0
-4.3749 3.0890 -13.6311 -0.583 0.603 0.545 72 41 33 0 0
-4.3904 2.9734 -14.1542 -0.838 0.419 0.349 109 84 80 0 0
-4.1381 1.3666 -12.4776 -0.417 -0.225 0.880 103 52 45 0 0
-4.1404 1.3779 -12.5047 -0.242 0.042 0.969 105 53 42 0 0
-4.1441 1.4180 -12.5073 -0.242 0.042 0.969 105 49 38 0 0
-4.1478 1.4578 -12.5102 -0.340 0.020 0.940 108 48 37 0 0
-4.2179 2.3062 -12.3903 -0.019 0.274 0.961 114 48 32 0 0
-4.3176 2.9907 -13.1918 -0.897 0.442 0.019 44 9 5 0 0
-4.3236 2.9559 -13.3803 0.027 0.420 0.907 60 13 7 0 0
-4.3267 2.9862 -13.3884 -0.088 0.470 0.878 68 13 4 0 0
-4.3295 3.0107 -13.4025 -0.186 0.407 0.894 80 18 3 0 0
-4.3325 3.0367 -13.4149 -0.186 0.407 0.894 102 37 14 0 0
-4.3365 3.0911 -13.3983 -0.517 0.737 0.435 122 61 29 0 0
-4.1186 1.4636 -12.4719 0.136 0.228 0.964 107 48 35 0 0
-4.1220 1.4977 -12.4795 0.136 0.228 0.964 107 48 35 0 0
-4.1255 1.5317 -12.4870 0.136 0.228 0.964 108 47 34 0 0
-4.2006 2.3979 -12.4197 -0.235 0.819 0.523 113 46 30 0 0
-4.2027 2.4058 -12.4488 -0.020 0.756 0.655 114 47 31 0 0
-4.2082 2.4497 -12.4816 -0.189 0.698 0.691 115 48 32 0 0
-4.2956 3.0609 -13.1636 -0.856 0.516 0.015 46 10 4 0 0
-4.2997 2.9896 -13.3888 -0.030 0.475 0.879 62 14 6 0 0
-4.3027 3.0173 -13.3996 -0.274 0.343 0.899 69 14 4 0 0
-4.3058 3.0452 -13.4100 -0.176 0.359 0.917 85 21 6 0 0
-4.3087 3.0710 -13.4226 -0.065 0.187 0.980 102 37 11 0 0
-4.3123 3.1125 -13.4191 -0.203 0.237 0.950 129 70 34 0 0
-4.3216 3.1609 -13.5253 -0.828 0.533 0.174 89 57 45 0 0
-4.3398 3.0529 -14.1186 -0.059 0.897 0.437 109 83 80 0 0
-4.3425 3.0712 -14.1398 0.220 0.721 0.657 109 84 80 0 0
-4.0871 1.4258 -12.4704 -0.422 0.102 0.901 106 48 36 0 0
-4.0979 1.5358 -12.4866 -0.196 0.024 0.980 107 45 32 0 0
-4.1125 1.7200 -12.4385 0.308 0.221 0.925 111 51 37 0 0
-4.2002 2.6618 -12.4725 -0.208 0.186 0.960 112 44 25 0 0
-4.2763 3.0322 -13.3883 -0.442 0.339 0.831 57 10 3 0 0
-4.2791 3.0544 -13.4045 -0.283 0.456 0.844 67 13 4 0 0
-4.2818 3.0749 -13.4225 -0.128 0.215 0.968 84 21 6 0 0
-4.3290 2.9987 -14.5972 -0.413 0.904 -0.105 105 81 77 0 0
-4.0634 1.4721 -12.4708 -0.250 0.169 0.954 107 48 34 0 0
-4.0707 1.5456 -12.4814 -0.196 0.024 0.980 105 43 30 0 0
-4.0892 1.7679 -12.4367 0.213 0.434 0.875 112 50 37 0 0
-4.1497 2.4191 -12.4433 -0.162 0.843 0.512 115 47 31 0 0
-4.1738 2.6657 -12.4723 0.025 0.505 0.863 112 44 25 0 0
-4.2300 3.1309 -12.7640 -0.219 0.740 0.637 79 43 34 0 0
-4.2442 3.1101 -13.1219 -0.705 0.690 -0.162 40 9 5 0 0
-4.2485 3.0168 -13.4077 0.059 0.074 0.996 50 10 4 0 0
-4.2548 3.0776 -13.4235 0.133 0.152 0.979 70 15 9 0 0
-4.2579 3.1064 -13.4330 0.162 -0.096 0.982 86 21 5 0 0
-4.2617 3.1503 -13.4270 0.115 -0.171 0.978 116 51 21 0 0
-4.2663 3.2125 -13.4019 -0.834 0.466 0.296 136 78 41 0 0
-4.2686 3.2233 -13.4296 -0.787 0.581 0.207 131 82 46 0 0
-4.2926 3.1158 -14.1823 0.131 0.941 0.313 104 79 74 0 0
-4.3060 2.9899 -14.7390 -0.394 0.901 -0.184 103 82 81 0 0
-4.0322 1.4395 -12.4650 0.077 0.198 0.977 109 49 37 0 0
-4.0609 1.7532 -12.4525 -0.260 0.347 0.901 113 49 37 0 0
-4.1475 2.6705 -12.4711 -0.117 0.325 0.938 113 44 25 0 0
-4.2047 3.1198 -12.8154 -0.465 0.799 0.382 84 47 38 0 0
-4.2198 3.1239 -13.1498 -0.725 0.668 -0.169 40 7 4 0 0
-4.2243 3.0428 -13.4241 0.139 0.309 0.941 51 10 6 0 0
-4.2430 3.2515 -13.4044 -0.587 0.610 0.533 142 90 50 0 0
-4.2455 3.2680 -13.4262 -0.587 0.610 0.533 130 79 42 0 0
-4.2679 3.1447 -14.1964 -0.309 0.911 0.272 107 82 77 0 0
-3.9891 1.2872 -12.4498 0.402 0.105 0.910 103 52 44 0 0
-4.1212 2.6757 -12.4696 -0.117 0.325 0.938 113 42 24 0 0
-4.2006 3.0779 -13.4310 0.133 0.152 0.979 50 9 3 0 0
-4.2192 3.2812 -13.4165 -0.559 0.629 0.540 150 102 61 0 0
-4.2405 3.1527 -14.1920 -0.309 0.911 0.272 107 82 78 0 0
-4.2429 3.1666 -14.2180 -0.424 0.890 0.166 106 81 77 0 0
-4.2450 3.1722 -14.2532 -0.424 0.890 0.166 106 81 77 0 0
-4.2466 3.1701 -14.2968 -0.677 0.704 -0.216 106 81 77 0 0
-4.2850 2.4221 -16.8282 0.272 -0.464 0.843 128 128 128 0 0
-3.9608 1.2831 -12.4563 0.049 0.005 0.999 105 50 41 0 0
-3.9648 1.3235 -12.4590 0.236 0.096 0.967 108 51 40 0 0
-3.9924 1.6291 -12.4196 -0.282 0.194 0.939 111 49 34 0 0
-4.0064 1.7620 -12.4511 -0.069 0.268 0.961 115 52 38 0 0
-4.0764 2.4902 -12.4611 0.296 0.084 0.952 119 46 31 0 0
-4.1132 2.8434 -12.5352 -0.115 0.907 0.406 113 42 24 0 0
-4.1746 3.0993 -13.4130 -0.272 0.501 0.821 43 10 3 0 0
-4.1955 3.3106 -13.4288 -0.584 0.727 0.361 141 95 59 0 0
-4.2160 3.2541 -14.0456 -0.858 0.496 -0.132 109 84 80 0 0
-4.2152 3.1694 -14.2193 -0.523 0.750 0.405 108 83 79 0 0
-4.2633 2.5425 -16.7849 0.273 -0.411 0.870 133 133 133 0 0
-3.9374 1.3332 -12.4540 0.156 0.057 0.986 108 49 38 0 0
-3.9531 1.5142 -12.4110 -0.075 0.314 0.946 109 48 35 0 0
-3.9565 1.5452 -12.4212 0.037 0.354 0.935 108 49 35 0 0
-4.1446 3.3006 -12.8713 -0.781 0.608 -0.144 110 72 66 0 0
-4.1429 3.2154 -13.0314 -0.812 0.540 -0.223 33 4 2 0 0
-4.1626 3.2597 -13.4076 0.012 0.174 0.985 88 25 7 0 0
-4.1660 3.2917 -13.4134 0.104 0.147 0.984 121 59 31 0 0
-4.1695 3.3272 -13.4155 -0.029 0.409 0.912 134 79 44 0 0
-4.2292 2.5205 -16.7685 0.369 -0.365 0.855 128 128 128 0 0
-3.9049 1.2853 -12.4605 -0.063 0.011 0.998 107 51 39 0 0
-3.9128 1.3643 -12.4674 0.052 -0.026 0.998 107 48 35 0 0
-3.9845 2.1067 -12.4477 -0.330 0.135 0.934 116 49 33 0 0
-3.9881 2.1408 -12.4539 -0.330 0.135 0.934 116 48 33 0 0
-4.1262 3.1470 -13.4497 0.082 -0.187 0.979 49 11 3 0 0
-4.1355 3.2563 -13.4150 0.231 0.086 0.969 75 15 4 0 0
-4.1428 3.3304 -13.4161 -0.029 0.409 0.912 123 58 28 0 0
-4.1666 3.3294 -14.0132 -0.800 0.595 -0.078 110 83 81 0 0
-4.1918 2.4294 -16.8360 -0.587 0.099 0.803 122 121 126 0 0
-4.2118 2.5972 -16.9254 -0.843 0.450 0.294 139 140 142 0 0
-3.8897 1.4387 -12.4080 -0.351 0.898 0.267 108 49 35 0 0
-3.9584 2.1239 -12.4357 -0.458 0.181 0.870 117 50 34 0 0
-4.0017 2.5588 -12.4448 -0.354 0.885 0.303 116 43 28 0 0
-4.0057 2.5779 -12.4999 -0.276 0.851 0.446 118 45 30 0 0
-4.0863 3.3056 -12.7251 -0.641 0.715 0.279 96 58 43 0 0
-4.0884 3.3167 -12.7511 -0.488 0.849 0.201 81 43 35 0 0
-4.1164 3.3407 -13.4092 -0.308 0.359 0.881 111 42 14 0 0
-4.1195 3.3668 -13.4209 -0.308 0.359 0.881 134 76 40 0 0
-4.1431 3.3437 -14.0834 -0.760 0.649 -0.046 108 83 79 0 0
-4.1442 3.2771 -14.2797 -0.903 0.413 -0.120 108 83 79 0 0
-4.1460 3.0088 -15.0041 -0.728 0.169 0.665 114 89 85 0 0
-3.8620 1.4418 -12.4084 0.014 0.936 0.351 109 50 36 0 0
-3.8683 1.5141 -12.3839 -0.451 0.554 0.700 108 47 34 0 0
-3.9027 1.8401 -12.4326 0.520 0.611 0.597 117 51 35 0 0
-3.9323 2.1398 -12.4248 -0.447 0.235 0.863 119 52 36 0 0
-3.9628 2.4372 -12.4495 -0.395 -0.034 0.918 117 44 29 0 0
-3.9665 2.4726 -12.4538 -0.383 0.104 0.918 117 44 29 0 0
-3.9738 2.5414 -12.4639 -0.359 0.094 0.929 117 44 29 0 0
-4.0616 3.3313 -12.7034 -0.298 0.615 0.730 107 62 41 0 0
-4.0888 3.3292 -13.4251 -0.220 0.037 0.975 101 34 12 0 0
-4.0928 3.3705 -13.4210 -0.412 0.238 0.880 114 47 16 0 0
-4.1207 3.5123 -13.7831 -0.374 0.569 0.732 114 90 88 0 0
-4.1194 3.4104 -14.0148 -0.718 0.657 -0.227 108 83 79 0 0
-4.1215 3.4206 -14.0444 -0.623 0.744 -0.243 108 83 79 0 0
-3.7655 0.6766 -12.6394 -0.369 -0.474 0.799 214 215 217 0 0
-3.9092 2.1811 -12.4278 -0.247 0.276 0.929 118 50 35 0 0
-3.9127 2.2122 -12.4365 -0.278 0.207 0.938 119 50 35 0 0
-3.9513 2.5864 -12.4624 -0.086 0.935 0.343 118 45 30 0 0
-3.9533 2.5962 -12.4897 -0.086 0.935 0.343 120 47 32 0 0
-4.0357 3.3371 -12.7012 -0.093 0.257 0.962 104 50 30 0 0
-4.0944 3.4519 -13.9738 -0.718 0.657 -0.227 109 83 80 0 0
-3.7412 0.7411 -12.5900 -0.369 -0.474 0.799 215 216 218 0 0
-3.8828 2.1917 -12.4216 -0.361 0.241 0.901 117 45 30 0 0
-3.8862 2.2219 -12.4310 -0.361 0.241 0.901 116 44 29 0 0
-3.9251 2.5951 -12.4577 -0.650 0.702 0.292 116 43 26 0 0
-3.9492 2.8320 -12.4569 -0.005 0.401 0.916 118 42 26 0 0
-3.9595 2.9254 -12.4785 0.024 0.496 0.868 118 42 26 0 0
-4.0129 3.3689 -12.7102 -0.171 0.663 0.729 108 56 37 0 0
-4.0140 3.3653 -12.7508 -0.007 0.622 0.783 94 50 39 0 0
-4.0286 3.3609 -13.1688 -0.855 0.518 -0.027 43 9 5 0 0
-3.7077 0.6951 -12.5932 -0.381 -0.455 0.805 215 216 219 0 0
-3.9562 3.1489 -12.4883 -0.243 0.675 0.696 121 46 27 0 0
-4.0132 3.3883 -13.4142 -0.286 -0.038 0.958 63 11 6 0 0
-4.0225 3.4872 -13.3885 -0.785 0.457 0.419 102 32 13 0 0
-4.0473 3.5260 -13.9823 -0.514 0.783 -0.349 108 81 78 0 0
-4.0484 3.5220 -14.0273 -0.716 0.647 -0.260 108 80 77 0 0
-4.0547 3.1981 -15.1567 -0.783 0.539 -0.310 100 64 57 0 0
-4.0522 3.1327 -15.2771 -0.777 0.545 -0.314 111 78 69 0 0
-3.8969 2.8436 -12.4527 -0.163 0.356 0.920 117 41 25 0 0
-3.9302 3.1529 -12.4878 -0.298 0.459 0.837 115 40 21 0 0
-3.9880 3.5079 -13.1019 -0.902 0.337 0.270 42 8 5 0 0
-3.9868 3.3964 -13.4097 -0.277 -0.018 0.961 51 8 5 0 0
-4.0004 3.5371 -13.3789 -0.839 0.514 0.176 109 46 19 0 0
-4.0213 3.6090 -13.7747 -0.795 0.536 0.284 117 90 85 0 0
-4.0266 3.1632 -15.2909 -0.805 0.515 -0.295 107 78 71 0 0
-4.0103 2.7620 -16.0373 0.564 0.415 0.714 75 73 74 0 0
-3.7261 1.4755 -12.4317 0.026 0.094 0.995 114 48 35 0 0
-3.7314 1.5279 -12.4238 0.063 0.353 0.933 114 48 34 0 0
-3.7362 1.5753 -12.4202 -0.058 0.214 0.975 113 49 33 0 0
-3.9549 3.4693 -13.0314 -0.834 0.529 -0.158 36 6 3 0 0
-3.9603 3.4741 -13.1787 -0.743 0.648 -0.167 43 9 5 0 0
-3.9612 3.4142 -13.3951 -0.295 -0.123 0.948 47 10 5 0 0
-3.9723 3.5355 -13.3457 -0.801 0.449 0.396 70 14 3 0 0
-3.9766 3.5786 -13.3391 -0.894 0.388 0.222 90 25 3 0 0
-3.9983 3.6480 -13.7764 -0.717 0.587 0.376 113 92 87 0 0
-3.9996 3.6477 -13.8168 -0.605 0.796 0.014 109 88 83 0 0
-3.9994 3.6063 -13.9430 -0.424 0.879 -0.219 110 80 77 0 0
-3.6429 0.9557 -12.4272 -0.326 -0.350 0.878 105 75 73 0 0
-3.7022 1.5119 -12.4404 -0.445 0.341 0.828 115 49 35 0 0
-3.9316 3.4956 -13.0461 -0.767 0.607 -0.207 36 6 5 0 0
-3.9349 3.5072 -13.1102 -0.872 0.485 0.072 42 7 5 0 0
-3.9411 3.4922 -13.3563 -0.576 0.004 0.818 50 9 3 0 0
-3.9443 3.5188 -13.3672 -0.592 0.123 0.797 58 9 2 0 0
-3.9727 3.6333 -13.8771 -0.642 0.751 -0.155 110 87 84 0 0
-3.9725 3.6122 -13.9408 -0.589 0.781 -0.210 109 82 78 0 0
-3.6168 0.9862 -12.4053 -0.326 -0.350 0.878 100 63 58 0 0
-3.7081 1.8342 -12.4231 -0.122 0.079 0.989 116 48 32 0 0
-3.8537 3.1835 -12.4688 -0.078 0.385 0.920 119 43 27 0 0
-3.9190 3.5382 -13.3507 -0.607 0.147 0.781 53 9 5 0 0
-3.9226 3.5713 -13.3547 -0.632 0.090 0.770 64 11 3 0 0
-3.9261 3.6024 -13.3607 -0.611 0.041 0.791 85 20 2 0 0
-3.9298 3.6360 -13.3639 -0.701 0.249 0.669 123 54 22 0 0
-3.9497 3.6902 -13.8187 -0.727 0.671 0.146 110 90 88 0 0
-3.9497 3.6735 -13.8774 -0.777 0.629 0.030 108 86 81 0 0
-3.9515 3.6809 -13.9096 -0.556 0.822 -0.123 106 82 77 0 0
-3.7488 2.4729 -12.4069 -0.344 0.076 0.936 117 46 28 0 0
-3.7510 2.4861 -12.4312 -0.220 0.110 0.969 117 46 28 0 0
-3.7836 2.7976 -12.4000 -0.469 0.048 0.882 119 46 27 0 0
-3.8270 3.1775 -12.4779 0.215 0.604 0.767 117 41 25 0 0
-3.8973 3.5899 -13.3390 -0.544 0.103 0.832 56 9 4 0 0
-3.9008 3.6208 -13.3451 -0.544 0.103 0.832 79 17 5 0 0
-3.9041 3.6483 -13.3548 -0.575 0.763 0.297 105 32 7 0 0
-3.9065 3.6642 -13.3768 -0.642 0.747 0.172 131 62 29 0 0
-3.9264 3.7081 -13.8838 -0.552 0.826 -0.115 111 86 82 0 0
-3.9166 3.4268 -14.5717 -0.880 0.470 -0.074 107 82 78 0 0
-3.9234 3.2882 -15.2976 -0.779 0.589 -0.217 108 76 68 0 0
-3.6528 1.8348 -12.4288 0.149 0.194 0.970 118 49 34 0 0
-3.7282 2.5238 -12.4366 -0.258 0.228 0.939 117 46 28 0 0
-3.7372 2.6080 -12.4325 0.268 0.283 0.921 116 45 27 0 0
-3.7986 3.1516 -12.5061 0.020 0.720 0.693 117 41 25 0 0
-3.8119 3.2761 -12.4957 -0.099 0.400 0.911 119 43 28 0 0
-3.8526 3.5981 -12.6916 -0.741 0.628 0.237 112 60 41 0 0
-3.8711 3.5829 -13.3892 0.282 0.098 0.954 66 12 4 0 0
-3.8745 3.6118 -13.3976 0.351 0.130 0.927 85 18 3 0 0
-3.8811 3.6811 -13.3629 -0.492 0.847 0.199 112 42 14 0 0
-3.8882 3.6999 -13.5381 -0.691 0.697 0.193 94 56 48 0 0
-3.8892 3.6974 -13.5803 -0.810 0.509 0.291 83 56 46 0 0
-3.8896 3.6879 -13.6301 -0.773 0.462 0.434 82 54 43 0 0
-3.9003 3.7223 -13.8723 -0.574 0.813 -0.096 109 89 84 0 0
-3.9040 3.7552 -13.8762 -0.082 0.977 -0.197 110 83 78 0 0
-3.6989 2.5085 -12.4175 0.271 0.222 0.937 118 47 29 0 0
-3.7021 2.5348 -12.4299 0.353 0.120 0.928 118 47 29 0 0
-3.7096 2.5990 -12.4440 -0.056 0.273 0.961 120 49 31 0 0
-3.7138 2.6371 -12.4455 0.040 0.178 0.983 119 46 28 0 0
-3.7707 3.1459 -12.4786 -0.205 0.485 0.850 117 42 23 0 0
-3.7738 3.1706 -12.4913 0.056 0.404 0.913 117 41 25 0 0
-3.7859 3.2795 -12.4959 0.002 0.504 0.864 129 54 35 0 0
-3.7898 3.3135 -12.4994 -0.002 0.735 0.678 123 48 29 0 0
-3.8440 3.5786 -13.3978 0.292 0.026 0.956 57 10 3 0 0
-3.8473 3.6065 -13.4071 0.351 0.130 0.927 69 10 1 0 0
-3.8517 3.6470 -13.4031 0.090 0.228 0.969 91 22 3 0 0
-3.8768 3.7543 -13.8815 -0.657 0.753 -0.035 111 87 81 0 0
-3.8709 3.4393 -14.9101 -0.456 0.890 0.025 110 85 80 0 0
-3.8722 3.4397 -14.9532 -0.437 0.895 -0.088 110 85 81 0 0
-3.7014 2.7706 -12.4349 -0.355 0.244 0.902 119 46 27 0 0
-3.7088 2.8332 -12.4494 -0.174 0.665 0.726 120 47 28 0 0
-3.7603 3.2873 -12.4918 0.474 0.646 0.598 115 40 22 0 0
-3.7629 3.3061 -12.5100 0.474 0.646 0.598 114 39 20 0 0
-3.7980 3.5926 -12.6307 -0.234 -0.016 0.972 124 74 65 0 0
-3.8201 3.6013 -13.4166 0.338 0.144 0.930 60 10 5 0 0
-3.8245 3.6419 -13.4125 0.170 0.098 0.981 74 12 2 0 0
-3.8294 3.6881 -13.4023 -0.127 0.415 0.901 99 27 4 0 0
-3.8338 3.7296 -13.3969 -0.466 0.658 0.591 130 66 36 0 0
-3.8413 3.4394 -14.8713 -0.916 0.283 0.283 108 83 78 0 0
-3.8440 3.4594 -14.8915 -0.437 0.895 -0.088 109 84 79 0 0
-3.4578 0.8378 -12.4307 -0.225 -0.318 0.921 101 67 62 0 0
-3.6517 2.5737 -12.4011 -0.068 0.173 0.982 119 48 31 0 0
-3.6656 2.6889 -12.4408 -0.354 0.322 0.878 118 45 26 0 0
-3.6824 2.8364 -12.4498 -0.393 0.592 0.704 119 46 27 0 0
-3.6854 2.8598 -12.4643 -0.118 0.433 0.894 118 45 26 0 0
-3.7331 3.2758 -12.5063 0.454 0.585 0.672 114 38 22 0 0
-3.7356 3.2937 -12.5255 0.433 0.696 0.573 115 38 23 0 0
-3.7978 3.6432 -13.4151 0.091 0.144 0.985 62 10 3 0 0
-3.8041 3.7055 -13.3877 -0.412 0.445 0.796 81 19 7 0 0
-3.8070 3.7285 -13.4021 -0.412 0.445 0.796 101 36 13 0 0
-3.7962 3.0045 -16.1165 -0.248 0.936 -0.249 85 79 80 0 0
-3.3828 0.3808 -12.6528 -0.283 -0.484 0.828 215 215 217 0 0
-3.3977 0.5304 -12.5703 -0.283 -0.484 0.828 214 214 216 0 0
-3.4392 0.9079 -12.5238 -0.481 0.261 0.837 107 49 38 0 0
-3.6206 2.5376 -12.4009 0.267 0.359 0.894 119 47 32 0 0
-3.6241 2.5660 -12.4113 0.267 0.359 0.894 121 49 34 0 0
-3.6564 2.8442 -12.4458 -0.167 0.649 0.743 120 46 27 0 0
-3.6975 3.2023 -12.4712 -0.340 0.097 0.935 117 40 22 0 0
-3.7668 3.7370 -12.8250 -0.663 0.748 0.031 86 52 43 0 0
-3.7681 3.7412 -12.8580 -0.708 0.706 -0.014 91 58 51 0 0
-3.7730 3.6664 -13.3944 -0.018 0.233 0.972 54 8 3 0 0
-3.7752 3.6802 -13.4187 -0.100 0.029 0.995 65 12 5 0 0
-3.7815 3.7417 -13.3920 -0.558 0.419 0.716 82 18 4 0 0
-4.0853 5.6329 -17.0018 -0.527 0.431 0.732 209 209 209 0 0
-3.3483 0.3371 -12.6532 -0.280 -0.450 0.848 215 215 217 0 0
-3.4052 0.8801 -12.4390 -0.368 -0.155 0.917 105 53 43 0 0
-3.6397 2.9337 -12.4383 -0.186 0.375 0.908 120 45 26 0 0
-3.7513 3.7445 -13.2380 -0.796 0.601 -0.076 47 9 4 0 0
-3.7809 3.8881 -13.7900 -0.838 0.460 0.294 116 88 84 0 0
-3.7763 3.7576 -14.2227 -0.854 0.506 -0.118 107 79 75 0 0
-3.7682 3.5467 -14.8908 -0.670 0.711 -0.213 109 84 80 0 0
-3.7719 3.5043 -15.2492 -0.751 0.575 -0.325 112 74 66 0 0
-3.3027 0.1799 -12.7437 -0.312 -0.483 0.818 215 215 217 0 0
-3.3184 0.3331 -12.6593 -0.312 -0.483 0.818 215 215 217 0 0
-3.3642 0.7798 -12.4129 -0.284 -0.386 0.878 105 74 69 0 0
-3.6159 2.9640 -12.4133 -0.363 0.627 0.689 120 45 26 0 0
-3.6185 2.9829 -12.4318 -0.363 0.627 0.689 118 43 24 0 0
-3.6591 3.3288 -12.4654 -0.617 0.294 0.730 117 40 22 0 0
-3.7264 3.7334 -13.3699 0.014 0.564 0.826 50 10 4 0 0
-3.7296 3.7589 -13.3815 -0.218 0.615 0.758 57 9 3 0 0
-3.7533 3.7978 -14.2228 -0.860 0.494 -0.130 107 79 75 0 0
-3.2787 0.2390 -12.6997 -0.312 -0.483 0.818 215 215 217 0 0
-3.3379 0.8057 -12.3950 -0.308 -0.405 0.861 101 62 56 0 0
-3.3585 0.9984 -12.3126 -0.374 -0.381 0.846 106 51 42 0 0
-3.3506 0.9102 -12.4205 -0.408 -0.054 0.911 107 49 40 0 0
-3.5902 2.9731 -12.4081 -0.363 0.627 0.689 121 44 26 0 0
-3.5928 2.9920 -12.4266 -0.363 0.627 0.689 121 44 26 0 0
-3.6158 3.1828 -12.4638 -0.270 0.596 0.756 124 49 29 0 0
-3.6389 3.3832 -12.4526 -0.263 0.098 0.960 117 39 22 0 0
-3.6971 3.7059 -13.4033 0.276 0.521 0.808 50 10 4 0 0
-3.7027 3.7568 -13.3878 -0.084 0.628 0.773 52 9 3 0 0
-3.2549 0.2977 -12.6560 -0.312 -0.483 0.818 215 215 217 0 0
-3.3235 0.9415 -12.3251 -0.321 -0.391 0.862 102 52 43 0 0
-3.3185 0.8843 -12.4077 -0.347 0.026 0.937 104 49 40 0 0
-3.6786 3.8596 -12.9382 -0.866 0.499 -0.041 88 52 44 0 0
-3.6734 3.7386 -13.3724 -0.306 0.412 0.858 50 11 5 0 0
-3.7081 3.9570 -13.8061 -0.631 0.769 0.108 115 88 81 0 0
-3.2335 0.3782 -12.5950 -0.300 -0.470 0.830 215 215 217 0 0
-3.2852 0.8466 -12.4045 -0.104 0.087 0.991 103 52 42 0 0
-3.2914 0.8999 -12.3981 -0.347 0.026 0.937 104 49 37 0 0
-3.5297 2.9071 -12.4402 -0.417 0.588 0.693 120 43 25 0 0
-3.5543 3.1172 -12.4241 -0.235 0.244 0.941 125 48 30 0 0
-3.5612 3.1725 -12.4441 -0.244 0.397 0.885 126 49 29 0 0
-3.5748 3.2801 -12.4864 -0.386 0.553 0.738 119 40 23 0 0
-3.6544 3.8875 -12.8752 -0.866 0.480 0.140 94 62 51 0 0
-3.6561 3.8980 -12.9018 -0.823 0.562 -0.083 107 72 63 0 0
-3.6537 3.8494 -13.0662 -0.850 0.525 -0.047 39 6 0 0 0
-3.6562 3.8603 -13.1310 -0.698 0.698 -0.158 43 8 2 0 0
-3.6580 3.8311 -13.3940 -0.107 0.009 0.994 63 17 10 0 0
-3.6645 3.8901 -13.3692 -0.439 0.348 0.828 79 26 14 0 0
-3.6776 3.8348 -14.3607 -0.544 0.802 -0.247 108 80 76 0 0
-3.6698 3.6275 -15.2105 -0.829 0.545 -0.121 102 64 56 0 0
-3.1941 0.2896 -12.6309 -0.300 -0.470 0.830 215 215 217 0 0
-3.2488 0.7871 -12.3821 -0.148 -0.362 0.920 104 56 49 0 0
-3.2522 0.8128 -12.3981 0.102 -0.042 0.994 105 54 47 0 0
-3.2571 0.8536 -12.4018 0.112 0.097 0.989 104 53 42 0 0
-3.4472 2.4470 -12.3932 0.060 0.233 0.971 119 47 32 0 0
-3.5049 2.9257 -12.4262 -0.208 0.577 0.790 120 43 24 0 0
-3.5078 2.9470 -12.4425 -0.208 0.577 0.790 121 43 25 0 0
-3.5352 3.1766 -12.4436 -0.088 0.443 0.892 123 46 26 0 0
-3.5380 3.1975 -12.4600 -0.032 0.640 0.768 124 48 28 0 0
-3.5534 3.3287 -12.4430 -0.314 0.671 0.672 120 41 23 0 0
-3.6329 3.9265 -12.8758 -0.866 0.480 0.140 95 60 52 0 0
-3.6345 3.9360 -12.9034 -0.799 0.588 -0.124 103 66 57 0 0
-3.6306 3.8828 -13.0349 -0.798 0.594 -0.105 38 7 1 0 0
-3.6305 3.8747 -13.0815 -0.798 0.594 -0.105 40 8 1 0 0
-3.6416 3.9200 -13.3799 -0.417 0.268 0.869 75 15 4 0 0
-3.6505 3.7668 -14.8291 -0.766 0.610 -0.203 108 83 79 0 0
-3.6454 3.6973 -14.9991 -0.805 0.583 0.107 109 83 79 0 0
-3.2232 0.8121 -12.4016 0.135 -0.004 0.991 105 51 45 0 0
-3.2284 0.8544 -12.4042 0.162 0.085 0.983 105 51 41 0 0
-3.4159 2.4133 -12.3905 0.168 0.592 0.789 119 47 32 0 0
-3.4789 2.9318 -12.4238 -0.208 0.577 0.790 125 48 28 0 0
-3.4818 2.9532 -12.4401 -0.208 0.577 0.790 122 44 24 0 0
-3.5277 3.3342 -12.4411 -0.212 0.758 0.617 121 43 23 0 0
-3.5337 3.3804 -12.4691 -0.242 0.404 0.882 122 44 24 0 0
-3.6055 3.9139 -12.8927 -0.839 0.516 0.174 91 56 50 0 0
-3.6074 3.9265 -12.9172 -0.801 0.594 0.072 104 67 60 0 0
-3.6159 3.9297 -13.3734 -0.371 0.186 0.910 64 11 5 0 0
-3.6206 3.7498 -14.8541 -0.336 0.897 -0.288 108 83 79 0 0
-3.1942 0.8110 -12.4054 0.147 0.034 0.989 104 51 40 0 0
-3.1961 0.8225 -12.4329 -0.277 0.819 0.503 105 48 39 0 0
-3.2011 0.8629 -12.4369 -0.435 0.389 0.812 105 48 37 0 0
-3.3878 2.4057 -12.4005 -0.085 0.722 0.686 119 47 32 0 0
-3.3932 2.4503 -12.3967 -0.277 0.248 0.928 120 48 33 0 0
-3.4959 3.2881 -12.4527 -0.373 0.378 0.847 120 42 22 0 0
-3.5008 3.3292 -12.4494 -0.327 0.604 0.727 121 43 23 0 0
-3.5842 3.9547 -12.8914 -0.801 0.594 0.072 95 60 51 0 0
-3.1638 0.7917 -12.4607 -0.008 -0.040 0.999 105 48 37 0 0
-3.4716 3.3072 -12.4377 -0.203 0.658 0.725 123 45 25 0 0
-3.4864 3.4238 -12.4703 -0.376 0.356 0.855 122 44 22 0 0
-3.5595 3.9679 -12.8813 -0.809 0.515 0.285 87 55 44 0 0
-3.5670 3.9700 -13.3378 -0.599 0.145 0.787 52 9 6 0 0
-3.5639 3.9355 -13.4143 -0.339 0.103 0.935 57 12 6 0 0
-3.5776 3.9138 -14.4558 -0.596 0.451 0.665 106 78 74 0 0
-3.5691 3.7659 -15.0637 -0.877 0.468 0.110 105 79 75 0 0
-3.0659 0.2147 -12.6271 -0.300 -0.470 0.830 214 215 217 0 0
-3.1230 0.6915 -12.5075 -0.172 0.694 0.699 106 50 37 0 0
-3.1392 0.8262 -12.4725 -0.167 0.595 0.787 107 48 37 0 0
-3.4429 3.2904 -12.4210 0.216 0.559 0.800 123 45 25 0 0
-3.4744 3.5399 -12.4694 -0.044 0.223 0.974 125 46 24 0 0
-3.5378 3.9404 -13.4131 -0.278 -0.065 0.958 54 11 5 0 0
-3.5470 4.0152 -13.4096 -0.350 -0.081 0.933 90 25 11 0 0
-3.5579 3.9890 -14.3724 -0.521 -0.282 0.806 105 77 73 0 0
-3.5499 3.9023 -14.5589 -0.916 0.397 -0.061 106 78 74 0 0
-3.5501 3.8982 -14.6064 -0.944 0.330 0.010 107 80 76 0 0
-3.5523 3.8887 -14.8334 -0.874 0.474 -0.111 108 83 79 0 0
-3.5466 3.8169 -15.0513 -0.826 0.556 0.088 105 79 74 0 0
-3.1108 0.8319 -12.4709 -0.167 0.595 0.787 109 49 38 0 0
-3.3190 2.5114 -12.3877 -0.277 0.045 0.960 119 48 30 0 0
-3.3537 2.7902 -12.3872 -0.240 0.073 0.968 121 44 24 0 0
-3.3946 3.1164 -12.4089 -0.197 0.543 0.816 126 48 28 0 0
-3.3965 3.1287 -12.4335 -0.317 0.315 0.895 123 45 25 0 0
-3.5079 3.9161 -13.4045 0.063 0.022 0.998 50 11 6 0 0
-3.5141 3.9678 -13.3873 -0.273 0.015 0.962 51 11 4 0 0
-3.5172 3.9915 -13.4005 -0.361 -0.096 0.928 57 9 4 0 0
-3.5216 4.0264 -13.4014 -0.294 -0.063 0.954 71 11 3 0 0
-3.5252 3.9478 -14.3831 -0.956 0.278 0.094 105 77 73 0 0
-3.5264 3.9528 -14.4194 -0.914 0.335 0.229 105 77 73 0 0
-3.5209 3.8423 -15.0255 -0.839 0.528 0.130 107 82 77 0 0
-3.5233 3.8588 -15.0496 -0.874 0.478 0.083 105 76 72 0 0
-3.0022 0.1831 -12.6204 -0.244 -0.461 0.853 215 215 217 0 0
-3.0991 0.9773 -12.3926 -0.680 0.343 0.648 111 49 38 0 0
-3.3283 2.8035 -12.3781 -0.137 0.252 0.958 122 45 25 0 0
-3.3323 2.8345 -12.3858 -0.145 0.167 0.975 124 46 26 0 0
-3.3652 3.0953 -12.3958 -0.611 0.348 0.711 123 45 25 0 0
-3.3749 3.1681 -12.4357 -0.345 0.229 0.910 123 45 25 0 0
-3.4376 3.6641 -12.4630 0.107 0.409 0.906 123 41 20 0 0
-2.9607 0.0881 -12.6605 -0.223 -0.464 0.857 214 215 217 0 0
-3.0988 1.2063 -12.3545 -0.309 0.554 0.773 111 48 37 0 0
-3.1019 1.2292 -12.3722 -0.309 0.554 0.773 113 50 36 0 0
-3.1050 1.2521 -12.3898 -0.309 0.554 0.773 111 48 33 0 0
-3.1130 1.3133 -12.4121 -0.107 0.246 0.963 115 51 38 0 0
-3.3064 2.8420 -12.3822 -0.129 0.321 0.938 123 45 25 0 0
-3.3379 3.0888 -12.4053 0.086 0.340 0.936 123 45 24 0 0
-3.3420 3.1207 -12.4115 -0.232 0.348 0.908 123 45 24 0 0
-3.3491 3.1743 -12.4332 -0.184 0.210 0.960 123 45 25 0 0
-3.3758 3.3835 -12.4505 0.143 0.572 0.808 123 45 24 0 0
-3.4073 3.6315 -12.4624 0.255 0.633 0.731 120 38 17 0 0
-3.4115 3.6644 -12.4662 0.107 0.409 0.906 122 40 19 0 0
-3.4150 3.6903 -12.4769 0.121 0.387 0.914 122 41 22 0 0
-3.4251 3.7670 -12.5098 0.237 0.497 0.835 129 51 32 0 0
-3.4286 3.7939 -12.5192 0.126 0.370 0.921 130 53 32 0 0
-3.4622 4.0345 -12.7893 -0.148 0.602 0.785 77 34 26 0 0
-3.4705 4.0879 -12.9206 -0.823 0.559 -0.106 108 69 60 0 0
-3.4686 4.0633 -13.0224 -0.832 0.539 -0.129 42 8 4 0 0
-3.4837 4.0616 -14.3431 0.261 0.947 0.187 105 77 73 0 0
-3.4856 4.0739 -14.3707 0.339 0.941 -0.025 105 77 73 0 0
-3.4854 4.0591 -14.5152 0.157 0.987 -0.035 108 80 76 0 0
-3.4748 3.9384 -14.9191 -0.816 0.576 0.048 112 84 80 0 0
-2.9354 0.1271 -12.6328 -0.223 -0.464 0.857 213 214 218 0 0
-2.9943 0.6044 -12.4413 0.051 0.089 0.995 105 52 43 0 0
-3.0484 1.0350 -12.3516 0.442 0.483 0.756 111 49 38 0 0
-3.0611 1.1353 -12.3428 -0.126 0.490 0.863 112 51 40 0 0
-3.0853 1.3190 -12.4105 -0.107 0.246 0.963 114 49 37 0 0
-3.1811 2.0745 -12.3496 -0.316 0.062 0.947 120 49 31 0 0
-3.2341 2.4868 -12.3832 -0.138 0.345 0.928 121 48 33 0 0
-3.2372 2.5095 -12.3991 -0.029 0.866 0.499 120 47 32 0 0
-3.3057 3.0476 -12.3751 -0.330 0.464 0.822 122 44 22 0 0
-3.3088 3.0708 -12.3894 -0.330 0.464 0.822 124 46 24 0 0
-3.3967 3.7501 -12.4937 -0.143 0.836 0.530 133 55 35 0 0
-3.3987 3.7641 -12.5163 -0.143 0.836 0.530 131 53 34 0 0
-3.4367 4.0393 -12.7881 -0.148 0.602 0.785 79 35 26 0 0
-3.4464 4.0947 -13.0308 -0.854 0.507 -0.120 38 5 2 0 0
-3.4453 4.0817 -13.0829 -0.821 0.547 -0.161 40 8 4 0 0
-3.4574 4.1508 -13.3941 -0.010 0.098 0.995 102 32 5 0 0
-3.4729 4.2481 -13.6806 -0.671 0.670 0.317 88 35 22 0 0
-3.4590 4.0702 -14.5067 -0.368 0.907 -0.202 109 81 77 0 0
-3.0193 1.0323 -12.3567 -0.296 0.351 0.888 114 52 41 0 0
-3.0331 1.1404 -12.3416 -0.126 0.490 0.863 113 51 40 0 0
-3.1402 1.9695 -12.3714 -0.320 -0.216 0.922 120 47 31 0 0
-3.1470 2.0231 -12.3613 -0.320 -0.216 0.922 119 48 30 0 0
-3.2833 3.0798 -12.3843 -0.330 0.464 0.822 124 46 24 0 0
-3.3144 3.3171 -12.4487 -0.352 0.243 0.904 125 47 27 0 0
-3.3262 3.4064 -12.4715 -0.053 0.437 0.898 126 48 28 0 0
-3.3292 3.4286 -12.4864 -0.144 0.494 0.858 125 47 27 0 0
-3.4117 4.0471 -12.7837 -0.324 0.636 0.700 79 30 21 0 0
-3.4150 4.0723 -12.7946 0.205 0.741 0.639 84 39 31 0 0
-3.4248 4.1331 -12.9936 -0.792 0.577 -0.198 51 15 10 0 0
-3.4302 4.1447 -13.4050 0.130 0.059 0.990 96 23 3 0 0
-3.4482 4.2648 -13.6658 -0.631 0.669 0.393 82 30 21 0 0
-3.1162 2.0006 -12.3476 -0.287 0.483 0.827 120 47 32 0 0
-3.1204 2.0322 -12.3564 -0.346 -0.145 0.927 119 48 30 0 0
-3.2347 2.9126 -12.3628 -0.227 0.345 0.911 122 44 24 0 0
-3.2890 3.3250 -12.4446 -0.481 0.224 0.848 126 48 28 0 0
-3.3859 4.0490 -12.7854 -0.164 0.498 0.852 78 25 17 0 0
-3.3888 4.0706 -12.8001 0.247 0.655 0.715 83 35 26 0 0
-3.3986 4.1056 -13.4132 0.226 -0.087 0.970 67 13 5 0 0
-3.4086 4.1828 -13.4061 0.124 0.149 0.981 99 26 4 0 0
-3.4201 4.2587 -13.5974 -0.646 0.711 0.277 87 55 52 0 0
-3.3530 3.5789 -16.0631 -0.760 0.590 -0.274 88 86 87 0 0
-3.1079 2.1441 -12.4437 -0.051 -0.301 0.952 120 48 33 0 0
-3.1768 2.6723 -12.4062 -0.255 0.654 0.712 122 46 31 0 0
-3.2230 3.0251 -12.4062 -0.250 0.260 0.933 122 44 23 0 0
-3.3279 3.8213 -12.5060 0.180 0.715 0.676 128 52 32 0 0
-3.3888 4.2353 -13.3910 -0.167 0.712 0.682 104 34 7 0 0
-3.3934 4.2612 -13.5591 -0.481 0.638 0.602 94 58 51 0 0
-2.7824 -0.1275 -12.7305 -0.294 -0.487 0.823 214 215 217 0 0
-3.1515 2.6868 -12.3962 -0.270 0.527 0.806 122 46 31 0 0
-3.3034 3.8332 -12.4977 -0.118 0.925 0.361 129 53 31 0 0
-3.3585 4.2351 -12.8206 -0.813 0.576 0.089 76 37 32 0 0
-3.3573 4.2155 -13.0307 -0.824 0.565 0.032 43 8 4 0 0
-3.3708 4.2971 -13.4438 -0.362 0.892 0.270 132 90 61 0 0
-2.7594 -0.0704 -12.6890 -0.286 -0.492 0.822 214 215 217 0 0
-3.0544 2.1587 -12.4371 0.046 -0.295 0.954 121 49 34 0 0
-3.2191 3.3967 -12.4584 -0.207 0.347 0.915 125 44 25 0 0
-3.2425 3.5721 -12.4692 -0.092 0.572 0.815 130 48 30 0 0
-3.2540 3.6577 -12.4941 -0.523 0.256 0.813 131 48 30 0 0
-3.3353 4.2476 -12.9998 -0.789 0.608 0.087 57 18 13 0 0
-3.3424 4.2936 -13.1792 -0.437 0.899 -0.028 58 11 5 0 0
-3.3453 4.3065 -13.3981 -0.363 0.921 0.141 126 70 40 0 0
-3.3459 4.3094 -13.4341 -0.413 0.899 0.143 130 88 58 0 0
-3.3369 4.1828 -14.8694 -0.688 0.719 -0.095 96 63 55 0 0
-3.2784 3.6905 -16.1277 -0.355 0.902 0.246 90 90 92 0 0
-2.8128 0.5635 -12.4175 0.442 -0.086 0.893 105 50 39 0 0
-3.0511 2.3401 -12.4617 -0.312 0.339 0.888 120 47 30 0 0
-3.0972 2.6870 -12.3662 0.271 0.111 0.956 122 46 32 0 0
-3.3104 4.2599 -12.9147 -0.736 0.665 0.124 91 54 47 0 0
-3.3130 4.2774 -12.9715 -0.815 0.579 -0.004 101 62 52 0 0
-3.3133 4.2781 -13.0087 -0.830 0.558 0.026 68 27 20 0 0
-3.3185 4.3036 -13.4056 -0.667 0.732 0.138 120 62 34 0 0
-3.3213 4.3241 -13.4219 -0.691 0.693 0.204 134 91 61 0 0
-3.3275 4.3654 -13.5728 -0.664 0.705 0.248 87 55 50 0 0
-3.3169 4.2525 -14.5726 -0.815 0.509 0.277 92 57 47 0 0
-3.3180 4.2601 -14.6063 -0.820 0.563 0.106 103 61 49 0 0
-3.2494 3.6970 -16.1249 -0.296 0.939 0.173 89 89 90 0 0
-2.7604 0.3925 -12.4446 -0.186 -0.360 0.914 102 62 56 0 0
-2.7707 0.4693 -12.4211 -0.195 -0.321 0.927 105 53 45 0 0
-2.7735 0.4897 -12.4419 -0.028 -0.167 0.986 105 50 41 0 0
-3.1767 3.4753 -12.4253 -0.314 0.279 0.908 127 46 27 0 0
-3.2867 4.2795 -12.8223 -0.742 0.643 0.191 73 33 27 0 0
-3.2908 4.3063 -12.9441 -0.812 0.582 0.036 98 61 53 0 0
-3.3032 4.3828 -13.5572 -0.664 0.705 0.248 90 57 50 0 0
-3.2943 4.2987 -14.2675 -0.477 0.879 0.016 102 71 68 0 0
-3.2936 4.2896 -14.4048 -0.417 0.881 0.223 105 76 70 0 0
-3.2933 4.2840 -14.5392 -0.824 0.552 0.125 94 64 58 0 0
-3.2941 4.2892 -14.5757 -0.820 0.563 0.106 84 47 36 0 0
-3.2957 4.3001 -14.6054 -0.783 0.622 0.015 114 74 57 0 0
-3.2216 3.7118 -16.1593 -0.692 0.700 0.175 89 91 89 0 0
-3.0230 2.5423 -12.2867 -0.065 0.495 0.867 124 51 34 0 0
-3.0252 2.5575 -12.3091 -0.011 0.778 0.629 121 48 31 0 0
-3.0278 2.5764 -12.3282 -0.149 0.661 0.736 119 46 29 0 0
-3.1026 3.1245 -12.4020 -0.364 0.340 0.867 129 48 29 0 0
-3.1555 3.5128 -12.4286 0.038 0.201 0.979 127 44 26 0 0
-3.1581 3.5315 -12.4467 -0.389 0.364 0.846 127 44 26 0 0
-3.2658 4.2868 -14.4554 -0.840 0.461 0.284 105 76 68 0 0
-3.2719 4.3293 -14.5746 -0.783 0.622 0.015 89 48 36 0 0
-2.8619 1.5646 -12.3782 -0.204 0.262 0.943 116 49 32 0 0
-2.9557 2.2486 -12.3704 -0.399 -0.020 0.917 121 48 33 0 0
-2.9959 2.5424 -12.2898 -0.291 0.593 0.751 127 54 37 0 0
-2.9982 2.5593 -12.3107 -0.011 0.778 0.629 123 50 33 0 0
-2.9904 2.5018 -12.3989 0.020 0.312 0.950 120 47 30 0 0
-3.0730 3.1034 -12.3890 -0.116 0.172 0.978 126 48 28 0 0
-3.0783 3.1421 -12.3887 -0.160 0.449 0.879 131 51 31 0 0
-3.1161 3.4179 -12.4153 0.011 0.603 0.798 130 50 26 0 0
-3.1439 3.6199 -12.4726 -0.027 0.553 0.832 128 47 28 0 0
-3.1470 3.6420 -12.4873 -0.027 0.553 0.832 129 48 29 0 0
-3.2269 4.2220 -12.7416 -0.023 0.358 0.934 111 54 40 0 0
-3.2300 4.2443 -12.7553 -0.426 0.175 0.888 108 49 33 0 0
-3.2415 4.3275 -12.8159 -0.619 0.708 0.340 79 36 29 0 0
-3.2440 4.3399 -13.4167 -0.412 0.910 -0.042 103 64 58 0 0
-3.2438 4.3382 -13.4580 -0.412 0.909 -0.067 102 63 56 0 0
-3.2533 4.4073 -13.4586 -0.248 0.734 0.632 99 64 55 0 0
-3.2441 4.3324 -14.1949 -0.232 0.972 0.046 102 72 65 0 0
-3.2421 4.3167 -14.2974 -0.351 0.886 0.302 102 72 64 0 0
-2.9685 2.5413 -12.2939 0.266 0.570 0.777 122 50 33 0 0
-3.0908 3.4257 -12.4112 -0.008 0.737 0.676 128 49 25 0 0
-3.1585 3.9158 -12.4723 0.029 0.201 0.979 132 50 30 0 0
-3.2029 4.2357 -12.7310 -0.147 0.459 0.876 120 68 52 0 0
-3.2032 4.2314 -15.1889 -0.772 0.608 -0.184 91 61 54 0 0
-2.6519 0.4645 -12.4736 0.301 -0.223 0.927 108 49 40 0 0
-2.8127 1.6187 -12.3751 0.170 0.334 0.927 123 54 39 0 0
-3.0700 3.4662 -12.4481 0.224 0.543 0.810 128 49 28 0 0
-3.1407 3.9740 -12.4898 0.169 0.586 0.793 127 47 28 0 0
-3.1962 4.3744 -12.8484 -0.479 0.740 0.472 81 40 34 0 0
-3.1978 4.3859 -12.8735 -0.605 0.712 0.355 80 42 35 0 0
-3.1986 4.3921 -12.9045 -0.572 0.581 0.579 81 44 37 0 0
-3.1970 4.3875 -14.4754 -0.675 0.672 0.304 100 71 64 0 0
-3.1773 4.2500 -15.2156 -0.671 0.683 -0.289 95 61 51 0 0
-3.1443 4.0152 -15.7907 -0.540 0.770 -0.338 83 84 83 0 0
-3.1390 3.9776 -15.8862 -0.541 0.771 -0.336 85 86 88 0 0
-3.1173 3.8239 -16.2285 -0.716 0.628 -0.305 91 92 94 0 0
-2.5219 -0.2475 -12.7332 -0.233 -0.509 0.828 215 216 218 0 0
-2.7894 1.6545 -12.3844 0.023 0.212 0.977 125 56 41 0 0
-2.9923 3.1010 -12.4377 0.025 0.415 0.910 126 46 26 0 0
