ply
format ascii 1.0
element vertex 835
property float x
property float y
property float z
property float nx
property float ny
property float nz
property uchar diffuse_red
property uchar diffuse_green
property uchar diffuse_blue
property uchar class
property uchar detection
end_header
-2.9245 0.6373 -15.8888 -0.131 -0.875 0.466 92 44 36 0 0
-2.9507 0.6130 -15.9326 -0.092 -0.847 0.524 30 21 21 0 0
-2.9638 0.6009 -15.9545 -0.092 -0.847 0.524 26 24 25 0 0
-2.9925 0.5729 -15.9936 -0.095 -0.938 0.334 34 32 33 0 0
-2.4547 0.7045 -12.3877 -0.809 -0.429 0.402 125 48 30 0 0
-2.4618 0.6997 -12.4114 -0.772 -0.139 0.620 125 48 30 0 0
-2.4715 0.6915 -12.4319 -0.810 -0.092 0.579 124 47 29 0 0
-2.5116 0.6512 -12.4790 -0.748 -0.437 0.500 127 50 32 0 0
-2.5327 0.6272 -12.4846 -0.297 0.112 0.948 126 49 31 0 0
-2.9151 0.1844 -12.5377 -0.388 -0.768 0.509 123 63 21 0 0
-2.8971 0.2400 -12.7653 -0.523 -0.837 0.159 98 40 29 0 0
-2.9301 0.2842 -13.3144 -0.903 -0.425 0.055 76 31 24 0 0
-2.9339 0.2844 -13.3449 -0.914 -0.403 0.046 73 28 22 0 0
-2.9353 0.2880 -13.3791 -0.856 -0.516 0.024 71 27 20 0 0
-2.9387 0.2887 -13.4103 -0.881 -0.468 0.064 68 24 17 0 0
-2.9425 0.2888 -13.4411 -0.887 -0.441 0.137 69 26 18 0 0
-2.9826 0.2942 -13.7886 -0.727 -0.613 0.309 104 57 33 0 0
-3.0265 0.2549 -13.8717 -0.474 -0.863 0.176 87 37 25 0 0
-3.0279 0.2646 -13.9460 -0.657 -0.638 0.401 66 18 9 0 0
-3.0322 0.2642 -13.9776 -0.832 -0.496 0.250 81 24 13 0 0
-2.9932 0.3493 -14.2349 -0.395 -0.918 -0.044 105 62 47 0 0
-3.0188 0.3610 -14.5125 -0.751 -0.658 -0.049 125 61 40 0 0
-3.0113 0.3840 -14.6062 -0.177 -0.400 0.899 107 53 39 0 0
-3.0864 0.3390 -14.8929 -0.217 -0.967 0.133 94 48 42 0 0
-3.0955 0.3322 -14.9192 -0.364 -0.857 0.364 93 48 42 0 0
-2.9786 0.6213 -15.9178 0.037 -0.827 0.561 23 17 17 0 0
-2.9918 0.6089 -15.9394 0.011 -0.862 0.507 24 23 24 0 0
-2.9961 0.6096 -15.9774 -0.027 -0.938 0.346 32 30 31 0 0
-3.0178 0.5850 -15.9836 -0.280 -0.902 0.328 33 31 32 0 0
-2.4470 0.7614 -12.4526 -0.688 -0.641 0.340 125 48 30 0 0
-2.4910 0.7059 -12.4289 -0.812 -0.464 0.354 124 47 29 0 0
-2.6149 0.5600 -12.4326 -0.659 -0.654 0.370 129 54 35 0 0
-2.9698 0.1850 -12.7211 -0.475 -0.871 0.123 94 44 38 0 0
-2.9520 0.3127 -13.4169 -0.881 -0.468 0.064 75 36 28 0 0
-2.9556 0.3132 -13.4479 -0.887 -0.441 0.137 77 39 30 0 0
-2.9707 0.3201 -13.6095 -0.924 -0.306 0.229 83 44 34 0 0
-2.9762 0.3180 -13.6383 -0.906 -0.301 0.296 84 43 32 0 0
-3.0018 0.3105 -13.7865 -0.589 -0.730 0.346 99 52 29 0 0
-3.0472 0.2869 -13.9824 -0.832 -0.496 0.250 75 20 10 0 0
-3.0635 0.3989 -14.8388 0.199 -0.883 0.425 111 57 43 0 0
-3.1153 0.3433 -14.8754 -0.149 -0.696 0.702 94 48 42 0 0
-3.1246 0.3363 -14.9014 -0.454 -0.827 0.331 92 48 41 0 0
-3.0021 0.5533 -15.3731 -0.745 -0.666 -0.046 91 50 44 0 0
-3.0055 0.6308 -15.9048 -0.036 -0.779 0.626 18 13 13 0 0
-3.0205 0.6159 -15.9230 0.037 -0.827 0.561 24 23 23 0 0
-2.4907 0.7478 -12.4516 -0.465 0.051 0.884 127 50 32 0 0
-2.5133 0.7215 -12.4553 0.050 -0.077 0.996 128 51 33 0 0
-2.5644 0.6559 -12.4220 0.096 -0.112 0.989 129 54 35 0 0
-2.7180 0.4889 -12.5176 -0.208 -0.523 0.827 120 44 25 0 0
-2.7726 0.4233 -12.5110 -0.361 -0.186 0.914 119 43 27 0 0
-2.9410 0.2613 -12.7516 -0.402 -0.750 0.526 97 39 28 0 0
-2.9511 0.2525 -12.7716 -0.446 -0.683 0.578 94 44 38 0 0
-2.9677 0.2722 -13.0255 -0.830 -0.558 -0.009 67 25 18 0 0
-2.9619 0.3416 -13.4284 -0.953 -0.275 0.130 89 54 45 0 0
-2.9681 0.3385 -13.4557 -0.919 -0.368 0.142 93 58 49 0 0
-2.9725 0.3379 -13.4858 -0.919 -0.368 0.142 95 60 49 0 0
-2.9769 0.3374 -13.5160 -0.908 -0.396 0.135 95 58 47 0 0
-2.9952 0.4671 -14.4914 -0.748 0.188 0.637 110 51 35 0 0
-3.0522 0.3912 -14.4376 -0.302 -0.783 0.544 124 62 42 0 0
-3.0496 0.4013 -14.4824 -0.109 -0.899 0.425 123 61 39 0 0
-3.0728 0.3931 -14.6066 -0.084 -0.944 0.319 99 47 33 0 0
-3.0811 0.4196 -14.8408 0.018 -0.919 0.393 108 54 42 0 0
-3.0169 0.5794 -15.3812 -0.658 -0.733 -0.171 90 49 43 0 0
-3.0279 0.5701 -15.4055 -0.815 -0.580 -0.017 90 49 43 0 0
-3.0294 0.5749 -15.4470 -0.805 -0.592 0.034 89 48 42 0 0
-3.0193 0.6524 -15.8699 0.023 -0.792 0.610 26 13 14 0 0
-3.0383 0.6316 -15.8807 0.214 -0.406 0.889 13 10 12 0 0
-3.0481 0.6244 -15.9087 0.037 -0.827 0.561 23 21 22 0 0
-3.0575 0.6177 -15.9373 -0.023 -0.968 0.249 28 26 27 0 0
-2.0252 1.3347 -12.4308 -0.100 0.080 0.992 128 55 38 0 0
-2.5048 0.7697 -12.4556 -0.123 -0.037 0.992 127 50 32 0 0
-2.5768 0.6801 -12.4283 -0.121 -0.267 0.956 131 56 37 0 0
-2.6232 0.6259 -12.4336 -0.202 -0.278 0.939 126 51 32 0 0
-2.6254 0.6281 -12.4639 -0.557 -0.601 0.574 126 51 32 0 0
-2.7489 0.4872 -12.4992 -0.200 -0.716 0.669 120 43 25 0 0
-2.7645 0.4706 -12.5116 -0.166 -0.132 0.977 118 42 24 0 0
-2.7881 0.4429 -12.5131 -0.361 -0.186 0.914 121 45 29 0 0
-2.9611 0.3685 -13.3466 -0.974 -0.223 0.035 46 27 19 0 0
-2.9786 0.3609 -13.4299 -0.884 -0.462 0.071 40 21 14 0 0
-3.0126 0.3649 -13.7122 -0.776 -0.535 0.335 97 59 38 0 0
-3.0640 0.3512 -14.0133 -0.868 -0.494 0.038 74 20 8 0 0
-3.0642 0.3570 -14.0518 -0.581 -0.176 0.794 94 31 16 0 0
-3.0740 0.4052 -14.4322 -0.502 -0.754 0.425 123 61 42 0 0
-3.1034 0.3753 -14.4641 -0.373 -0.919 0.125 123 60 43 0 0
-3.1104 0.3716 -14.4930 -0.362 -0.892 0.271 114 53 40 0 0
-3.1028 0.3954 -14.5873 -0.175 -0.975 0.140 99 46 33 0 0
-3.0398 0.5937 -15.3748 -0.653 -0.752 -0.086 90 49 43 0 0
-3.0432 0.5957 -15.4128 -0.805 -0.592 0.034 90 49 43 0 0
-3.0447 0.6640 -15.8595 0.043 -0.651 0.758 16 10 11 0 0
-3.0623 0.6452 -15.8729 0.091 -0.397 0.913 13 10 12 0 0
-3.0782 0.6290 -15.8894 0.010 -0.567 0.824 18 16 17 0 0
-3.0938 0.6131 -15.9065 -0.002 -0.934 0.357 22 20 21 0 0
-2.4929 0.8228 -12.4603 0.156 -0.286 0.945 126 49 31 0 0
-2.5954 0.6956 -12.4263 -0.121 -0.267 0.956 126 49 31 0 0
-2.6409 0.6426 -12.4329 -0.116 -0.016 0.993 128 51 33 0 0
-2.6537 0.6300 -12.4491 -0.643 -0.434 0.631 122 47 28 0 0
-2.6649 0.6197 -12.4676 -0.643 -0.434 0.631 125 50 31 0 0
-2.6881 0.5925 -12.4700 -0.574 -0.523 0.630 124 48 30 0 0
-2.7641 0.5072 -12.5017 -0.050 -0.278 0.959 120 43 25 0 0
-2.7798 0.4905 -12.5140 -0.205 -0.089 0.975 118 40 23 0 0
-2.8906 0.5005 -13.4051 -0.923 0.257 0.286 14 7 5 0 0
-3.0246 0.3915 -13.7213 -0.659 -0.656 0.369 109 66 36 0 0
-3.0685 0.4142 -14.1920 -0.540 -0.778 -0.322 111 61 44 0 0
-3.0942 0.4213 -14.4292 -0.127 -0.910 0.394 124 62 44 0 0
-3.1280 0.3851 -14.4539 -0.273 -0.908 0.318 123 60 43 0 0
-3.1293 0.3896 -14.4922 -0.321 -0.924 0.208 113 52 39 0 0
-3.1226 0.4123 -14.5852 -0.229 -0.973 -0.025 99 47 34 0 0
-3.0926 0.4758 -14.7602 0.014 -0.594 0.805 107 57 42 0 0
-3.0622 0.6158 -15.4135 -0.889 -0.458 0.020 91 51 44 0 0
-3.0637 0.6347 -15.5439 -0.678 -0.723 0.134 98 56 46 0 0
-3.0472 0.6877 -15.7542 -0.473 -0.872 -0.130 52 29 26 0 0
-3.0474 0.6946 -15.7993 -0.473 -0.872 -0.130 34 24 25 0 0
-3.0510 0.6965 -15.8384 -0.461 -0.884 0.080 21 16 16 0 0
-3.0700 0.6758 -15.8493 0.064 -0.616 0.785 17 13 11 0 0
-3.0774 0.6721 -15.8817 -0.256 -0.230 0.939 17 15 13 0 0
-3.1067 0.6359 -15.8732 -0.130 -0.367 0.921 18 16 17 0 0
-3.0894 0.6689 -15.9516 -0.777 -0.061 0.626 20 18 19 0 0
-3.1339 0.6548 -16.1955 -0.590 -0.772 -0.234 30 28 29 0 0
-2.4731 0.8817 -12.4419 0.013 -0.106 0.994 124 47 29 0 0
-2.5131 0.8311 -12.4234 0.093 -0.028 0.995 123 46 28 0 0
-2.5206 0.8260 -12.4468 -0.420 0.060 0.905 128 51 33 0 0
-2.5404 0.8036 -12.4542 -0.348 0.098 0.932 127 50 32 0 0
-2.6833 0.6353 -12.4658 -0.677 -0.344 0.651 127 52 33 0 0
-2.7106 0.6024 -12.4629 -0.197 -0.622 0.757 125 50 31 0 0
-2.7833 0.5216 -12.4987 -0.163 -0.154 0.974 119 42 24 0 0
-2.8168 0.4852 -12.5203 -0.233 -0.222 0.947 120 44 28 0 0
-2.9796 0.3040 -12.5990 -0.369 -0.632 0.681 89 31 9 0 0
-2.9210 0.5004 -13.3862 -0.837 -0.133 0.531 4 2 3 0 0
-2.9321 0.4904 -13.4063 -0.837 -0.133 0.531 6 2 3 0 0
-3.1177 0.4327 -14.4209 -0.306 -0.885 0.352 122 63 43 0 0
-3.1414 0.4046 -14.4219 -0.686 -0.681 0.254 123 63 43 0 0
-3.1383 0.4157 -14.4676 -0.267 -0.955 -0.130 120 59 41 0 0
-3.1443 0.4199 -14.5389 -0.449 -0.892 -0.050 101 47 35 0 0
-3.1207 0.4811 -14.7442 0.068 -0.610 0.789 108 59 44 0 0
-3.0880 0.6401 -15.4907 -0.580 -0.810 -0.086 99 56 47 0 0
-3.0894 0.6452 -15.5328 -0.306 -0.931 0.198 99 51 43 0 0
-3.0963 0.6859 -15.8372 0.248 -0.358 0.900 20 16 15 0 0
-3.0847 0.7105 -15.9047 -0.487 0.217 0.846 21 17 16 0 0
-3.5686 0.2436 -16.5830 0.169 -0.971 -0.170 131 129 130 0 0
-2.0435 1.4322 -12.4403 -0.257 -0.149 0.955 125 52 35 0 0
-2.0685 1.4028 -12.4428 -0.062 -0.226 0.972 125 52 35 0 0
-2.0875 1.3818 -12.4527 -0.107 -0.720 0.685 125 52 35 0 0
-2.5344 0.8486 -12.4514 -0.272 -0.128 0.954 127 50 32 0 0
-2.6153 0.7457 -12.4122 -0.161 -0.278 0.947 126 49 31 0 0
-2.6296 0.7310 -12.4266 -0.334 0.057 0.941 125 48 30 0 0
-2.6874 0.6658 -12.4499 -0.864 -0.165 0.476 127 51 32 0 0
-2.7809 0.5611 -12.4916 -0.201 -0.053 0.978 121 44 26 0 0
-2.8016 0.5373 -12.4971 -0.309 -0.108 0.945 120 43 25 0 0
-2.8187 0.5187 -12.5075 -0.408 0.051 0.911 117 42 22 0 0
-2.8334 0.5032 -12.5210 -0.153 -0.253 0.955 120 45 27 0 0
-2.9731 0.4750 -13.3714 -0.947 -0.097 0.307 5 1 2 0 0
-2.9273 0.5468 -13.4768 -0.854 -0.339 0.395 6 1 1 0 0
-2.9359 0.5405 -13.5008 -0.854 -0.339 0.395 7 1 1 0 0
-2.9397 0.5410 -13.5321 -0.884 -0.438 0.161 8 2 2 0 0
-3.0097 0.4704 -13.6116 -0.691 -0.486 0.535 15 4 4 0 0
-3.0125 0.4725 -13.6448 -0.320 0.079 0.944 23 5 5 0 0
-3.0687 0.4219 -13.7462 -0.888 -0.264 0.378 105 63 37 0 0
-3.1088 0.4264 -14.0677 -0.671 -0.602 0.433 89 28 11 0 0
-3.1379 0.4488 -14.4180 -0.211 -0.936 0.283 121 63 42 0 0
-3.1629 0.4187 -14.4166 -0.564 -0.814 0.140 124 63 43 0 0
-3.1642 0.4234 -14.4551 -0.344 -0.928 -0.145 120 59 41 0 0
-3.1516 0.4821 -14.7234 -0.673 -0.727 0.138 108 59 44 0 0
-3.1084 0.6510 -15.4444 -0.431 -0.887 -0.166 100 56 48 0 0
-3.1094 0.6566 -15.4870 -0.384 -0.916 -0.115 99 50 45 0 0
-3.1121 0.6600 -15.5269 -0.183 -0.983 0.022 83 41 35 0 0
-3.1078 0.6737 -15.5796 -0.697 -0.694 -0.179 62 31 26 0 0
-3.0911 0.7133 -15.7004 -0.677 -0.732 -0.079 30 22 21 0 0
-3.0824 0.7560 -15.8996 -0.837 -0.482 0.259 22 17 17 0 0
-3.0991 0.7386 -15.9148 -0.402 0.423 0.812 22 18 17 0 0
-3.2456 0.5642 -15.9176 0.073 -0.780 0.621 23 21 22 0 0
-3.4254 0.3316 -15.8055 -0.409 0.543 0.734 34 32 33 0 0
-3.5063 0.4143 -16.9068 0.215 -0.948 0.233 133 131 132 0 0
-2.4611 0.9719 -12.4357 -0.388 -0.524 0.758 125 48 30 0 0
-2.5045 0.9217 -12.4461 -0.272 0.061 0.960 126 49 31 0 0
-2.5332 0.8868 -12.4421 -0.433 -0.070 0.898 124 47 29 0 0
-2.5543 0.8626 -12.4480 -0.049 -0.208 0.977 125 48 30 0 0
-2.5795 0.8326 -12.4483 0.057 -0.210 0.976 126 49 31 0 0
-2.7964 0.5808 -12.4937 -0.201 -0.053 0.978 122 45 27 0 0
-2.8167 0.5575 -12.4998 -0.309 -0.108 0.945 119 42 24 0 0
-2.8343 0.5382 -12.5095 -0.343 -0.175 0.923 116 41 22 0 0
-3.0645 0.2883 -12.6631 -0.798 -0.539 0.270 82 20 8 0 0
-3.0089 0.5156 -13.6403 -0.482 -0.160 0.862 15 4 3 0 0
-3.0388 0.4784 -13.6318 -0.220 -0.046 0.974 21 5 5 0 0
-3.0759 0.4495 -13.7251 -0.788 -0.494 0.367 110 64 34 0 0
-3.1404 0.3807 -13.7756 -0.577 0.073 0.814 121 79 69 0 0
-3.1301 0.4402 -14.0626 -0.304 -0.940 0.156 85 24 7 0 0
-3.1692 0.3895 -14.0383 -0.552 -0.764 -0.335 106 45 30 0 0
-3.1863 0.4501 -14.5306 -0.551 -0.825 -0.129 101 47 37 0 0
-3.1370 0.6788 -15.5618 -0.242 -0.965 -0.100 41 24 22 0 0
-2.4830 0.9833 -12.4299 -0.150 -0.721 0.676 125 50 31 0 0
-2.4965 0.9697 -12.4457 -0.125 0.099 0.987 125 50 31 0 0
-2.5178 0.9452 -12.4513 -0.272 0.061 0.960 125 50 31 0 0
-2.5409 0.9181 -12.4546 -0.261 0.064 0.963 126 49 31 0 0
-2.6497 0.7807 -12.4120 -0.171 -0.211 0.962 128 51 33 0 0
-2.8318 0.5777 -12.5024 -0.309 -0.108 0.945 121 44 26 0 0
-2.8498 0.5577 -12.5116 -0.343 -0.175 0.923 117 41 23 0 0
-2.8648 0.5419 -12.5247 0.062 -0.219 0.974 119 45 27 0 0
-3.0222 0.3679 -12.6108 -0.762 -0.593 0.261 109 49 20 0 0
-3.0780 0.3049 -12.6340 -0.804 -0.246 0.541 67 14 3 0 0
-2.9690 0.5990 -13.6165 -0.575 -0.776 0.261 10 4 4 0 0
-3.0254 0.5358 -13.6425 -0.205 -0.619 0.758 17 5 4 0 0
-3.0658 0.4833 -13.6177 -0.060 -0.612 0.789 24 6 4 0 0
-3.0894 0.4678 -13.6942 -0.787 -0.613 0.071 101 50 27 0 0
-3.0887 0.4751 -13.7331 -0.470 -0.307 0.827 129 84 57 0 0
-3.1150 0.4557 -13.8060 -0.808 -0.399 0.432 77 34 18 0 0
-3.1486 0.4582 -14.0621 -0.716 -0.659 -0.231 82 23 8 0 0
-2.3690 1.1535 -12.3989 -0.483 0.301 0.822 126 53 34 0 0
-2.5019 0.9989 -12.4279 -0.215 -0.374 0.902 125 50 31 0 0
-2.6674 0.7976 -12.4114 -0.171 -0.211 0.962 126 49 31 0 0
-2.6862 0.7764 -12.4198 -0.339 -0.256 0.905 126 49 31 0 0
-3.0790 0.3222 -12.5208 -0.377 -0.620 0.688 141 75 25 0 0
-3.0504 0.3691 -12.5950 -0.705 -0.340 0.623 109 47 14 0 0
-3.0901 0.3292 -12.6409 -0.804 -0.246 0.541 67 14 5 0 0
-3.0908 0.4910 -13.6066 -0.056 -0.719 0.693 27 7 5 0 0
-3.1038 0.4846 -13.6617 -0.755 -0.656 -0.017 71 22 6 0 0
-3.1053 0.4952 -13.7351 -0.470 -0.307 0.827 135 87 61 0 0
-3.1217 0.4841 -13.7857 -0.734 -0.550 0.398 105 60 35 0 0
-3.1480 0.4519 -13.7822 -0.632 0.058 0.773 79 34 22 0 0
-3.1644 0.4343 -13.7943 -0.652 -0.018 0.758 102 56 47 0 0
-3.1726 0.6707 -15.2564 -0.379 -0.921 0.094 94 51 43 0 0
-3.2231 0.6546 -15.5204 -0.385 -0.923 -0.016 22 13 14 0 0
-3.2148 0.6747 -15.5808 -0.609 -0.793 0.027 23 14 15 0 0
-3.2278 0.6628 -15.6021 0.347 -0.631 0.694 24 16 14 0 0
-3.2334 0.6619 -15.6370 0.235 -0.902 0.361 25 17 15 0 0
-3.5175 0.3228 -15.6472 0.587 -0.048 0.808 38 27 25 0 0
-2.4006 1.1569 -12.4141 -0.368 -0.247 0.896 125 52 33 0 0
-2.8596 0.6161 -12.4776 -0.089 -0.488 0.868 122 45 27 0 0
-2.8729 0.6027 -12.4930 -0.283 -0.434 0.855 122 45 27 0 0
-3.0872 0.3520 -12.5331 -0.637 -0.356 0.683 137 66 15 0 0
-3.1078 0.3513 -12.6741 -0.737 -0.621 0.268 78 19 9 0 0
-2.9932 0.6525 -13.6344 -0.730 0.282 0.623 11 4 4 0 0
-3.0469 0.5931 -13.6647 0.419 -0.103 0.902 16 6 5 0 0
-3.1210 0.5038 -13.6628 -0.606 -0.780 0.157 66 19 6 0 0
-3.1287 0.4990 -13.6887 -0.288 -0.672 0.682 93 41 16 0 0
-3.1241 0.5121 -13.7338 -0.358 -0.550 0.755 130 83 53 0 0
-3.1693 0.4717 -13.8151 -0.234 -0.332 0.914 93 45 38 0 0
-3.1967 0.6903 -15.2918 -0.215 -0.972 0.098 97 52 41 0 0
-3.2324 0.6973 -15.5843 -0.667 -0.740 0.087 24 14 12 0 0
-3.2291 0.7099 -15.6357 0.364 -0.806 0.466 26 14 12 0 0
-2.4121 1.1833 -12.4216 0.071 -0.379 0.923 124 51 32 0 0
-2.4709 1.1167 -12.4462 -0.335 0.043 0.941 126 51 32 0 0
-2.4918 1.0926 -12.4526 -0.335 0.043 0.941 127 50 32 0 0
-2.5885 0.9776 -12.4604 -0.299 -0.678 0.672 125 49 30 0 0
-2.7488 0.7826 -12.4490 -0.283 -0.090 0.955 124 48 30 0 0
-2.7680 0.7607 -12.4567 -0.283 -0.090 0.955 125 48 30 0 0
-2.8645 0.6453 -12.4606 -0.157 0.126 0.979 121 43 25 0 0
-2.8776 0.6321 -12.4762 -0.860 0.044 0.508 119 42 24 0 0
-2.8873 0.6241 -12.4967 -0.350 -0.096 0.932 120 43 25 0 0
-3.1019 0.3724 -12.5362 -0.637 -0.356 0.683 141 69 17 0 0
-3.1161 0.3577 -12.5500 -0.545 -0.396 0.739 118 51 14 0 0
-3.1482 0.5147 -13.6860 -0.160 -0.818 0.552 84 34 15 0 0
-3.1459 0.5247 -13.7277 -0.148 -0.683 0.715 123 76 46 0 0
-3.2237 0.4559 -13.8724 -0.555 -0.727 0.405 104 46 13 0 0
-3.2321 0.7004 -15.3510 -0.249 -0.967 0.046 28 10 10 0 0
-3.2394 0.6971 -15.3824 -0.054 -0.995 0.083 14 3 7 0 0
-3.2451 0.6960 -15.4165 -0.323 -0.944 0.073 15 5 6 0 0
-3.2507 0.6953 -15.4510 -0.323 -0.944 0.073 18 8 6 0 0
-3.2532 0.6993 -15.4915 -0.855 -0.519 0.019 20 10 9 0 0
-3.2561 0.7026 -15.5312 -0.855 -0.519 0.019 23 11 11 0 0
-3.4248 0.4998 -15.5329 -0.133 -0.769 0.625 53 19 14 0 0
-2.5651 1.0363 -12.4135 0.003 -0.458 0.889 126 51 32 0 0
-2.5875 1.0099 -12.4175 -0.131 -0.594 0.794 126 51 32 0 0
-2.6024 0.9945 -12.4315 -0.131 -0.594 0.794 126 51 32 0 0
-2.6049 0.9966 -12.4616 0.121 -0.703 0.701 126 50 31 0 0
-2.8839 0.6652 -12.4910 -0.246 -0.665 0.706 119 42 24 0 0
-2.9033 0.6430 -12.4981 -0.368 -0.308 0.877 120 43 25 0 0
-3.1202 0.3876 -12.5343 -0.458 0.009 0.889 143 75 23 0 0
-3.1518 0.3773 -12.6941 -0.490 -0.859 0.145 78 19 11 0 0
-3.0685 0.6442 -13.6492 0.312 0.023 0.950 14 5 6 0 0
-3.1730 0.5225 -13.6751 -0.142 -0.876 0.461 79 29 13 0 0
-3.2837 0.5010 -14.3179 -0.462 -0.868 0.181 121 59 40 0 0
-2.9642 1.0786 -15.4211 0.473 0.239 0.848 95 49 40 0 0
-3.2355 0.7133 -15.2030 0.024 -0.938 0.346 99 56 44 0 0
-3.2439 0.7082 -15.2319 -0.074 -0.968 0.241 100 52 41 0 0
-3.2917 0.6818 -15.4113 -0.559 -0.480 0.676 17 9 6 0 0
-3.2912 0.6903 -15.4570 -0.573 -0.800 0.180 23 11 9 0 0
-3.4970 0.4457 -15.4777 0.396 -0.218 0.892 62 19 12 0 0
-3.8303 0.2791 -16.8300 0.642 -0.087 0.762 141 141 141 0 0
-2.5869 1.0476 -12.4076 0.003 -0.458 0.889 129 54 35 0 0
-2.6048 1.0277 -12.4176 -0.216 -0.393 0.894 129 54 35 0 0
-2.6213 1.0099 -12.4294 -0.216 -0.393 0.894 126 51 32 0 0
-2.7594 0.8460 -12.4472 -0.411 -0.039 0.911 130 55 36 0 0
-2.7793 0.8232 -12.4541 -0.283 -0.090 0.955 125 50 31 0 0
-2.7985 0.8014 -12.4619 -0.283 -0.090 0.955 125 50 31 0 0
-3.0257 0.5313 -12.4876 -0.782 -0.524 0.337 125 52 39 0 0
-3.1356 0.4070 -12.5363 -0.256 -0.081 0.963 130 61 15 0 0
-3.1725 0.3651 -12.5518 -0.297 -0.320 0.900 75 17 9 0 0
-3.1680 0.3897 -12.6608 -0.482 -0.839 0.252 69 14 4 0 0
-2.9021 0.8425 -13.4063 -0.889 0.442 0.119 45 43 44 0 0
-3.0901 0.6569 -13.6434 0.297 0.063 0.953 14 5 6 0 0
-3.1896 0.5426 -13.6771 -0.342 -0.552 0.760 73 25 8 0 0
-3.2794 0.4560 -13.8017 -0.218 -0.547 0.808 125 87 62 0 0
-3.3034 0.5247 -14.3563 -0.676 -0.736 0.040 114 55 39 0 0
-2.9471 1.1465 -15.4415 0.757 -0.372 0.537 89 39 30 0 0
-2.9908 1.0879 -15.4089 0.473 0.239 0.848 92 45 36 0 0
-3.2932 0.7128 -15.3545 0.019 -0.999 0.050 15 5 4 0 0
-3.3100 0.7027 -15.4130 -0.355 -0.897 0.263 22 9 6 0 0
-3.3249 0.6878 -15.4305 -0.350 -0.932 0.099 32 11 8 0 0
-3.3160 0.7094 -15.4921 -0.664 -0.742 0.093 41 13 8 0 0
-2.8908 0.7338 -12.4947 -0.830 -0.040 0.557 125 48 30 0 0
-3.0468 0.5365 -12.4481 -0.636 -0.520 0.569 121 48 32 0 0
-3.1534 0.4229 -12.5351 -0.224 0.047 0.973 130 55 9 0 0
-3.1707 0.4036 -12.5444 -0.296 -0.064 0.953 102 30 2 0 0
-3.1978 0.3700 -12.5398 -0.361 -0.303 0.882 73 12 3 0 0
-2.9888 0.7461 -13.2307 -0.941 -0.018 -0.338 47 45 44 0 0
-3.1119 0.6694 -13.6374 0.297 0.063 0.953 15 6 7 0 0
-3.2286 0.5427 -13.7199 -0.701 -0.711 -0.060 133 83 51 0 0
-3.2998 0.4703 -13.7976 -0.218 -0.547 0.808 127 92 66 0 0
-3.3059 0.4681 -13.8264 -0.288 -0.917 0.277 113 65 27 0 0
-3.3231 0.5413 -14.3541 -0.674 -0.692 0.258 115 56 40 0 0
-3.3050 0.6965 -15.1030 -0.357 -0.932 -0.065 101 55 44 0 0
-3.3164 0.7182 -15.3026 0.008 -0.994 0.105 13 4 4 0 0
-3.3303 0.7127 -15.3664 -0.187 -0.959 0.214 24 8 7 0 0
-3.6000 0.3999 -15.4443 0.420 -0.877 0.235 75 23 12 0 0
-3.7445 0.2481 -15.5743 -0.550 -0.494 0.673 84 45 39 0 0
-3.7565 0.2376 -15.5968 -0.519 0.003 0.855 84 46 39 0 0
-3.7715 0.2223 -15.6131 -0.453 -0.367 0.812 82 46 41 0 0
-3.9005 0.2433 -16.6091 -0.540 -0.381 0.751 121 116 115 0 0
-4.0531 0.0808 -16.7337 0.549 -0.214 0.808 168 168 170 0 0
-2.7424 0.9438 -12.4488 0.012 -0.335 0.942 127 52 33 0 0
-2.9148 0.7352 -12.4515 0.186 -0.452 0.873 125 47 29 0 0
-2.9288 0.7269 -12.4998 -0.350 -0.410 0.842 121 44 26 0 0
-3.2125 0.3904 -12.5429 -0.497 -0.246 0.832 77 15 3 0 0
-3.2064 0.4240 -12.6889 -0.241 -0.781 0.576 74 17 10 0 0
-3.1548 0.6571 -13.6363 -0.006 0.318 0.948 16 5 7 0 0
-3.1764 0.6317 -13.6404 -0.468 0.239 0.851 18 5 7 0 0
-3.2743 0.5330 -13.7521 -0.183 -0.849 0.495 94 49 30 0 0
-3.3070 0.4977 -13.7763 -0.389 -0.662 0.641 105 65 51 0 0
-3.3202 0.4848 -13.7936 -0.237 -0.295 0.926 143 108 84 0 0
-3.3292 0.4781 -13.8175 -0.288 -0.917 0.277 118 72 34 0 0
-3.3266 0.7118 -15.0984 -0.396 -0.918 -0.011 101 53 42 0 0
-3.3304 0.7139 -15.1354 -0.396 -0.918 -0.011 90 40 30 0 0
-3.3459 0.7218 -15.2838 -0.034 -0.994 0.101 18 4 4 0 0
-3.4435 0.6353 -15.4615 -0.968 -0.219 0.121 71 20 12 0 0
-3.6092 0.4101 -15.3274 -0.248 -0.925 0.286 78 23 14 0 0
-3.7803 0.2576 -15.6337 -0.789 -0.278 0.548 81 47 40 0 0
-3.9192 0.2650 -16.6115 -0.540 -0.381 0.751 117 112 111 0 0
-1.8317 2.0833 -12.4138 0.188 -0.605 0.773 118 51 35 0 0
-2.6642 1.0640 -12.3744 0.159 -0.630 0.760 125 50 31 0 0
-2.8037 0.9095 -12.4571 -0.782 -0.122 0.611 125 50 31 0 0
-2.8194 0.8926 -12.4695 -0.536 -0.108 0.837 125 50 31 0 0
-2.9464 0.7436 -12.4991 -0.350 -0.410 0.842 120 43 25 0 0
-3.1813 0.4661 -12.5435 -0.296 -0.064 0.953 143 73 26 0 0
-3.2272 0.4107 -12.5460 -0.359 -0.358 0.862 77 15 3 0 0
-2.9967 0.8363 -13.3450 -0.542 -0.674 -0.502 46 42 41 0 0
-3.1645 0.6877 -13.6493 -0.203 0.370 0.906 16 6 7 0 0
-3.3262 0.5138 -13.7742 -0.454 -0.613 0.646 98 57 42 0 0
-3.3386 0.5021 -13.7927 -0.237 -0.295 0.926 149 113 93 0 0
-3.3505 0.4912 -13.8121 -0.665 -0.673 0.324 127 83 49 0 0
-3.4391 0.6751 -15.4154 -0.196 -0.811 0.552 68 18 9 0 0
-3.4435 0.6765 -15.4525 -0.914 -0.368 0.170 72 19 11 0 0
-3.4552 0.6664 -15.4757 -0.857 -0.211 0.470 74 20 12 0 0
-3.6308 0.4170 -15.2775 0.412 -0.859 0.306 77 23 13 0 0
-3.7643 0.3237 -15.6573 -0.018 -0.595 0.804 81 46 40 0 0
-3.9585 0.2534 -16.5687 -0.545 0.130 0.828 113 109 106 0 0
-2.6629 1.1088 -12.3988 -0.068 -0.255 0.965 125 50 31 0 0
-2.7596 0.9922 -12.4049 0.160 -0.371 0.915 126 51 32 0 0
-2.7783 0.9709 -12.4134 0.217 -0.693 0.688 127 52 33 0 0
-2.8159 0.9344 -12.4638 -0.457 -0.225 0.861 131 56 37 0 0
-2.8316 0.9176 -12.4764 -0.352 -0.372 0.859 127 51 33 0 0
-2.8786 0.8610 -12.4801 -0.418 -0.172 0.892 130 54 34 0 0
-2.9046 0.8291 -12.4785 -0.240 0.050 0.970 129 52 32 0 0
-3.1985 0.4830 -12.5432 -0.179 -0.094 0.979 158 87 40 0 0
-3.2182 0.4600 -12.5490 -0.179 -0.094 0.979 121 45 3 0 0
-3.2568 0.4344 -12.6651 0.239 -0.713 0.659 74 16 8 0 0
-3.2019 0.6835 -13.6566 -0.197 0.354 0.914 16 6 5 0 0
-3.3450 0.5305 -13.7727 -0.483 -0.629 0.609 97 55 43 0 0
-3.3551 0.5223 -13.7950 -0.346 -0.330 0.878 141 104 88 0 0
-3.3685 0.5091 -13.8118 -0.665 -0.673 0.324 124 81 50 0 0
-3.4631 0.6871 -15.4065 -0.241 -0.845 0.476 72 19 11 0 0
-3.4608 0.6989 -15.4561 -0.873 -0.448 0.194 73 18 11 0 0
-3.4728 0.6886 -15.4790 -0.636 -0.293 0.714 74 19 12 0 0
-3.6622 0.4163 -15.2534 0.287 -0.955 0.072 77 23 13 0 0
-3.6625 0.4241 -15.2979 -0.122 -0.952 0.280 77 23 13 0 0
-3.7562 0.3017 -15.2521 0.495 -0.691 0.527 80 27 13 0 0
-3.7866 0.3209 -15.5579 -0.676 -0.639 0.367 83 46 38 0 0
-3.9505 0.2531 -16.2756 -0.882 -0.449 0.147 76 47 42 0 0
-4.0146 0.2236 -16.5396 -0.961 0.078 0.263 113 107 105 0 0
-4.0024 0.2529 -16.6180 -0.825 -0.523 -0.214 118 112 109 0 0
-3.9569 0.3365 -16.7711 -0.874 -0.217 0.434 124 120 117 0 0
-2.8600 0.9187 -12.4612 -0.524 0.020 0.851 126 50 32 0 0
-2.8774 0.8995 -12.4714 -0.524 0.020 0.851 126 50 31 0 0
-2.8936 0.8818 -12.4831 -0.418 -0.172 0.892 128 54 33 0 0
-2.9786 0.7754 -12.4681 -0.198 -0.597 0.777 126 50 29 0 0
-2.9880 0.7677 -12.4889 -0.060 -0.624 0.779 119 42 23 0 0
-3.0425 0.7060 -12.5150 -0.481 -0.206 0.852 115 40 22 0 0
-3.1127 0.8354 -13.6726 0.052 0.395 0.917 8 1 1 0 0
-3.1810 0.7463 -13.6416 0.062 0.374 0.925 16 7 8 0 0
-3.2056 0.7162 -13.6409 -0.006 0.326 0.945 16 6 5 0 0
-3.2405 0.6705 -13.6239 0.041 0.308 0.950 16 5 3 0 0
-3.3616 0.5506 -13.7748 -0.570 -0.496 0.654 95 52 40 0 0
-3.3730 0.5404 -13.7949 -0.385 -0.287 0.877 137 97 85 0 0
-3.3858 0.5282 -13.8129 -0.570 -0.496 0.654 127 86 57 0 0
-3.6077 0.5512 -15.3945 -0.887 0.225 0.404 77 23 13 0 0
-3.6254 0.5318 -15.4060 -0.835 0.349 0.425 78 24 13 0 0
-3.8056 0.3401 -15.5580 -0.811 -0.465 0.356 82 47 38 0 0
-3.8226 0.3217 -15.5704 -0.736 -0.014 0.677 77 42 35 0 0
-4.0025 0.2857 -16.5588 -0.839 0.309 0.448 107 99 97 0 0
-4.0096 0.2836 -16.5944 -0.978 -0.114 0.174 111 103 101 0 0
-4.0142 0.2856 -16.6356 -0.889 -0.431 -0.155 114 107 105 0 0
-3.9924 0.3309 -16.7362 -0.608 -0.738 -0.293 119 115 112 0 0
-2.6799 1.1703 -12.4221 -0.410 -0.513 0.754 125 50 31 0 0
-2.7035 1.1419 -12.4245 -0.652 -0.322 0.687 125 50 31 0 0
-2.8455 0.9642 -12.4029 -0.036 -0.695 0.719 123 46 28 0 0
-2.8583 0.9515 -12.4193 0.033 -0.655 0.755 124 47 29 0 0
-2.9086 0.9026 -12.4861 -0.418 -0.172 0.892 127 51 31 0 0
-2.9841 0.8035 -12.4501 -0.205 -0.190 0.960 131 55 34 0 0
-2.9992 0.7875 -12.4631 -0.285 -0.434 0.855 133 57 36 0 0
-3.0129 0.7736 -12.4781 -0.198 -0.597 0.777 123 48 27 0 0
-3.0268 0.7593 -12.4927 -0.198 -0.597 0.777 119 43 26 0 0
-3.0378 0.7494 -12.5114 -0.122 -0.750 0.650 116 39 23 0 0
-3.0573 0.7269 -12.5182 -0.481 -0.206 0.852 116 39 24 0 0
-3.0750 0.7069 -12.5274 -0.437 -0.034 0.899 116 43 28 0 0
-3.1905 0.7774 -13.6550 0.026 0.391 0.920 16 8 6 0 0
-3.2179 0.7429 -13.6498 0.025 0.331 0.943 16 6 4 0 0
-3.2520 0.6982 -13.6340 0.149 0.343 0.928 18 5 4 0 0
-3.3911 0.5583 -13.7946 -0.570 -0.496 0.654 137 96 86 0 0
-3.4032 0.5471 -13.8137 -0.570 -0.496 0.654 141 100 74 0 0
-3.6692 0.5117 -15.3582 0.364 0.226 0.904 78 24 13 0 0
-4.0030 0.2986 -16.3972 -0.705 -0.678 0.209 79 48 43 0 0
-4.0148 0.2888 -16.4219 -0.571 -0.815 0.098 83 53 47 0 0
-4.0341 0.2957 -16.5838 -0.933 -0.351 0.079 103 100 97 0 0
-4.0199 0.3385 -16.7193 -0.495 0.301 0.815 115 111 107 0 0
-2.8746 0.9641 -12.3868 0.130 -0.702 0.700 124 47 29 0 0
-2.9236 0.9235 -12.4891 -0.418 -0.172 0.892 128 51 31 0 0
-3.0314 0.7889 -12.4761 -0.077 -0.514 0.854 123 48 28 0 0
-3.0462 0.7733 -12.4894 -0.193 -0.698 0.690 121 46 27 0 0
-3.0558 0.7656 -12.5102 -0.087 -0.873 0.480 121 44 25 0 0
-3.1608 0.6283 -12.4647 -0.504 -0.707 0.495 120 49 35 0 0
-3.5507 0.7064 -15.3950 -0.244 -0.777 0.580 75 21 10 0 0
-3.8330 0.3691 -15.4402 -0.280 -0.664 0.693 84 46 37 0 0
-3.8366 0.3721 -15.4793 -0.118 -0.870 0.479 80 43 36 0 0
-3.8675 0.3489 -15.5565 -0.204 -0.931 0.302 65 34 32 0 0
-3.8770 0.3603 -15.6781 -0.617 -0.490 0.616 59 48 46 0 0
-3.8876 0.3522 -15.7037 -0.673 -0.699 0.242 55 48 48 0 0
-3.9319 0.3442 -15.9474 -0.683 -0.713 0.157 44 34 37 0 0
-4.0225 0.3186 -16.3975 -0.856 -0.397 0.332 75 45 37 0 0
-4.0368 0.3048 -16.4169 -0.571 -0.815 0.098 78 46 38 0 0
-4.2599 0.0827 -16.6876 0.172 0.509 0.843 171 172 174 0 0
-2.6334 1.3003 -12.3946 0.205 -0.661 0.722 123 50 31 0 0
-2.6549 1.2750 -12.4000 0.080 -0.475 0.877 123 50 31 0 0
-2.9386 0.9443 -12.4921 -0.418 -0.172 0.892 125 47 27 0 0
-3.0381 0.8154 -12.4566 -0.045 -0.418 0.907 128 52 33 0 0
-3.0523 0.8007 -12.4708 -0.077 -0.514 0.854 122 47 28 0 0
-3.0674 0.7847 -12.4838 -0.193 -0.698 0.690 124 47 28 0 0
-3.0805 0.7716 -12.4995 -0.189 -0.748 0.636 120 43 23 0 0
-3.2778 0.5411 -12.5607 -0.046 -0.254 0.966 149 77 32 0 0
-3.2981 0.5171 -12.5656 -0.262 -0.373 0.890 118 47 7 0 0
-3.2804 0.5705 -12.7303 -0.397 -0.094 0.913 69 14 6 0 0
-3.3564 0.4824 -12.7579 -0.540 -0.043 0.840 95 49 41 0 0
-3.3290 0.6787 -13.6064 0.249 0.236 0.939 20 5 2 0 0
-3.4533 0.5762 -13.8683 -0.147 -0.662 0.735 82 22 5 0 0
-3.4817 0.7544 -14.9797 -0.246 -0.888 0.389 58 18 9 0 0
-3.8496 0.3920 -15.4449 0.037 -0.931 0.362 81 44 36 0 0
-3.9161 0.3929 -15.8757 -0.157 -0.919 0.361 38 34 36 0 0
-3.9434 0.3577 -15.8669 -0.437 -0.318 0.841 37 33 35 0 0
-3.9361 0.3788 -15.9305 -0.460 -0.886 -0.061 40 34 36 0 0
-3.9515 0.3631 -15.9468 -0.683 -0.713 0.157 43 34 36 0 0
-3.9503 0.3743 -15.9979 -0.681 -0.731 -0.034 41 35 35 0 0
-4.0311 0.3370 -16.3204 -0.844 -0.350 0.406 67 43 40 0 0
-4.0589 0.3009 -16.3101 -0.471 -0.882 -0.032 70 43 39 0 0
-4.0528 0.3303 -16.4248 -0.696 -0.684 0.218 76 43 37 0 0
-4.0614 0.3259 -16.4568 -0.577 -0.788 0.214 77 46 40 0 0
-4.0474 0.3986 -16.7468 -0.541 0.233 0.808 108 102 98 0 0
-4.0404 0.4204 -16.8153 -0.453 -0.188 0.872 115 111 107 0 0
-4.0374 0.4356 -16.8751 -0.592 -0.804 -0.062 124 120 119 0 0
-2.5302 1.4774 -12.4510 -0.586 -0.418 0.694 123 50 31 0 0
-2.9159 0.9889 -12.3775 -0.188 -0.530 0.827 122 45 27 0 0
-2.9291 0.9757 -12.3932 -0.261 -0.664 0.701 124 47 29 0 0
-3.0170 0.8704 -12.4078 -0.005 -0.353 0.936 124 46 26 0 0
-3.1297 0.7540 -12.5226 -0.003 -0.635 0.773 119 47 30 0 0
-3.1982 0.6575 -12.4596 -0.337 -0.426 0.839 121 50 35 0 0
-3.3160 0.5329 -12.5642 -0.262 -0.373 0.890 134 53 7 0 0
-3.3298 0.5187 -12.5786 -0.280 -0.191 0.941 91 24 4 0 0
-3.3356 0.5436 -12.7439 -0.047 -0.084 0.995 83 26 17 0 0
-3.3541 0.5223 -12.7516 -0.013 -0.264 0.964 96 43 35 0 0
-3.3707 0.5040 -12.7620 -0.196 -0.632 0.750 94 46 38 0 0
-3.3829 0.4921 -12.7789 -0.226 -0.800 0.555 71 41 37 0 0
-3.2997 0.7619 -13.6435 0.336 0.291 0.896 18 5 3 0 0
-3.4779 0.6303 -14.0959 -0.379 -0.376 0.846 100 45 28 0 0
-3.5205 0.6592 -14.5152 -0.948 -0.168 0.270 74 18 10 0 0
-3.5339 0.7377 -15.0063 0.356 -0.678 0.643 21 4 0 0 0
-3.9414 0.4024 -15.8630 -0.841 -0.295 0.453 21 18 22 0 0
-4.0465 0.3635 -16.3296 -0.844 -0.350 0.406 57 41 37 0 0
-4.0568 0.3562 -16.3575 -0.844 -0.350 0.406 63 42 38 0 0
-4.0605 0.4301 -16.7625 -0.577 -0.260 0.774 105 97 94 0 0
-4.0585 0.4437 -16.8197 -0.453 -0.188 0.872 111 106 103 0 0
-4.0604 0.4507 -16.8682 -0.530 -0.847 -0.029 121 116 115 0 0
-2.5195 1.5309 -12.4539 0.004 -0.692 0.722 124 51 30 0 0
-3.1210 0.7969 -12.4905 -0.018 -0.548 0.836 119 42 24 0 0
-3.1616 0.7489 -12.5015 -0.240 -0.430 0.870 116 44 26 0 0
-3.2120 0.6796 -12.4641 -0.711 -0.130 0.691 120 50 33 0 0
-3.3206 0.5688 -12.5822 -0.592 -0.516 0.619 135 52 5 0 0
-3.3486 0.5672 -12.7500 0.212 -0.210 0.955 84 26 18 0 0
-3.3709 0.5401 -12.7520 0.242 -0.445 0.862 94 42 35 0 0
-3.4975 0.6465 -14.0936 -0.109 -0.405 0.908 99 43 26 0 0
-3.5249 0.7756 -14.9262 -0.579 -0.815 0.016 67 25 13 0 0
-3.5312 0.7740 -14.9583 0.130 -0.766 0.629 31 5 1 0 0
-3.5467 0.7579 -14.9735 0.144 -0.820 0.554 19 3 1 0 0
-3.5634 0.7399 -14.9866 0.196 -0.586 0.786 24 5 1 0 0
-3.5728 0.7336 -15.0133 0.031 -0.841 0.540 37 8 3 0 0
-3.5853 0.7222 -15.0341 0.001 -0.871 0.491 50 13 5 0 0
-3.9621 0.4195 -15.8601 -0.910 -0.143 0.389 17 12 16 0 0
-4.0481 0.3834 -16.2177 -0.874 0.087 0.477 35 27 25 0 0
-4.0598 0.3837 -16.2928 -0.743 -0.601 0.295 43 34 32 0 0
-4.0685 0.3791 -16.3242 -0.743 -0.601 0.295 47 37 34 0 0
-4.0779 0.3734 -16.3542 -0.717 -0.604 0.347 55 40 37 0 0
-4.0867 0.3686 -16.3856 -0.663 -0.592 0.459 64 40 38 0 0
-4.0688 0.4086 -16.4766 -0.842 -0.299 0.449 67 41 37 0 0
-4.0725 0.4124 -16.5197 -0.299 -0.235 0.925 70 42 36 0 0
-4.0959 0.3835 -16.5191 0.190 -0.727 0.660 73 44 39 0 0
-4.0810 0.4185 -16.6043 -0.748 -0.180 0.639 77 48 45 0 0
-4.0631 0.4895 -16.8547 -0.646 -0.654 0.393 108 101 98 0 0
-4.0736 0.4823 -16.8839 -0.646 -0.654 0.393 116 111 108 0 0
-4.1414 0.4101 -16.9417 -0.536 -0.772 -0.342 155 156 158 0 0
-2.7985 1.2250 -12.4473 -0.734 -0.454 0.505 124 49 30 0 0
-3.0968 0.8498 -12.4122 0.079 -0.019 0.997 125 47 27 0 0
-3.1795 0.7651 -12.5003 -0.380 -0.336 0.862 116 43 26 0 0
-3.2161 0.7164 -12.4824 -0.655 -0.111 0.747 120 48 33 0 0
-3.3380 0.5854 -12.5815 -0.637 -0.516 0.572 131 48 3 0 0
-3.4003 0.5386 -12.7335 0.213 -0.611 0.763 93 40 32 0 0
-3.4246 0.5083 -12.7322 0.186 -0.780 0.597 93 45 35 0 0
-3.4482 0.6765 -13.7311 -0.521 -0.580 0.626 113 70 33 0 0
-3.4002 0.7590 -13.8493 0.116 -0.455 0.883 92 51 28 0 0
-3.5180 0.6611 -14.0895 -0.109 -0.405 0.908 100 44 28 0 0
-3.5303 0.6497 -14.1088 -0.376 -0.425 0.824 90 32 19 0 0
-3.5557 0.6910 -14.4763 -0.674 -0.721 0.161 83 27 18 0 0
-3.5187 0.8260 -14.9284 -0.852 -0.508 -0.128 90 43 28 0 0
-3.5575 0.7813 -14.9447 0.243 -0.748 0.618 24 3 1 0 0
-3.5967 0.7445 -15.0039 -0.081 -0.749 0.658 43 10 3 0 0
-3.6131 0.7270 -15.0174 -0.094 -0.499 0.862 56 15 6 0 0
-3.9751 0.4492 -15.8733 -0.828 -0.038 0.559 16 10 11 0 0
-3.9695 0.4680 -15.9337 -0.941 -0.075 0.331 18 13 15 0 0
-3.9752 0.4683 -15.9705 -0.930 -0.291 0.224 32 27 31 0 0
-3.9836 0.4640 -16.0016 -0.906 -0.158 0.393 45 40 42 0 0
-4.0030 0.4416 -16.0095 -0.832 -0.399 0.384 43 37 37 0 0
-4.1086 0.3846 -16.3806 -0.885 -0.355 0.302 57 39 38 0 0
-4.0820 0.4392 -16.4910 -0.666 -0.303 0.682 62 40 38 0 0
-4.0978 0.4229 -16.5073 -0.288 -0.036 0.957 67 40 36 0 0
-4.0651 0.5613 -17.0033 -0.497 -0.805 -0.325 126 122 122 0 0
-2.8118 1.2489 -12.4528 -0.482 -0.779 0.400 124 49 30 0 0
-2.8288 1.2300 -12.4638 0.002 -0.684 0.729 124 49 30 0 0
-3.0300 0.9737 -12.4268 -0.836 -0.028 0.548 126 48 30 0 0
-3.1492 0.8272 -12.4307 -0.036 -0.279 0.960 125 48 30 0 0
-3.1610 0.8296 -12.5164 0.111 -0.143 0.983 118 42 24 0 0
-3.1962 0.7829 -12.5007 -0.380 -0.336 0.862 118 43 27 0 0
-3.2405 0.7223 -12.4717 -0.516 -0.605 0.606 118 44 30 0 0
-3.4044 0.5687 -12.7176 -0.193 -0.754 0.628 83 23 15 0 0
-3.4459 0.5330 -12.7964 -0.451 -0.748 0.487 55 39 36 0 0
-3.3209 0.8595 -13.6574 0.320 0.390 0.863 20 8 8 0 0
-3.3553 0.8136 -13.6406 0.281 0.336 0.899 18 5 4 0 0
-3.4673 0.6926 -13.7290 -0.451 -0.583 0.675 114 71 32 0 0
-3.5385 0.6757 -14.0854 -0.109 -0.405 0.908 101 45 30 0 0
-3.5589 0.7089 -14.3780 -0.829 -0.535 0.160 106 49 35 0 0
-3.5663 0.8077 -14.9193 0.009 -0.929 0.370 39 8 3 0 0
-3.5841 0.7879 -14.9303 0.224 -0.805 0.549 20 2 1 0 0
-3.6215 0.7541 -14.9929 -0.098 -0.574 0.813 48 12 4 0 0
-3.9340 0.3993 -15.1523 -0.334 -0.429 0.839 87 43 34 0 0
-3.9741 0.4351 -15.5802 -0.704 -0.596 0.387 39 34 36 0 0
-3.9793 0.5032 -15.9537 -0.941 -0.075 0.331 20 13 14 0 0
-3.9924 0.5010 -16.0241 -0.936 -0.335 0.111 43 38 40 0 0
-4.0185 0.4675 -16.0177 -0.828 -0.330 0.454 39 33 33 0 0
-4.1320 0.4080 -16.4234 -0.881 -0.424 0.211 58 40 39 0 0
-4.1311 0.4198 -16.4769 -0.793 0.191 0.579 64 40 37 0 0
-4.1789 0.3599 -16.4726 -0.443 -0.735 0.514 71 43 37 0 0
-4.1683 0.3881 -16.5483 -0.369 -0.613 0.699 74 46 43 0 0
-4.0948 0.5653 -16.9812 -0.436 -0.841 -0.320 121 118 117 0 0
-2.6145 1.5287 -12.4328 -0.160 -0.265 0.951 126 53 34 0 0
-2.7016 1.4250 -12.4536 -0.309 -0.015 0.951 126 51 32 0 0
-2.7412 1.3790 -12.4689 -0.450 0.117 0.885 125 50 31 0 0
-2.8301 1.2652 -12.4515 -0.649 0.043 0.760 124 49 30 0 0
-3.1661 0.8446 -12.4307 -0.138 -0.187 0.973 125 48 30 0 0
-3.2589 0.7375 -12.4698 -0.573 -0.341 0.745 120 45 32 0 0
-3.3805 0.6067 -12.5688 -0.292 -0.476 0.829 131 53 9 0 0
-3.4405 0.5709 -12.7596 -0.128 -0.416 0.900 95 48 37 0 0
-3.4566 0.5531 -12.7706 -0.195 -0.500 0.844 85 45 39 0 0
-3.4717 0.5369 -12.7831 0.181 -0.172 0.968 57 37 35 0 0
-3.4870 0.7079 -13.7260 -0.256 -0.625 0.738 117 73 33 0 0
-3.5746 0.7317 -14.3826 -0.539 -0.818 0.200 103 46 34 0 0
-3.6129 0.7909 -14.9120 0.217 -0.795 0.567 20 2 0 0 0
-3.6358 0.7716 -14.9572 0.037 -0.601 0.798 40 9 3 0 0
-3.6433 0.7684 -14.9874 -0.341 -0.590 0.732 55 14 3 0 0
-3.9535 0.4168 -15.1506 -0.557 -0.291 0.778 85 44 35 0 0
-3.9540 0.4253 -15.1953 -0.115 -0.823 0.557 83 45 37 0 0
-3.9953 0.4506 -15.5757 -0.644 -0.583 0.495 29 25 26 0 0
-4.0051 0.5317 -16.0384 -0.936 -0.335 0.111 41 37 38 0 0
-4.0312 0.4981 -16.0320 -0.798 -0.234 0.555 30 25 25 0 0
-4.1404 0.4571 -16.5002 -0.390 0.307 0.868 60 39 38 0 0
-4.2001 0.3769 -16.4689 -0.235 -0.739 0.631 68 41 38 0 0
-4.1888 0.4066 -16.5467 -0.321 -0.393 0.862 72 43 40 0 0
-4.1976 0.4021 -16.5787 -0.325 -0.945 0.012 78 51 47 0 0
-2.6118 1.5704 -12.4254 -0.001 -0.718 0.696 123 51 29 0 0
-2.6311 1.5482 -12.4340 -0.233 -0.093 0.968 124 51 32 0 0
-2.7627 1.3908 -12.4635 -0.167 -0.135 0.977 124 49 30 0 0
-2.7796 1.3721 -12.4750 -0.066 -0.157 0.985 123 48 29 0 0
-2.8469 1.2839 -12.4523 -0.493 -0.349 0.797 124 49 30 0 0
-3.1830 0.8622 -12.4309 -0.437 -0.125 0.891 122 45 27 0 0
-3.1886 0.8675 -12.4914 -0.284 -0.133 0.950 117 40 22 0 0
-3.2082 0.8446 -12.4980 -0.185 -0.529 0.828 120 43 25 0 0
-3.2838 0.7426 -12.4583 -0.337 -0.469 0.816 120 45 30 0 0
-3.4037 0.6144 -12.5596 0.009 -0.520 0.854 132 56 15 0 0
-3.4409 0.5782 -12.6089 0.256 -0.434 0.864 57 12 5 0 0
-3.4435 0.6027 -12.7453 -0.128 -0.416 0.900 89 37 28 0 0
-3.4599 0.5846 -12.7560 -0.128 -0.416 0.900 92 46 35 0 0
-3.4760 0.5667 -12.7669 -0.195 -0.500 0.844 86 46 39 0 0
-3.3874 0.8558 -13.6466 0.204 0.377 0.904 19 5 4 0 0
-3.5074 0.7220 -13.7218 -0.059 -0.555 0.830 126 79 40 0 0
-3.5841 0.6975 -14.0693 -0.038 -0.681 0.731 108 52 36 0 0
-3.5965 0.7446 -14.3763 -0.279 -0.960 -0.026 103 46 33 0 0
-3.6596 0.7826 -14.9479 0.037 -0.601 0.798 46 11 5 0 0
-3.9725 0.4351 -15.1501 -0.732 -0.357 0.581 84 45 36 0 0
-3.9756 0.4394 -15.1895 -0.093 -0.743 0.663 82 47 39 0 0
-4.0145 0.4031 -15.2488 0.095 -0.779 0.620 65 41 39 0 0
-4.0288 0.4945 -15.7850 -0.755 -0.620 0.214 16 7 8 0 0
-4.0032 0.5670 -15.9853 -0.647 -0.297 0.703 27 22 24 0 0
-4.0460 0.5253 -16.0419 -0.798 -0.234 0.555 25 19 19 0 0
-4.1556 0.4532 -16.3557 -0.849 -0.339 0.406 28 17 15 0 0
-4.1688 0.4516 -16.4289 -0.715 -0.690 0.112 41 32 31 0 0
-4.1777 0.4471 -16.4606 -0.498 0.445 0.744 51 37 36 0 0
-4.2239 0.3894 -16.4594 -0.143 -0.621 0.771 65 40 37 0 0
-4.2060 0.4306 -16.5523 0.001 -0.145 0.989 70 40 38 0 0
-4.2172 0.4222 -16.5791 -0.067 -0.295 0.953 75 47 43 0 0
-2.6462 1.5700 -12.4373 -0.235 -0.011 0.972 122 49 30 0 0
-2.7535 1.4422 -12.4651 -0.051 -0.241 0.969 125 50 31 0 0
-2.9990 1.1313 -12.4387 -0.048 0.112 0.993 126 50 31 0 0
-3.1969 0.8844 -12.4354 -0.566 0.137 0.813 120 43 25 0 0
-3.2158 0.8624 -12.4427 -0.483 0.202 0.852 120 43 25 0 0
-3.2283 0.8572 -12.4935 -0.117 -0.560 0.820 122 45 27 0 0
-3.4208 0.6313 -12.5594 0.157 -0.338 0.928 135 60 18 0 0
-3.4629 0.6164 -12.7417 -0.128 -0.416 0.900 88 36 25 0 0
-3.4806 0.5961 -12.7503 -0.176 -0.513 0.840 90 44 30 0 0
-3.4956 0.5802 -12.7632 -0.176 -0.513 0.840 89 47 38 0 0
-3.3339 0.9706 -13.6846 -0.208 -0.439 0.874 14 4 4 0 0
-3.5461 0.7153 -13.7264 -0.637 -0.517 0.571 109 64 39 0 0
-3.5156 0.7880 -13.8959 -0.295 -0.324 0.899 122 81 68 0 0
-3.6048 0.7117 -14.0648 -0.171 -0.662 0.730 104 47 31 0 0
-3.6119 0.7087 -14.0931 -0.569 -0.761 0.312 100 41 24 0 0
-3.6283 0.7762 -14.5208 -0.904 0.113 0.413 70 18 12 0 0
-4.0346 0.4198 -15.2461 -0.264 -0.709 0.654 68 46 43 0 0
-4.0749 0.3622 -15.2102 0.197 -0.394 0.898 64 43 39 0 0
-4.0731 0.4716 -15.7319 -0.710 0.397 0.581 15 6 7 0 0
-4.0216 0.5882 -15.9875 -0.542 -0.467 0.699 33 28 29 0 0
-4.0290 0.5859 -16.0211 -0.853 -0.504 0.137 40 35 36 0 0
-4.0590 0.5557 -16.0557 -0.786 -0.273 0.554 30 21 22 0 0
-4.2469 0.4033 -16.4517 -0.294 -0.654 0.697 61 39 38 0 0
-4.2351 0.4342 -16.5307 0.179 -0.406 0.896 67 39 37 0 0
-4.2486 0.4219 -16.5522 0.211 -0.485 0.849 71 43 40 0 0
-2.5367 1.7386 -12.3995 0.201 -0.190 0.961 121 50 32 0 0
-3.0294 1.1287 -12.4205 -0.067 -0.898 0.435 128 51 33 0 0
-3.1703 0.9548 -12.4287 -0.099 -0.068 0.993 126 48 29 0 0
-3.2056 0.9147 -12.4472 -0.456 0.081 0.886 121 44 26 0 0
-3.2326 0.8801 -12.4430 -0.259 0.067 0.964 121 44 27 0 0
-3.4426 0.6410 -12.5522 0.157 -0.338 0.928 148 71 27 0 0
-3.4823 0.6301 -12.7382 -0.128 -0.416 0.900 86 34 22 0 0
-3.5026 0.6058 -12.7429 -0.415 -0.670 0.616 92 46 32 0 0
-3.5130 0.5969 -12.7626 -0.295 -0.738 0.606 94 50 40 0 0
-3.5267 0.5829 -12.7772 -0.341 -0.640 0.689 65 36 30 0 0
-3.0945 1.3143 -13.7061 -0.344 -0.825 0.448 35 33 35 0 0
-3.1115 1.2956 -13.7182 -0.142 -0.334 0.932 14 12 13 0 0
-3.3718 0.9656 -13.6913 0.164 -0.234 0.958 25 10 8 0 0
-3.5526 0.7432 -13.7061 -0.227 -0.604 0.764 126 75 37 0 0
-3.5631 0.7347 -13.7278 -0.637 -0.517 0.571 107 62 35 0 0
-3.5856 0.7481 -13.9275 -0.825 -0.033 0.564 79 21 9 0 0
-3.6266 0.7242 -14.0584 0.010 -0.721 0.693 105 47 31 0 0
-3.6468 0.7686 -14.3942 -0.830 -0.371 0.416 90 33 22 0 0
-3.6287 0.8242 -14.5534 -0.900 0.017 0.435 67 17 10 0 0
-4.1060 0.3698 -15.2310 -0.249 0.169 0.954 49 35 34 0 0
-4.1288 0.3413 -15.2305 -0.356 0.056 0.933 44 35 35 0 0
-4.0271 0.6211 -15.9680 -0.172 -0.348 0.922 24 17 19 0 0
-4.0406 0.6086 -15.9885 -0.542 -0.467 0.699 37 31 33 0 0
-4.0529 0.5980 -16.0116 -0.522 -0.453 0.723 40 34 36 0 0
-4.0772 0.6296 -16.3102 -0.211 -0.185 0.960 19 8 8 0 0
-4.2009 0.5143 -16.4973 -0.758 -0.118 0.641 38 28 27 0 0
-4.2660 0.4239 -16.4529 -0.691 -0.175 0.701 56 38 37 0 0
-4.2640 0.4382 -16.5097 -0.041 -0.406 0.913 64 38 37 0 0
-4.2699 0.4388 -16.5485 0.304 -0.365 0.880 68 40 37 0 0
-4.5068 0.1934 -16.7886 -0.839 -0.542 0.048 179 180 182 0 0
-2.5909 1.7083 -12.3860 0.057 -0.182 0.982 122 50 32 0 0
-2.7714 1.4970 -12.4539 -0.442 0.065 0.895 124 49 30 0 0
-3.0027 1.1925 -12.3789 -0.175 -0.168 0.970 126 52 33 0 0
-3.0220 1.1699 -12.3863 -0.270 -0.175 0.947 128 55 36 0 0
-3.0443 1.1428 -12.3897 -0.138 0.057 0.989 126 50 31 0 0
-3.0643 1.1192 -12.3960 -0.177 -0.083 0.981 124 47 28 0 0
-3.0847 1.0949 -12.4018 -0.177 -0.083 0.981 123 46 28 0 0
-3.3037 0.8281 -12.4342 0.113 -0.725 0.679 122 46 30 0 0
-3.3116 0.8303 -12.4917 -0.035 -0.245 0.969 119 44 30 0 0
-3.3665 0.7522 -12.4465 -0.394 -0.750 0.532 122 53 41 0 0
-3.4646 0.6502 -12.5445 0.087 -0.242 0.966 153 77 31 0 0
-3.5017 0.6437 -12.7346 -0.128 -0.416 0.900 82 32 18 0 0
-3.5212 0.6206 -12.7404 -0.602 -0.685 0.411 92 47 33 0 0
-3.5384 0.6086 -12.7854 -0.602 -0.685 0.411 68 37 27 0 0
-3.1158 1.3283 -13.7015 -0.419 -0.876 0.239 35 33 35 0 0
-3.3781 0.9943 -13.6715 -0.300 -0.683 0.666 12 3 2 0 0
-3.5565 0.7755 -13.6903 -0.284 -0.577 0.766 105 49 16 0 0
-3.5733 0.7569 -13.7014 -0.227 -0.604 0.764 130 79 43 0 0
-3.5809 0.7529 -13.7279 -0.641 -0.530 0.555 110 65 32 0 0
-3.6098 0.7564 -13.9169 -0.541 0.038 0.840 76 20 6 0 0
-3.6630 0.7907 -14.3980 -0.801 -0.484 0.353 88 29 20 0 0
-4.1190 0.3982 -15.2427 -0.208 0.268 0.941 46 35 33 0 0
-4.1420 0.3692 -15.2417 -0.221 0.197 0.955 42 33 33 0 0
-4.0453 0.6427 -15.9706 -0.796 -0.416 0.440 30 23 24 0 0
-4.0560 0.6349 -15.9972 -0.796 -0.416 0.440 39 33 34 0 0
-4.0580 0.6418 -16.0424 -0.933 -0.359 -0.002 37 31 33 0 0
-4.2170 0.5402 -16.5054 -0.706 -0.625 0.333 34 21 19 0 0
-4.2828 0.4593 -16.5116 -0.161 -0.489 0.857 58 39 36 0 0
-4.2893 0.4702 -16.6020 0.142 -0.800 0.583 69 44 39 0 0
-2.6698 1.6470 -12.3736 0.021 -0.469 0.883 122 49 32 0 0
-2.6909 1.6220 -12.3799 -0.110 -0.895 0.432 121 48 30 0 0
-2.7548 1.5601 -12.4655 0.108 -0.225 0.968 123 49 30 0 0
-2.7814 1.5265 -12.4640 -0.489 0.166 0.857 124 49 30 0 0
-3.0136 1.2198 -12.3875 0.225 -0.617 0.754 127 53 34 0 0
-3.0282 1.2044 -12.4014 -0.151 -0.702 0.696 130 58 38 0 0
-3.0537 1.1723 -12.4004 -0.365 0.084 0.927 125 50 31 0 0
-3.2096 0.9817 -12.4214 -0.055 -0.257 0.965 125 47 28 0 0
-3.2273 0.9615 -12.4306 -0.078 -0.240 0.968 122 45 28 0 0
-3.2464 0.9391 -12.4377 -0.078 -0.240 0.968 121 44 28 0 0
-3.2676 0.9134 -12.4417 -0.016 -0.016 1.000 121 44 28 0 0
-3.2422 0.9602 -12.5125 -0.281 -0.171 0.944 121 44 28 0 0
-3.2808 0.9074 -12.4916 -0.756 -0.063 0.652 121 45 29 0 0
-3.3851 0.7669 -12.4442 -0.418 -0.468 0.779 124 55 41 0 0
-3.4999 0.6460 -12.5520 -0.199 0.006 0.980 138 59 12 0 0
-3.5489 0.5988 -12.6183 -0.764 -0.419 0.491 69 16 6 0 0
-3.3890 1.0240 -13.6830 -0.583 -0.812 -0.026 10 3 2 0 0
-3.5619 0.8052 -13.6718 -0.250 -0.400 0.882 76 25 7 0 0
-3.5765 0.7902 -13.6867 -0.284 -0.577 0.766 106 50 22 0 0
-3.5919 0.7737 -13.7001 -0.416 -0.388 0.822 142 91 56 0 0
-3.5980 0.7723 -13.7292 -0.641 -0.530 0.555 111 66 31 0 0
-3.6249 0.7794 -13.9219 -0.270 -0.324 0.907 76 20 3 0 0
-3.7436 0.9013 -15.2012 -0.843 0.214 0.493 84 27 13 0 0
-4.0870 0.4632 -15.1615 -0.267 -0.562 0.783 57 32 28 0 0
-4.0623 0.6664 -15.9758 -0.916 -0.395 -0.070 35 28 28 0 0
-4.0640 0.6845 -16.0716 -0.942 -0.332 -0.042 36 30 30 0 0
-4.0710 0.6831 -16.1065 -0.974 -0.191 0.123 33 25 24 0 0
-4.0594 0.7136 -16.1819 -0.986 -0.162 -0.026 33 25 23 0 0
-4.2523 0.5330 -16.4699 -0.782 -0.595 0.185 34 18 15 0 0
-4.3191 0.4502 -16.4733 -0.529 -0.208 0.823 55 38 36 0 0
-4.2925 0.5189 -16.6406 -0.301 0.045 0.953 66 41 37 0 0
-4.2449 0.6591 -17.0222 -0.374 -0.482 0.792 133 129 130 0 0
-2.7278 1.6175 -12.3882 -0.134 -0.916 0.379 123 51 30 0 0
-2.7714 1.5795 -12.4667 -0.002 -0.257 0.966 122 48 29 0 0
-2.7922 1.5548 -12.4730 -0.422 0.134 0.897 124 49 30 0 0
-3.0358 1.2297 -12.3807 -0.186 -0.254 0.949 125 50 31 0 0
-3.0479 1.2183 -12.3981 -0.286 -0.280 0.916 127 51 33 0 0
-3.0658 1.1978 -12.4075 -0.365 0.084 0.927 122 45 27 0 0
-3.1113 1.1419 -12.4125 -0.412 0.174 0.894 123 46 26 0 0
-3.1206 1.1421 -12.4681 -0.353 -0.483 0.801 124 46 26 0 0
-3.2348 0.9937 -12.4441 -0.492 -0.161 0.856 122 44 27 0 0
-3.5545 0.6188 -12.5653 -0.333 -0.441 0.834 53 10 3 0 0
-3.5635 0.6195 -12.6217 -0.783 -0.462 0.417 70 17 7 0 0
-3.4253 1.0048 -13.6144 -0.720 -0.692 0.052 2 1 3 0 0
-3.4404 1.0055 -13.7067 -0.459 -0.032 0.888 22 7 4 0 0
-3.5324 0.8829 -13.6724 -0.253 -0.623 0.741 29 5 4 0 0
-3.5829 0.8183 -13.6666 -0.214 -0.483 0.849 72 23 7 0 0
-3.5965 0.8048 -13.6831 -0.284 -0.577 0.766 101 46 23 0 0
-3.6096 0.7921 -13.7004 -0.416 -0.388 0.822 142 91 58 0 0
-3.6114 0.7976 -13.7367 -0.416 -0.685 0.599 111 66 29 0 0
-3.6799 0.7720 -14.0194 -0.639 -0.744 0.194 90 33 22 0 0
-3.6883 0.7757 -14.0862 -0.556 -0.819 0.142 101 44 29 0 0
-3.7101 0.8200 -14.4215 -0.287 -0.888 0.359 71 16 9 0 0
-3.7384 0.9513 -15.2025 -0.491 -0.031 0.871 85 29 15 0 0
-4.0831 0.7155 -16.1226 -0.946 -0.315 0.075 30 22 20 0 0
-4.1029 0.6923 -16.1299 -0.953 -0.021 0.302 31 23 21 0 0
-4.3133 0.5369 -16.6381 -0.342 -0.274 0.899 64 40 35 0 0
-2.7940 1.5899 -12.4600 0.070 -0.348 0.935 123 49 30 0 0
-2.8103 1.5720 -12.4723 0.083 -0.160 0.984 124 49 30 0 0
-3.1365 1.1616 -12.4699 -0.696 -0.577 0.427 124 47 27 0 0
-3.2910 0.9724 -12.4916 -0.351 -0.775 0.526 121 44 28 0 0
-3.3105 0.9492 -12.4980 0.003 -0.222 0.975 121 44 28 0 0
-3.4045 0.8240 -12.4652 -0.545 0.044 0.838 120 51 34 0 0
-3.5435 0.6725 -12.5722 -0.424 -0.007 0.906 95 37 11 0 0
-3.5700 0.6381 -12.5672 -0.393 -0.215 0.894 53 10 2 0 0
-3.5780 0.6406 -12.6254 -0.783 -0.462 0.417 67 13 4 0 0
-3.4477 1.0411 -13.7244 -0.613 -0.226 0.757 21 6 3 0 0
-3.5503 0.9009 -13.6723 -0.273 -0.652 0.708 29 5 2 0 0
-3.6121 0.8266 -13.6869 -0.692 -0.720 0.048 94 38 16 0 0
-3.6053 0.8461 -13.7377 -0.625 -0.203 0.754 133 79 48 0 0
-3.6281 0.8175 -13.7386 -0.445 -0.668 0.597 114 66 28 0 0
-3.6717 0.7983 -13.9033 -0.167 -0.653 0.739 89 31 9 0 0
-3.6989 0.7887 -14.0177 -0.639 -0.744 0.194 85 30 18 0 0
-3.7200 0.7631 -14.0216 -0.237 -0.495 0.836 100 44 29 0 0
-3.7115 0.7858 -14.0773 -0.421 -0.877 0.231 100 46 29 0 0
-3.7157 0.8414 -14.3603 -0.413 -0.841 -0.349 110 46 28 0 0
-3.7277 0.8309 -14.3808 0.234 0.219 0.947 88 27 15 0 0
-3.7349 0.8281 -14.4100 -0.113 -0.774 0.623 71 16 9 0 0
-3.7310 0.8437 -14.4596 -0.499 -0.650 0.574 67 17 9 0 0
-3.7720 0.9463 -15.1745 0.388 -0.271 0.881 85 28 16 0 0
-3.7753 0.9505 -15.2136 -0.227 -0.490 0.842 85 29 15 0 0
-3.8323 0.8747 -15.1941 0.105 0.595 0.797 82 26 12 0 0
-4.1007 0.5210 -15.1177 -0.215 -0.084 0.973 57 27 20 0 0
-4.1201 0.4981 -15.1242 -0.192 -0.041 0.980 56 28 24 0 0
-4.1442 0.4871 -15.2134 -0.745 -0.654 0.132 52 36 36 0 0
-4.1244 0.5817 -15.5368 -0.948 -0.319 0.002 14 5 6 0 0
-4.1210 0.7035 -16.0826 -0.841 -0.367 0.398 22 14 14 0 0
-4.1148 0.7251 -16.1466 -0.683 -0.079 0.726 26 17 17 0 0
-4.3290 0.5640 -16.6477 -0.151 -0.124 0.981 60 37 35 0 0
-3.0884 1.2440 -12.3896 -0.463 -0.299 0.834 125 48 30 0 0
-3.1019 1.2304 -12.4051 -0.563 -0.396 0.726 125 48 30 0 0
-3.1175 1.2135 -12.4176 -0.532 -0.596 0.602 122 45 25 0 0
-3.1304 1.2008 -12.4339 -0.598 -0.196 0.777 122 45 25 0 0
-3.3036 0.9968 -12.4981 -0.274 -0.480 0.833 122 45 29 0 0
-3.4156 0.8506 -12.4738 -0.414 -0.271 0.869 122 50 36 0 0
-3.4094 0.8755 -12.5524 -0.501 -0.147 0.853 137 75 66 0 0
-3.5840 0.6599 -12.5717 -0.239 -0.048 0.970 55 10 2 0 0
-3.5924 0.6618 -12.6292 -0.783 -0.462 0.417 69 14 6 0 0
-3.4621 1.0399 -13.6130 -0.716 -0.692 -0.091 2 2 2 0 0
-3.4635 1.0631 -13.7281 -0.458 -0.088 0.885 25 8 5 0 0
-3.6264 0.8419 -13.6536 -0.706 -0.681 0.194 66 15 3 0 0
-3.6169 0.8659 -13.7088 -0.185 -0.054 0.981 90 31 10 0 0
-3.6343 0.8461 -13.7189 0.070 -0.056 0.996 121 65 35 0 0
-3.6671 0.8186 -13.7821 0.075 -0.527 0.847 74 30 21 0 0
-3.7173 0.7541 -13.7758 -0.178 -0.421 0.890 136 97 81 0 0
-3.7399 0.7783 -14.0183 -0.237 -0.495 0.836 99 44 29 0 0
-3.7334 0.7980 -14.0707 -0.425 -0.864 0.269 101 48 31 0 0
-3.7675 0.8324 -14.4265 -0.763 -0.551 0.338 67 17 8 0 0
-3.7623 0.8502 -14.4786 -0.438 -0.865 0.246 66 16 8 0 0
-3.8127 0.9490 -15.2238 0.627 -0.714 0.311 82 26 13 0 0
-3.8472 0.9007 -15.2020 0.252 0.497 0.831 82 26 13 0 0
-4.1366 0.5206 -15.1286 -0.020 -0.479 0.878 62 32 28 0 0
-4.1633 0.5051 -15.2125 -0.811 -0.541 0.222 48 34 34 0 0
-4.0677 0.7731 -15.8913 -0.382 -0.279 0.881 14 5 6 0 0
-4.1279 0.7450 -16.1103 -0.759 -0.617 0.209 22 13 14 0 0
-4.1235 0.7637 -16.1705 -0.279 -0.534 0.798 22 12 13 0 0
-4.1431 0.7407 -16.1781 -0.705 -0.686 -0.182 23 13 14 0 0
-4.1477 0.7772 -16.3727 -0.810 -0.498 0.310 19 9 8 0 0
-4.1568 0.7725 -16.4040 -0.810 -0.498 0.310 20 9 8 0 0
-4.1549 0.7871 -16.4603 -0.655 -0.650 0.386 23 10 10 0 0
-4.3235 0.6171 -16.6537 -0.022 0.184 0.983 53 36 34 0 0
-4.3511 0.5799 -16.6425 0.056 -0.078 0.995 59 38 36 0 0
-4.3727 0.5766 -16.7526 -0.479 -0.750 -0.456 86 68 67 0 0
-2.9579 1.4401 -12.3539 0.161 -0.594 0.788 124 49 30 0 0
-2.9533 1.4548 -12.3943 -0.038 -0.415 0.909 124 49 30 0 0
-3.1194 1.2475 -12.4047 -0.589 -0.429 0.685 124 47 29 0 0
-3.1353 1.2302 -12.4168 -0.532 -0.596 0.602 124 47 27 0 0
-3.1757 1.1895 -12.4633 -0.401 -0.716 0.571 124 47 27 0 0
-3.3519 0.9573 -12.4183 -0.361 -0.097 0.927 121 44 28 0 0
