ply
format ascii 1.0
element vertex 713
property float x
property float y
property float z
property uchar diffuse_red
property uchar diffuse_green
property uchar diffuse_blue
end_header
-2.794286439767657 2.479404687929482 -12.334761831719963 122 50 35
-2.7946124650282957 2.5262992193030103 -12.329751559593596 123 51 34
-2.7947273265979935 2.5317549888237156 -12.360116449349302 123 52 34
-2.795092745578375 2.58648819184595 -12.348193021899622 121 48 31
-2.7954240579520686 2.6345887886431827 -12.341807705236274 121 48 31
-2.7956292016394073 2.6578698585915577 -12.356733527940918 120 47 30
-2.799489821085696 3.1835328510394163 -12.383459581400361 122 47 28
-2.799751500094122 3.2186161197748264 -12.386859433160101 122 47 28
-2.8000594490533857 3.263059744701695 -12.381693920003915 122 47 28
-2.8002484328659065 3.283585981998499 -12.39811791824715 123 48 29
-2.8005265735858775 3.322117575081747 -12.398127393276598 124 47 29
-2.8007915732031607 3.3580461022138683 -12.400408759120424 124 47 29
-2.8010773179283093 3.398220881020288 -12.398706000984326 125 48 30
-2.801682927261641 3.503290851304566 -12.337247935301669 125 48 28
-2.8015376287436156 3.4561801197019184 -12.415588338854665 129 52 32
-2.8019533530677863 3.5229194964554162 -12.389040496431177 123 46 26
-2.8021100043809843 3.5370627165380757 -12.410991582631123 124 47 26
-2.802243968136311 3.546570909089213 -12.43727423823524 127 49 28
-2.802457358823352 3.572264708958288 -12.448512040674249 127 49 28
-2.802768890742153 3.6180353801256606 -12.440934659640725 126 48 26
-2.8031251653659295 3.6730385037382147 -12.42454891794506 128 46 26
-2.803360094055548 3.7032763416241146 -12.431256907584293 129 47 27
-2.8035893520270547 3.732384092338921 -12.438965015370673 129 47 27
-2.8038452917417853 3.7670056762008723 -12.441396625016282 128 46 26
-2.804081823643399 3.7976796279763825 -12.447483250506373 127 46 25
-2.80420687745883 3.80541535467769 -12.475328168568122 127 46 25
-2.804442102144824 3.8358581565945737 -12.481560097164628 128 47 26
-2.804833853688111 3.89868525261329 -12.456728238765107 128 47 26
-2.805027133037921 3.9205636519720057 -12.47095409707019 131 49 28
-2.805313654117709 3.9617785083437465 -12.466543678604268 130 51 29
-2.80539471229753 3.960414272903553 -12.50311278778857 129 50 28
-2.8057402783413066 4.013974858274409 -12.486607777158513 130 49 31
-2.8060184262582095 4.0536048519730175 -12.483430829833132 131 52 32
-2.8062146781196353 4.076225441350998 -12.49669743988073 133 55 35
-2.806551821805102 4.128274291785447 -12.481193776363561 133 55 35
-2.806747697703885 4.150887213169419 -12.494331409751275 131 53 33
-2.806889936285098 4.162282942180674 -12.518462191394576 131 53 33
-2.8072561398867193 4.220625428955442 -12.49637447850575 130 52 32
-2.8075285283391223 4.259386089653566 -12.493404822453773 131 53 32
-2.807694045080917 4.2757311220860945 -12.51252908920304 128 50 31
-2.808023499121905 4.326604797183105 -12.497344292461863 127 51 34
-2.808267931733706 4.359641888191691 -12.499747584659591 125 50 36
-2.8086136024405697 4.414115766101815 -12.480632840215463 132 62 46
-2.8108349271716766 4.6428527165585125 -12.710061738912898 112 35 10
-2.8111416428710414 4.6897865184493694 -12.697169631350302 102 35 9
-2.811356587574742 4.7169619489796 -12.704730515524103 85 37 20
-2.81155728241742 4.741080727005644 -12.715434296085245 49 13 7
-2.8115638623421275 4.723088745460069 -12.770322796385578 40 10 4
-2.8116591076955992 4.724255622181331 -12.805249751093621 38 9 4
-2.8119893159215295 4.776534586940626 -12.786287945302142 42 9 4
-2.81218574038683 4.799746739036188 -12.797906327760014 49 9 4
-2.812301978788356 4.8054574553789156 -12.828084822574954 59 11 7
-2.8124373286160296 4.815310828534218 -12.85392279756199 72 14 7
-2.812351015561332 4.776542853103032 -12.931767710498566 81 24 12
-2.8126242966471535 4.8165507651867445 -12.92553562031252 83 30 16
-2.8126140121453496 4.79425706169736 -12.986130420438379 82 32 21
-2.8127311683904077 4.799908194218007 -13.016851151076844 82 36 30
-2.8129398611435406 4.825722587944652 -13.025848922101007 81 40 35
-2.813167928442897 4.855848680246928 -13.030121190792446 79 41 35
-2.8132124083857697 4.84535361267875 -13.078487980694817 79 42 36
-2.8133005693888693 4.844452022171067 -13.116571062164196 80 43 37
-2.8134927883143823 4.866614057851946 -13.129546768412652 82 45 39
-2.81340629936782 4.8267330351203555 -13.210552769597017 82 45 39
-2.8135409701770016 4.835979247219983 -13.237880544127243 84 47 41
-2.8136702501309743 4.843989997699098 -13.266626984856732 87 50 44
-2.8137828174117767 4.848224071927493 -13.299616249035928 86 51 46
-2.8139148062818764 4.856764319798649 -13.327914977473608 87 52 48
-2.8140712872777636 4.870772993824619 -13.350188216898573 88 53 49
-2.8139636791133067 4.825328804929218 -13.438851640574466 88 54 47
-2.813996193250822 4.8112481155775315 -13.492816067869772 87 54 47
-2.8139569432902314 4.78083855987716 -13.565323903958923 86 53 48
-2.814058609939769 4.782140958682376 -13.602440501973035 84 51 46
-2.814229037487178 4.79897080626976 -13.622132567284932 81 46 42
-2.8143508153740013 4.8047446983254645 -13.654356037454555 79 44 40
-2.8144470741772083 4.804664542163844 -13.69331156695609 77 43 38
-2.8146074931236273 4.819144111104994 -13.71580166568417 74 40 34
-2.8147695966920794 4.833994144393201 -13.737893769822058 66 32 26
-2.8149325092442306 4.8490162800570475 -13.759811593520926 58 21 20
-2.8150798856293164 4.860463477551003 -13.785859756093934 68 23 20
-2.815162585958537 4.857025698126275 -13.82911021080345 95 40 31
-2.8152509399143852 4.854805521296829 -13.871099561934715 115 65 52
-2.815310256460734 4.845808875204062 -13.921083970699668 119 83 72
-2.8153501105774317 4.8322083924184165 -13.976606780872633 103 79 72
-2.8154608268628145 4.8348893442631 -14.013361078792284 93 68 61
-2.8155790186794016 4.839242436550828 -14.048267388343332 92 61 56
-2.8156555577836158 4.833857787308369 -14.094692252327253 94 62 57
-2.815740536054032 4.830343727533957 -14.139080560134717 96 63 58
-2.815648269083189 4.7853780007212405 -14.2325261436076 96 63 58
-2.815849452669806 4.80877693552746 -14.245516672800196 96 63 58
-2.815879494623786 4.7920948414729 -14.306040037560823 95 62 57
-2.815902303670883 4.773571176248469 -14.369000952377343 93 62 57
-2.8158937470856564 4.747516465780002 -14.441211320113851 94 62 57
-2.8160020144155915 4.748818568751987 -14.480984084873036 94 63 58
-2.816078359020591 4.742507200276629 -14.530021529349032 95 64 60
-2.8161599808617006 4.737340665599031 -14.57785774824409 95 64 61
-2.816215836042759 4.7259616282273225 -14.633367240852328 96 64 61
-2.8163079007779213 4.723062861107486 -14.678819712135411 96 65 62
-2.8165769150537274 4.737250593723593 -14.745842686860556 97 67 63
-2.816738975904943 4.725593944573406 -14.84488244598731 95 66 63
-2.8169585599876408 4.752891889448465 -14.85395391692281 96 68 64
-2.8171103965096083 4.76391364715482 -14.883031601482443 96 69 66
-2.8170458950452186 4.722700142107195 -14.976751678002017 96 71 67
-2.8169414419262058 4.671561846399795 -15.08321772297819 95 71 67
-2.816707338923424 4.588693996718145 -15.229658462744112 102 80 78
-2.8164976571507703 4.511305940828715 -15.370012186654694 77 65 64
-2.816300491090818 4.4365339036674545 -15.507804829487181 26 23 23
-2.816227326975754 4.391592002506491 -15.608865889223956 5 4 6
-2.8162566674766376 4.3714227135401345 -15.679232498805467 4 4 6
-2.8162812012197778 4.349894165241673 -15.75161220328367 5 5 7
-2.8173170151400115 4.408982452456299 -15.996728407323314 100 98 103
-2.820902480639116 4.565380130583968 -16.984965381319974 157 157 157
-2.8570189916672564 9.595727956637358 -16.907714333253594 215 215 215
-2.74816056810572 0.06694933897631472 -12.613643902962647 212 211 213
-2.7491749744169574 0.2014600325664908 -12.549633587799828 149 135 135
-2.750230804179871 0.3418727355653406 -12.480701241227244 102 67 64
-2.751181197615392 0.4676262231386277 -12.422247807584537 103 55 50
-2.760244037747977 1.5829197567784163 -12.337915000165832 116 50 36
-2.760532288002229 1.6164389823054686 -12.346250622412743 117 51 37
-2.7608423516146186 1.653061761757617 -12.352019210169834 117 51 37
-2.7603926222472177 1.5820192001326179 -12.444741155470165 118 52 36
-2.7605449811440437 1.596260742827444 -12.468749349843023 117 51 35
-2.7668308568558047 2.3807722269120095 -12.348456295340188 123 51 36
-2.767169623215822 2.421865100802382 -12.34866813939205 124 52 37
-2.7673039302287097 2.4337393885808387 -12.373666350160073 123 51 36
-2.767506105912599 2.4553177427960726 -12.390407667909919 122 50 35
-2.767972552738703 2.514733739820305 -12.374708115001287 123 51 36
-2.7682679178510923 2.5496858737370003 -12.37983410352817 122 49 32
-2.768759974380355 2.61284409836162 -12.36056499089252 121 48 31
-2.7690626049885085 2.648886541429709 -12.364516783934443 120 47 30
-2.7735536335530604 3.1921580817962276 -12.375768643668398 121 46 27
-2.7738933494779556 3.233864865648888 -12.373168227845039 122 47 28
-2.7742186978524765 3.2735192922420717 -12.372304721519978 124 49 30
-2.774529680369144 3.311118284086639 -12.373196640958582 124 49 30
-2.774637804938551 3.319364398433784 -12.40072893915437 123 48 29
-2.7748073047560555 3.336491383116159 -12.42020069840032 124 49 30
-2.7752752827074607 3.396885815527191 -12.400031172959656 124 49 30
-2.7755793721709825 3.4335561245990585 -12.401440742395842 126 49 29
-2.77594769827473 3.479569779492471 -12.394140786267714 132 55 35
-2.776255183258909 3.516780063251076 -12.39483002565289 122 45 25
-2.776510629551389 3.546450990164665 -12.402407007739907 123 45 26
-2.776927582146366 3.5996143463378676 -12.388080405942183 126 48 29
-2.7768471211610097 3.5804635266981153 -12.440994792426036 128 50 30
-2.7771059216239022 3.6106473940433945 -12.447975604072104 126 48 26
-2.777431021594401 3.650500173195738 -12.44582327360133 128 46 25
-2.7777504210216373 3.689547377137573 -12.444310858199604 128 46 25
-2.778122028999011 3.736230745827436 -12.435481011084137 128 46 25
-2.778319643692133 3.757564686194552 -12.45047758884757 127 45 24
-2.778589439423298 3.7894385481977855 -12.455455988768998 125 44 23
-2.778770708759092 3.8083988746522746 -12.472647034878264 127 46 25
-2.779021034553355 3.837452162684672 -12.480201157404117 128 47 26
-2.779324974831489 3.874358304351526 -12.48017845492555 129 48 27
-2.77963388848932 3.9120144665166316 -12.479331226694555 130 49 28
-2.7798560634177596 3.9369953025834086 -12.49057727446286 130 49 28
-2.780151523037531 3.972719837262696 -12.491411581149968 130 49 28
-2.780397148156438 4.001161019407935 -12.499199121806686 131 50 32
-2.78067604041496 4.034493900144656 -12.502177621226831 130 52 32
-2.780943820328942 4.066214542408246 -12.506639810768366 132 54 32
-2.7813427341179358 4.117207939700704 -12.49219941640932 134 55 33
-2.7815172777715587 4.135274342412253 -12.50982668044318 130 51 31
-2.781762143055887 4.163679769116868 -12.517295568749192 130 51 31
-2.7821363217678323 4.211121642092573 -12.505948075401228 129 51 32
-2.782302650124862 4.2280037491852465 -12.524629225785105 132 55 35
-2.7826066966547067 4.265169654078663 -12.52321419777348 133 57 37
-2.7831210483723083 4.333355262706656 -12.490857450237128 127 52 33
-2.7835592444710695 4.390372332911978 -12.469342632774957 121 49 31
-2.7840148121833854 4.450001895845336 -12.444988807155806 129 61 42
-2.786105822235125 4.659978712986874 -12.692575216334406 110 33 11
-2.7862912960018407 4.679784078306454 -12.70787926910181 110 43 17
-2.7865376492388414 4.708663048951385 -12.713696246900282 87 40 24
-2.786780390405642 4.73701830968614 -12.719993532481151 53 16 11
-2.7868178739099436 4.734764774116453 -12.758371407954169 44 11 7
-2.786938917201111 4.744959614888941 -12.783759160721365 41 10 7
-2.7870551121434595 4.754420188288442 -12.8099682084523 47 11 5
-2.787288111827369 4.781331154323706 -12.817740700463753 57 13 6
-2.7874096067403697 4.791574243930796 -12.84316558552623 70 14 10
-2.7874921344538346 4.795974166490531 -12.874862606700079 83 19 9
-2.78755112563054 4.796830434683724 -12.910428872186852 90 28 12
-2.7875809871155717 4.79329733704402 -12.950804205397933 89 32 14
-2.7876199099957937 4.791094421031215 -12.989882231406227 85 33 19
-2.7877621231249723 4.804368254840345 -13.01240080844817 81 35 26
-2.787862189821617 4.811305260239769 -13.041798749414717 80 38 30
-2.788084631570289 4.836621382058034 -13.051336472262253 78 39 31
-2.7881302895646596 4.835357268389765 -13.089731620455582 78 40 32
-2.7882171231091415 4.840264304233465 -13.121517010114596 78 41 35
-2.7882713015081064 4.840234683938222 -13.158784083193785 79 42 36
-2.7880204448455514 4.7942024725782355 -13.246628834137915 80 43 37
-2.78846947948516 4.853648278220272 -13.218837728628056 80 43 37
-2.7885506837309313 4.857631883440605 -13.251976533194753 83 46 40
-2.7886352594399035 4.862105009631004 -13.284663096506234 83 48 42
-2.7887073571588474 4.864672875260167 -13.319550856583824 84 49 43
-2.7888121010729554 4.8721569597584 -13.349066071996177 86 51 45
-2.78867547799225 4.843089778908559 -13.419451080092667 87 52 46
-2.788576869253419 4.819713329728506 -13.483771205928125 87 52 46
-2.788355190915625 4.769069715279513 -13.617605202486333 84 49 43
-2.788434262427095 4.77248353671396 -13.652497187164812 83 46 40
-2.7886040059912376 4.789650725829874 -13.671909101995961 81 44 38
-2.788738552831311 4.8014652143405225 -13.697408812768364 81 44 38
-2.7888830604061394 4.814785658375727 -13.721235683633981 76 41 35
-2.7890276929728874 4.82811778624577 -13.74508224813583 70 37 30
-2.7892401354157474 4.851774775337952 -13.757130329281356 60 26 22
-2.789296351246507 4.851617663451214 -13.796511646810892 56 21 18
-2.789328889812501 4.847819844330834 -13.84021322707119 79 33 29
-2.789335848976591 4.840082507988266 -13.888617844838645 105 53 40
-2.7893375928430495 4.831508791436129 -13.9381684042447 117 74 61
-2.789408068528818 4.8334063343721105 -13.975726106754585 111 82 77
-2.789467609781444 4.833605121409949 -14.015377293414716 99 73 69
-2.7895455028738687 4.836587109942322 -14.051897896107251 95 67 59
-2.789728540375874 4.8556633008578585 -14.069646253974266 95 65 59
-2.7896248545460858 4.8307537236192655 -14.139136671957388 96 63 59
-2.7895819901867718 4.815115027583251 -14.197987647434024 96 63 58
-2.789647803438521 4.816121469744188 -14.237378506841946 96 63 58
-2.7896092580926437 4.801053446475322 -14.295968397550157 96 63 58
-2.789606005899518 4.791363933077567 -14.348390958075031 94 61 56
-2.7897342725633605 4.801884935766859 -14.376885518134834 94 61 56
-2.7898334886790823 4.807915387203255 -14.410814034787442 95 62 57
-2.78989846159605 4.808643604095046 -14.45119866530655 96 63 58
-2.7895570251619173 4.74660401004833 -14.567299491273474 96 63 58
-2.7896438104758214 4.750594633638561 -14.60422048756157 96 63 58
-2.7893508453523843 4.695844014224973 -14.712402891970438 96 63 58
-2.7897196408814153 4.733844702150553 -14.750618120171588 96 65 60
-2.7897564087047813 4.720340234512649 -14.851962014475856 92 62 58
-2.789956421573736 4.741722143469393 -14.868330256624645 92 64 60
-2.7899451290827195 4.730276123268884 -14.925153852152523 93 65 61
-2.7900496068681653 4.736782274444864 -14.960002446470002 94 66 62
-2.790075674390948 4.731064320940938 -15.010102519891174 94 67 63
-2.789879454612097 4.6906814370773136 -15.10349861206181 97 72 67
-2.7893241377097957 4.594219545384948 -15.267283779373864 94 76 73
-2.78885744579902 4.511391163612364 -15.414863107319704 59 49 50
-2.7886137108051385 4.4632057772430445 -15.519728667093368 10 8 10
-2.788469190608962 4.430411393704127 -15.605727630279612 4 5 7
-2.7883383791358987 4.399672089726377 -15.68952318155305 5 5 7
-2.8328296192479465 9.577276438459018 -16.95393532979372 215 215 215
-2.832950836869713 9.584919213272768 -16.99383630287746 216 216 216
-2.7189608063439445 0.09088026316609099 -12.595622049387842 204 197 198
-2.7210984960511997 0.3284752864677918 -12.454602827171481 120 98 96
-2.7329922766292944 1.6187559045348987 -12.344298326192982 116 50 36
-2.733367803802572 1.659204929781735 -12.346981750164119 116 50 36
-2.740459508492424 2.4255176108855325 -12.345556150099263 123 51 36
-2.7408770381990215 2.470793709835738 -12.342089497703789 122 50 35
-2.7408240273006155 2.4631098786712684 -12.383748564342998 122 50 35
-2.741387372230387 2.524807991631974 -12.36607797672281 122 50 35
-2.7418929091378996 2.5800078125502592 -12.353779360906149 122 49 32
-2.7424063505638294 2.6361066283548116 -12.340523953907446 122 49 32
-2.742746885569006 2.6727418706753694 -12.343908966163616 122 49 32
-2.743212227158425 2.723438959529232 -12.33501150955484 125 52 35
-2.747530326486295 3.1879045234559378 -12.379675222515832 122 47 28
-2.747572644858492 3.190959209220021 -12.411998466418906 122 47 28
-2.7478196768185974 3.217111355096069 -12.423481942614933 125 50 31
-2.748222715480267 3.260872736460917 -12.418928858820689 125 50 31
-2.748546598538661 3.295705830937007 -12.422376386317431 123 48 29
-2.7488844449650105 3.3321195258708736 -12.424292999374376 124 49 30
-2.74922760981776 3.369138389536122 -12.42555957543153 124 49 30
-2.7494957002511584 3.3976846364181856 -12.434513576897231 125 48 28
-2.749815220842282 3.4320418530020538 -12.43805739386557 125 48 28
-2.7501525838757788 3.468418588281252 -12.439648800475045 124 47 27
-2.7505154118511053 3.5076767397127737 -12.438472115094747 124 46 27
-2.7508276689178115 3.5412268986647986 -12.442489728128105 124 45 27
-2.7514355358767966 3.6081837069142653 -12.415274436456446 124 46 26
-2.751513359432326 3.61525295164126 -12.443800665430592 125 47 25
-2.7518405218452218 3.6505009139406726 -12.445958882074585 128 46 25
-2.752174558665043 3.6865305210676977 -12.447289120148236 128 46 25
-2.752530879355069 3.725084239717125 -12.446140812761692 127 45 24
-2.752856614630171 3.7601851148011427 -12.44814755626832 126 44 23
-2.753061580413737 3.7816331670086196 -12.463015553714166 124 43 22
-2.7532847811982624 3.805144529274422 -12.475901833479828 128 47 26
-2.7535905704343864 3.8379995298735965 -12.479841096323518 129 48 27
-2.7539587038505178 3.8779117086639525 -12.47694395066419 129 48 27
-2.75463240718335 3.9524045089575592 -12.44073084612975 129 48 27
-2.7549531645228824 3.986972137952689 -12.442639394296606 129 48 27
-2.7549369537000326 3.9834065441039996 -12.481273087098948 130 49 28
-2.7552496587091544 4.017066571893698 -12.48398158477389 131 50 31
-2.7557294927880904 4.069651694879082 -12.46822336187423 130 52 30
-2.75583292074854 4.079627397736709 -12.493769098657415 133 55 32
-2.756089308019441 4.106922296980069 -12.502442880635197 140 63 39
-2.7563453138883274 4.134176612950021 -12.51110331966391 130 54 31
-2.756674735663368 4.169749628305748 -12.511537904169243 128 51 31
-2.756989264732144 4.20364041868652 -12.513529198247328 130 52 32
-2.7573166052934672 4.238987332575645 -12.513989980718591 133 56 36
-2.7576900418477566 4.279562857002222 -12.509168624816011 135 59 38
-2.7580407875054895 4.317573097682377 -12.506766050099152 135 60 39
-2.75832038214691 4.347523854604406 -12.512280557164129 124 51 32
-2.758618191508192 4.3795430855989625 -12.515656699674919 126 56 36
-2.758603664800119 4.37615183349815 -12.55445275607499 128 60 41
-2.761309942141218 4.662167630270579 -12.690594417991312 115 39 16
-2.7615168119539937 4.683894980953829 -12.703895561276086 115 52 23
-2.7618012104777523 4.714432262304187 -12.707973080777645 85 39 20
-2.762047257522055 4.740615305610844 -12.716532142944713 60 21 16
-2.762131215859784 4.748379075140892 -12.744383836595784 50 13 9
-2.762222854013467 4.757012836453147 -12.771379354882956 47 9 5
-2.7624072805210647 4.776192721677019 -12.78728953628509 59 13 7
-2.762748733091312 4.813227632819839 -12.784274212937161 71 16 7
-2.7627349291191687 4.809868050168865 -12.824058894049058 80 18 6
-2.7628708025426167 4.823526235936088 -12.845839111147717 92 24 7
-2.762784860160779 4.811950199303572 -12.894611775955452 98 30 11
-2.762789022371552 4.810616740522599 -12.932588115896303 94 30 12
-2.7627703903358682 4.806683620242332 -12.973477561325772 88 32 17
-2.7627552971960068 4.803146558642775 -13.014075505174777 82 34 24
-2.7627873041827207 4.804964146255692 -13.049017678835082 80 36 27
-2.762919519818292 4.818184968787952 -13.071695477821454 79 38 30
-2.7625881593722297 4.778620508309565 -13.151805613850755 78 39 32
-2.762464674339618 4.762710953032946 -13.206479757420752 78 40 34
-2.7626182849381373 4.778351420640195 -13.226858366628335 79 41 36
-2.7628970364033707 4.808246704166002 -13.231614056296902 79 42 36
-2.763343583095647 4.857263346787985 -13.215256089024464 79 42 36
-2.763512607384564 4.874665587526147 -13.23358268922902 80 43 37
-2.763580787062315 4.88057438515126 -13.26463141386101 81 45 39
-2.7634100972877462 4.859250996043999 -13.32598105168747 83 47 41
-2.7633825148515325 4.854230228709115 -13.36943833202113 85 49 43
-2.763432963017736 4.858099509381355 -13.403120632988296 85 50 44
-2.76305101030285 4.812651754866639 -13.492109312378707 85 50 44
-2.762870374346481 4.790146024670074 -13.555752089754431 84 49 43
-2.7628984763122117 4.791440003319786 -13.592859711885518 84 49 43
-2.763095140803224 4.8119612849065305 -13.608363022617395 84 47 41
-2.763200111282213 4.822019417321934 -13.635702749399641 83 46 40
-2.763260048138599 4.826934903409692 -13.66893845725704 81 44 38
-2.7632379583371236 4.822482251371436 -13.712935698639006 78 42 36
-2.7633747118965917 4.836157873233996 -13.736369861803443 74 40 34
-2.7637259824558305 4.874328264206224 -13.73176441838249 66 34 29
-2.763672173226358 4.866240380482053 -13.78019155064925 52 20 16
-2.7636181175617267 4.85811556489247 -13.828838148412878 60 22 19
-2.7634410702812504 4.830005516702282 -14.02009398484795 106 79 75
-2.7635631843368946 4.841977756593 -14.046118082698662 99 72 67
-2.763910465589074 4.879694825524329 -14.04198723644473 96 66 61
-2.764016014320205 4.8897724938739024 -14.070241523499146 97 65 60
-2.7640222220817456 4.8884841248072695 -14.111964608373729 97 64 59
-2.763861819139248 4.868127852376475 -14.17638861154305 96 63 58
-2.7637638466985157 4.854901779276149 -14.23261971028447 96 63 58
-2.7637149571776636 4.8472819802784395 -14.282398793179558 95 62 57
-2.763731863696573 4.8410435814679245 -14.454161582489597 95 62 57
-2.762849306492327 4.735803268888987 -14.664610388897987 95 62 57
-2.762844984262527 4.729002698083111 -14.799496242907031 90 59 54
-2.7628227971125554 4.724342102726542 -14.847698043982636 89 59 54
-2.7630988204096654 4.751740813474224 -14.899345447273848 90 61 56
-2.7626059183442013 4.6930662546889375 -15.014719606873822 92 64 60
-2.761407097926981 4.551188713081107 -15.277677576041668 94 66 62
-2.7621813710624137 4.637859173366134 -15.213538218932648 95 75 72
-2.761495468719112 4.556938077185778 -15.35858356519627 68 57 57
-2.761179875597436 4.518496324760535 -15.451065607877108 39 37 39
-2.7607104237319176 4.462364916319232 -15.566239595700791 3 4 6
-2.7603716239309604 4.42121149318363 -15.663071153941477 6 6 8
-2.7646126663754993 4.87268918490971 -15.807021827730797 115 115 116
-2.7646395175725336 4.8734848660340475 -15.851863545332405 117 117 118
-2.7646664583456597 4.874283383476389 -15.896850981575733 120 120 121
-2.764693491726584 4.875085050212047 -15.941984447294242 123 123 125
-2.7647206107197064 4.875889023095362 -15.987265801371496 125 125 127
-2.7653761557887524 4.949155628938007 -15.935382944925355 127 127 129
-2.8084455151671976 9.55502591633227 -16.951150680258934 215 215 215
-2.8085571454903504 9.565534848673138 -16.98421470102943 216 216 216
-2.8086536474267487 9.57419703097517 -17.02179699657907 217 217 217
-2.690697076703003 0.1948372543000243 -12.518031758842351 181 168 167
-2.692163528922188 0.3336832109922083 -12.450513708627698 106 76 73
-2.693379460367245 0.44912426627678403 -12.39999849162215 102 60 54
-2.712693173130532 2.3304791258051907 -12.426288884658044 121 49 34
-2.713424458908582 2.40026852440543 -12.402175864586326 122 50 35
-2.714154360254479 2.4699156609528155 -12.377932339763165 122 50 35
-2.7148338179213156 2.534870008730972 -12.357458319443388 122 50 34
-2.7153980384124234 2.5891242974703665 -12.345951496938952 122 49 32
-2.7159052319407833 2.638080743949284 -12.338834523151128 122 49 32
-2.716206331271887 2.6679203613406184 -12.348094081323168 122 49 32
-2.716805963671539 2.725432352682292 -12.333303904690926 122 49 32
-2.7214566350014917 3.1811169255349245 -12.385863834304313 123 48 29
-2.721760157958953 3.2111203269415496 -12.393870691556712 123 48 29
-2.7220506655179433 3.23991638809499 -12.40291070236831 125 50 31
-2.722286544246748 3.2636565792934213 -12.416489216583054 125 50 31
-2.7229992232039457 3.3314905547510643 -12.389868009743267 124 49 30
-2.723249178239649 3.356522917557048 -12.402093231471664 124 49 30
-2.723467665207521 3.3786439776623904 -12.416951037881322 124 49 30
-2.7235962509220975 3.392453355014603 -12.43942768789394 125 48 28
-2.7239614131572023 3.4281303385009227 -12.441773346604013 124 47 27
-2.724328313298845 3.463962865578247 -12.44388257435985 125 48 28
-2.7246851978837747 3.498864817440637 -12.446760640348586 124 46 28
-2.7251048982711237 3.5395652654031986 -12.444158181525118 124 46 27
-2.725433583733365 3.5718517362575115 -12.44928055873513 125 47 26
-2.725819953861529 3.6094618083093923 -12.449348511401904 125 47 25
-2.7261578422961614 3.642589042339721 -12.45351579943534 128 46 25
-2.726566863026381 3.6822796581459842 -12.451428228748984 128 46 25
-2.726954154666063 3.719957866608767 -12.451121718755587 128 46 25
-2.727292657857495 3.7531268368331823 -12.454974594393006 128 46 25
-2.7276139178809036 3.784699916752836 -12.46025924867984 131 50 29
-2.727930452531856 3.8158329124807775 -12.465888650660808 133 52 31
-2.7282616630427547 3.848316023599808 -12.470157605041091 129 48 27
-2.7286019178531395 3.881629113961683 -12.473552421785163 129 48 27
-2.7291945941260067 3.9382197117146687 -12.454517681664944 130 49 28
-2.7288988537745844 3.912867830853229 -12.514156000331994 131 50 29
-2.729682797475556 3.987083641979047 -12.477902256241155 132 51 30
-2.730078376088198 4.025477764366661 -12.476020610821415 131 50 29
-2.7304718402299915 4.063670720197688 -12.474219552418308 130 52 29
-2.730569377092193 4.07458343119909 -12.498874231204727 132 55 30
-2.7307176326855704 4.0901720598496825 -12.519001268644423 136 60 35
-2.7308635956988976 4.1055501881887135 -12.539347899457926 132 56 33
-2.7314317987254713 4.15982665288435 -12.52149261485117 134 58 35
-2.7317213652283012 4.188427297004594 -12.528729074826131 138 61 40
-2.7322124854258445 4.2355863273015215 -12.51756509894824 138 61 41
-2.732618633329362 4.27491205944173 -12.51399633008847 140 63 42
-2.7329223185504476 4.304797895850289 -12.519686546742813 137 62 40
-2.733252862506363 4.3371522803096 -12.522846336317613 133 60 38
-2.7335134726444723 4.363065689820333 -12.532360986291778 127 56 34
-2.7340636109782426 4.4156191519304135 -12.515118383537674 129 59 39
-2.7343903251377255 4.447605166101769 -12.518354456556207 135 67 49
-2.736381384304425 4.651941811489385 -12.701501883604259 117 37 15
-2.7367490917564594 4.687660650548018 -12.700271171281534 123 59 27
-2.737156721498187 4.727038950885794 -12.695110092610246 95 47 19
-2.737322534168728 4.744211762308707 -12.713071214328584 73 28 16
-2.7375077363058473 4.76316434090832 -12.729165807572679 59 17 10
-2.7376952110546946 4.782325029203575 -12.745033041324175 57 12 5
-2.7376124316725914 4.776688742291787 -12.787085917006578 75 18 7
-2.7380400748370546 4.817884886800307 -12.779664777222923 86 19 6
-2.7380770535383907 4.823240726424194 -12.810180140418861 90 19 5
-2.738099909704867 4.827305547854698 -12.842146995158362 99 25 6
-2.7380943985916133 4.828773906036224 -12.876972849606236 101 28 7
-2.7380980749025134 4.83108998164766 -12.910990709981322 96 26 9
-2.738085688319761 4.8319389247252555 -12.946681454744503 88 27 14
-2.7379550595439452 4.821957335385832 -12.99415377411665 82 31 21
-2.737924627678191 4.821166099745882 -13.031863160192763 80 34 24
-2.7378433935499076 4.8157270296701675 -13.074729271380415 80 37 30
-2.737625969710145 4.797821250774655 -13.131299823946716 80 38 32
-2.737866038850873 4.821825810589383 -13.142385655499123 80 39 35
-2.7377736552994363 4.815386846629519 -13.18673358078999 80 41 36
-2.737999851136432 4.83812233150518 -13.199230690544798 80 41 36
-2.738876510729832 4.920396049417528 -13.146190617911303 80 41 36
-2.738565453175486 4.893949149995493 -13.212705193667766 80 41 36
-2.7383585283647194 4.8770460785082195 -13.268942497317159 81 43 37
-2.7383320753629055 4.876665926103801 -13.307065545230016 83 44 39
-2.738185575073118 4.865311361716261 -13.357522823175085 86 47 42
-2.7382786092524394 4.875873641912148 -13.383703141781169 85 48 43
-2.7377302613837142 4.827791445705866 -13.475591165159269 85 50 44
-2.737759438266117 4.832531330530448 -13.508597806098745 85 50 44
-2.737707463260403 4.829858155656803 -13.55004027785511 86 51 45
-2.737679418447054 4.829379350817165 -13.58914102515988 86 49 43
-2.7380153867759676 4.8621684520332575 -13.590680952569016 84 47 41
-2.7380295270626958 4.865550939037778 -13.625531468063244 82 45 39
-2.7380437114266347 4.868942749798491 -13.660469425521718 79 42 36
-2.7379153597692785 4.859322816275462 -13.710374097082807 76 41 35
-2.7382758451140594 4.894347773703205 -13.709300774243983 68 36 31
-2.7379929295039522 4.870629460562616 -13.775632528536915 54 24 20
-2.7378304284418515 4.857917218209032 -13.829559049543825 51 17 14
-2.737775311210582 4.855015951637883 -13.872352110523519 79 32 24
-2.737717079110712 4.8518382259762785 -13.915609289619631 105 54 43
-2.7379358773241123 4.8803926667290884 -14.041698532392516 95 64 60
-2.738087493345863 4.89637643453847 -14.06300791279251 98 64 59
-2.7386288477562717 4.947882361486701 -14.042419922227438 97 64 59
-2.7383644776222082 4.925954955050372 -14.108505682486424 96 63 58
-2.7376949991665884 4.867134319910034 -14.218658797460822 95 62 57
-2.7381576707773423 4.911470394212358 -14.206556769227959 95 62 57
-2.737388016881553 4.850210513046795 -14.443713613985752 94 61 56
-2.7373929243932933 4.8528847931793635 -14.481872315419652 94 61 56
-2.7370061259196206 4.819925146009264 -14.563313626564568 95 62 57
-2.7368682916040123 4.809633429133799 -14.61758172045221 92 61 56
-2.7365507113933596 4.78300467465182 -14.69196573734385 93 62 57
-2.7363431326822787 4.7663963898201125 -14.754429555648972 90 59 54
-2.736400980148246 4.773933590342465 -14.787553484304077 87 56 51
-2.7359329394743486 4.735970567189904 -14.919443229562727 90 59 54
-2.735378745180493 4.687919036849338 -15.021749133277575 91 60 55
-2.733644192066902 4.537386978636024 -15.339568112159608 97 75 72
-2.7332557980176047 4.504496020996436 -15.424900473720236 44 32 33
-2.732878373815304 4.4726216439375674 -15.50934452303393 33 31 33
-2.7328633984581794 4.473662415503695 -15.552744736645835 6 7 9
-2.7362610316233247 4.815490535089213 -15.746087093681304 106 105 108
-2.7362415956779316 4.816175674465764 -15.790851417293673 108 108 110
-2.736260748763558 4.82035959306674 -15.831148361716194 110 110 111
-2.7363043090547574 4.826757497126076 -15.86863779519031 113 113 113
-2.7365480057149454 4.853725417658441 -15.925068319313098 118 118 118
-2.7368238667387406 4.881133898372223 -15.934768369904251 120 120 122
-2.7369569410952974 4.895636112884586 -15.96169124422931 123 123 125
-2.7370166217113563 4.903509711980204 -15.997559432125097 125 125 127
-2.737589102379756 4.957708451994952 -15.971121290649904 127 127 129
-2.738122511349501 5.008364016977861 -15.949195402123117 130 131 133
-2.7842344095411415 9.557361651519448 -17.00601678300312 214 214 214
-2.661837063296894 0.22195418440068693 -12.497640500587853 145 127 126
-2.6633703893878513 0.3492794052338617 -12.43866915889052 103 68 66
-2.6649237905916303 0.47814901307215596 -12.378069691639347 102 55 51
-2.6857637887780714 2.3213985381762647 -12.363523503128185 121 49 34
-2.6862382045842135 2.363356258129831 -12.363169617621374 121 49 34
-2.6859006193863566 2.341199377594874 -12.417172314493582 122 50 35
-2.686706206997753 2.409283226961189 -12.394490191279433 124 52 37
-2.6876161840087343 2.485571351011586 -12.36455351525126 124 52 36
-2.6882908457931904 2.5432647207730117 -12.350267598615867 122 50 34
-2.6889312029677868 2.598228791718152 -12.338133930832333 123 50 33
-2.689407020266926 2.6402015449938707 -12.337018641813984 122 49 32
-2.689879174948012 2.681870919465802 -12.33604952043925 122 49 32
-2.690354354723136 2.7237639033790666 -12.334771444238688 122 49 32
-2.695330583851233 3.1727997805186865 -12.393429946232525 122 47 28
-2.6954405083044453 3.1858741157479944 -12.416752448158253 123 48 29
-2.6956821212352375 3.2092736082759243 -12.430751274953632 124 49 30
-2.696082869193652 3.2451384163589463 -12.433400708466792 123 48 29
-2.696482590459153 3.2809111900383776 -12.436042301140962 124 49 30
-2.6972827553501983 3.34802692787341 -12.40995377886927 124 49 30
-2.6974852444628743 3.3683279133508233 -12.426506420111863 123 48 29
-2.697509126493389 3.3746521914610526 -12.455894135319692 123 46 26
-2.698072179894855 3.423158803455835 -12.446466428762548 122 45 25
-2.698478694612914 3.459404657190456 -12.448211192723527 125 47 27
-2.6989407739867746 3.4999816979280487 -12.445844522972784 126 48 28
-2.6994148434162657 3.541480502056137 -12.442500994484252 125 47 28
-2.699706728808224 3.5687323723897597 -12.452317195717791 126 48 27
-2.700072572058825 3.6017532614824503 -12.456689656647509 126 48 27
-2.700483935406553 3.6383173405737974 -12.457658748558389 129 48 27
-2.7009016940066064 3.67536786225413 -12.458070450927197 127 46 25
-2.7012312507887764 3.7055250835659583 -12.464882225527065 128 46 25
-2.7016605691162505 3.7434533943035877 -12.464276091368713 130 48 27
-2.7021612652235367 3.7869320897639085 -12.458294813123764 132 50 29
-2.7024489585781204 3.813794865624648 -12.46798605625373 128 47 26
-2.7029288930928477 3.8556267942680327 -12.46334253211033 128 46 25
-2.7032970476740696 3.8887377357991184 -12.466914879880814 131 49 28
-2.7037534904370193 3.9287108284259054 -12.463816310562336 131 49 28
-2.703640135912308 3.9243289705995448 -12.5032976568076 130 49 28
-2.7043341121474382 3.9827643309266607 -12.482252178170313 126 45 24
-2.7048477681260024 4.027149214531249 -12.47458580230249 124 43 22
-2.705178223758424 4.0572745311940395 -12.480619208285235 128 50 28
-2.7052592704315592 4.068010537746366 -12.505468706480006 134 56 33
-2.705462258732901 4.088223954533735 -12.521101436675131 134 56 33
-2.7059457421830926 4.130216527166522 -12.515385566119576 133 56 33
-2.7061866195037396 4.153360012493565 -12.528051896107048 136 59 36
-2.7065214634807537 4.183791150553578 -12.533507568079283 137 61 39
-2.707083353585502 4.231824739016659 -12.521496721605105 136 59 39
-2.707493252188193 4.268051237044686 -12.521014562643083 142 66 44
-2.70790816533675 4.304653153579245 -12.520053442133726 140 65 43
-2.7082505420271032 4.335621083834164 -12.524600084604256 138 64 44
-2.70851082113655 4.360220539177405 -12.535437261765509 127 55 35
-2.708569116625304 4.369175962118007 -12.561920214083118 128 58 38
-2.7094390667962553 4.440959216316129 -12.525277537316919 133 65 46
-2.7116685600825927 4.662143269405179 -12.691202957314651 114 31 10
-2.711955301369703 4.688717338444238 -12.699467228904817 113 43 13
-2.712240377688607 4.71515643994109 -12.707818496135864 109 53 21
-2.71250286107557 4.73984930158073 -12.71794515037172 86 36 16
-2.712614078996363 4.752894205799963 -12.740262614050671 67 22 11
-2.7128142638904627 4.772787604223243 -12.755394214865976 63 12 5
-2.7128027449420533 4.776397248685976 -12.78771429526951 84 20 9
-2.7133017758069586 4.819268722001919 -12.778523301355154 95 22 6
-2.713337030090369 4.826479345844801 -12.80706880560142 97 21 4
-2.713302299463953 4.828321640786642 -12.841399390190984 101 27 5
-2.713387455087752 4.839382343598821 -12.865975634091356 99 25 7
-2.7133748690343213 4.842945300241587 -12.898629426348903 91 20 5
-2.7134202954415847 4.850970595194051 -12.926574225582483 83 20 7
-2.713329927162801 4.848587609757514 -12.965800717941384 81 26 15
-2.7131454239657993 4.839002689730975 -13.012940293160018 81 32 22
-2.7128342702451325 4.824329111322868 -13.102846049401357 81 38 32
-2.713001228655388 4.84172245422059 -13.121063821773681 79 39 34
-2.7130826092479117 4.852564959496311 -13.146450386504613 80 41 35
-2.713001735307329 4.850996900865027 -13.185496942020986 80 41 35
-2.713066980552016 4.860621156740143 -13.212353024860228 81 42 36
-2.71336486649165 4.88804006869298 -13.219626042535797 80 41 35
-2.7132875915354324 4.886777372898689 -13.258579617340008 81 42 37
-2.7131396017653437 4.880127268299079 -13.30363627365749 81 42 37
-2.7128479267191787 4.862523506662406 -13.361044949948981 85 46 41
-2.7128153675717583 4.864729073992586 -13.396569262496792 86 48 42
-2.7121751967136296 4.820581068064876 -13.48409634158337 86 49 43
-2.712387230114671 4.841487856904572 -13.498978246178702 86 50 44
-2.7125602963592965 4.859421252178547 -13.517190558656253 87 51 45
-2.712512611296429 4.860529884235111 -13.554407306174141 88 51 45
-2.7127200598732966 4.8810898605740745 -13.569702236416369 86 49 43
-2.713106925583244 4.91531132017074 -13.56946072068467 83 46 40
-2.712975348530403 4.910053953377097 -13.614094528878677 80 43 37
-2.7126945900634745 4.89346416166818 -13.671833639356116 78 43 38
-2.712797790562533 4.906107254381168 -13.696302082725474 70 37 32
-2.712476908150851 4.8865119818264455 -13.757862680571854 57 25 20
-2.7121544612482182 4.866829028179556 -13.819778276430934 49 17 14
-2.7119600762909295 4.856905979153573 -13.870665876710682 68 22 15
-2.7120185302280007 4.885755830506713 -14.035936895178914 94 62 59
-2.7121885353984507 4.903554186418698 -14.055098725249787 97 62 58
-2.712431500963106 4.926879486917318 -14.067743455850438 96 62 57
-2.7117103619621528 4.877205723571607 -14.16674602921156 96 62 57
-2.7115474349157687 4.869835591114176 -14.21600975811414 96 62 57
-2.7114313930699843 4.866034330719402 -14.261205549681243 95 61 56
-2.7121153902716477 4.922748057387753 -14.2343097716955 94 60 55
-2.710086005893161 4.78955593478177 -14.558969075085084 94 61 56
-2.710835023786225 4.851167379869143 -14.52607151808487 95 62 57
-2.7107542407096528 4.850157456361682 -14.56895833038734 93 62 57
-2.7104942433813846 4.835654198809468 -14.62843004965063 92 61 56
-2.7105282362887637 4.843333779454454 -14.661029150304358 89 58 53
-2.7105689854017743 4.851532113492359 -14.69307329945585 87 56 50
-2.708375531365915 4.696753088563205 -14.968453233078046 88 57 52
-2.708236363895259 4.691521534774614 -15.017959373620965 89 58 53
-2.705754816601733 4.520900430203805 -15.360832416974713 95 74 72
-2.7053923700590405 4.499059439770449 -15.432408794570357 20 10 11
-2.705360726596676 4.50208430751066 -15.47308672306194 9 8 10
-2.7053122233337445 4.503859353833279 -15.515461591693214 7 7 10
-2.7051443960185124 4.49670271559943 -15.569244928960067 5 5 8
-2.7085392913416575 4.805184155026016 -15.624196280008135 99 96 96
-2.708636581521984 4.8179054088792705 -15.6528639281388 102 97 98
-2.7087383713197264 4.8309687305115645 -15.681138098807564 105 99 100
-2.708855596605938 4.845188856297932 -15.70794642112015 105 99 101
-2.7088274992716306 4.848586557533389 -15.749035065668469 105 100 100
-2.708820611234272 4.853579107261885 -15.788146751423644 106 101 99
-2.708838342983223 4.860418196454672 -15.824930327208826 107 103 100
-2.7089047133783484 4.870888328537379 -15.85699607156106 111 106 104
-2.7089126462289115 4.877021502395179 -15.894908878084069 115 110 108
-2.70890419233453 4.881949638745499 -15.934538841740672 118 115 116
-2.708972191043715 4.89257211231524 -15.966661538885777 121 119 119
-2.7091278294844483 4.9097115910137346 -15.990104651719598 123 123 123
-2.7093654323721053 4.932937500505141 -16.00537053593699 124 125 126
-2.7099029865902993 4.978413331146696 -15.990547179738602 128 129 131
-2.710233158172406 5.008486365588853 -15.996391185491731 131 131 135
-2.631200980789139 0.11168951960422202 -12.54326878289627 203 197 198
-2.633092365802603 0.25083996079224313 -12.47593324819815 116 92 91
-2.6347004688741533 0.3700656051308542 -12.422950339279945 101 63 60
-2.659108627240129 2.324093834748374 -12.291140677650064 122 50 35
-2.6606177082036373 2.4405787003055144 -12.262844012638253 121 49 34
-2.6602080574975533 2.418770156700906 -12.316215821955545 122 50 35
-2.659307825264288 2.3633027896646945 -12.398385000204302 122 50 35
-2.659921972787115 2.411870579625117 -12.392280946639898 123 51 36
-2.6610630802812723 2.496573245470959 -12.355151545927782 123 52 34
-2.661821355685078 2.5549573536808508 -12.340250435154138 127 56 38
-2.662418290555448 2.602244096790706 -12.334690717944076 124 51 34
-2.6630002571624964 2.6484792831129464 -12.329895170799047 122 49 32
-2.669165543519186 3.164470889200949 -12.401006749908577 126 51 32
-2.6695282122167705 3.1954641356818216 -12.408171880935424 126 51 32
-2.669681183834099 3.212188180971907 -12.428196389904208 126 51 32
-2.670176316011122 3.2521665995547853 -12.4271055107039 128 53 34
-2.67063111280246 3.2893848136749373 -12.42841590403241 124 49 30
-2.6708339794873184 3.3094807237487442 -12.445272023893136 124 49 30
-2.671239826055575 3.3433495683847534 -12.449498229485487 125 50 31
-2.671776983567781 3.3861103549335523 -12.445470167360654 124 47 27
-2.67217112263703 3.419151697361727 -12.45027068697809 124 47 27
-2.67267502760096 3.4596171337064368 -12.448129880325205 126 48 28
-2.6732319653424983 3.503653278572262 -12.442559970513766 126 48 28
-2.673729550633122 3.5436465643739528 -12.44061058722274 126 48 28
-2.6740848949248845 3.5739940431194643 -12.447538661312786 125 47 27
-2.674369708351386 3.5995596238370604 -12.458873416507252 127 49 29
-2.6748202624151687 3.6363221866392665 -12.459666590148455 135 54 33
-2.6753040170727163 3.6753099916665084 -12.458265695798604 132 51 30
-2.675811975849168 3.7159121335290193 -12.455228368239784 129 48 27
-2.676333548628214 3.757411311770073 -12.451219502143747 130 48 27
-2.6767763541132803 3.7935733414710358 -12.452146672366265 129 47 26
-2.677070692980957 3.8197058466583353 -12.462518945801097 127 45 24
-2.6776585294126507 3.865612617485149 -12.453974229609575 128 46 25
-2.6781071954540017 3.9021162634104876 -12.454275769230327 129 47 26
-2.6784977225419238 3.934686874074167 -12.458250306785938 129 47 26
-2.6787130092536167 3.9554491446127296 -12.47351228047439 128 46 25
-2.678956920304753 3.978134186681488 -12.486902394301998 126 44 23
-2.6794203202545677 4.015571757910039 -12.485980637280974 125 44 23
-2.6798747892393724 4.052389736198974 -12.485551286140561 128 49 27
-2.679943906311134 4.063305899876966 -12.510243770289735 133 55 33
-2.6802236225158276 4.088367346003348 -12.521158699248069 133 55 33
-2.680866807677368 4.137810217668697 -12.50814786622011 134 56 34
-2.681121581039296 4.161172236745997 -12.520582377174112 134 58 35
-2.6814657646403166 4.190522056711199 -12.52708562804674 137 61 38
-2.6818962029570477 4.225639130096226 -12.527824005224254 137 60 39
-2.6823537656916274 4.262555032896917 -12.526680630238722 134 59 36
-2.6828263574914706 4.300457403208265 -12.524446999537567 131 56 35
-2.682880658633334 4.310357600878851 -12.550011773429055 129 55 37
-2.6832259926316206 4.339724649793183 -12.556160187195772 125 52 35
-2.6834226106957084 4.35914164604742 -12.572218056690401 126 56 38
-2.6840516991357104 4.4074426790730845 -12.55922138699551 123 56 37
-2.68711481630237 4.6868223552570445 -12.701736627840582 101 26 2
-2.687376450056269 4.710488682583432 -12.712993657736659 100 35 8
-2.6876240246220657 4.73321642964993 -12.725197138254167 91 33 15
-2.6877625614192686 4.7487129674521995 -12.744964753911452 71 23 11
-2.6879565576754727 4.767885054654702 -12.76087372507292 67 14 8
-2.6878943281877015 4.770093947338474 -12.794693874823796 81 16 8
-2.68833661772594 4.80569947238858 -12.793224779771595 93 19 2
-2.6885073503698536 4.823328564356687 -12.810746702839019 105 29 6
-2.6886271568790985 4.83759191751369 -12.8318554763585 109 36 9
-2.6886478004203345 4.845308718011607 -12.859982005374114 95 24 4
-2.688763905531863 4.859338579160103 -12.881403330635536 85 16 3
-2.688631790007356 4.856994003310437 -12.920449988536282 77 14 2
-2.6885337248754637 4.856916782369558 -12.957177295791148 77 21 9
-2.68836497839294 4.852200310797533 -12.999032439768667 81 31 20
-2.688181549083801 4.846541208377975 -13.04205102416804 82 37 28
-2.6873828186572695 4.800397177717114 -13.129248150222288 84 41 34
-2.6883944874859145 4.8734523664248846 -13.086833671645 80 40 33
-2.6883989703958866 4.880207879807042 -13.11659565280037 79 40 33
-2.688520188589156 4.894648603269356 -13.137996479672264 80 41 34
-2.6885273272957093 4.901598825980636 -13.167660747801854 80 41 34
-2.6883629024700313 4.897296859799138 -13.209811663601599 80 41 34
-2.6886714524022945 4.9240562228614 -13.217728499298723 81 42 37
-2.6881006064534794 4.893131927505191 -13.28961422820359 82 43 38
-2.687653653955893 4.870383130751444 -13.352714732606 84 45 40
-2.6873104016830824 4.854473445613686 -13.40844386726396 85 46 41
-2.6869200948371144 4.83552118219956 -13.46780049259942 84 47 41
-2.6863590201962655 4.805436399425045 -13.539900075273188 86 49 43
-2.6875731671880603 4.891503481460514 -13.481501602920098 87 50 44
-2.6877777742893043 4.911508311917101 -13.497275404741625 89 52 45
-2.687647542895858 4.909637821002408 -13.537817108206802 88 51 45
-2.6878011192453033 4.926319085381961 -13.557413704507322 87 50 43
-2.687952026737313 4.942827835565412 -13.577216305919457 84 48 42
-2.687783062811805 4.938478854994584 -13.620864922472173 78 43 39
-2.687267626087826 4.911574396357323 -13.690514194365143 73 39 34
-2.68678893287951 4.8871152547934775 -13.757654302291536 66 33 27
-2.686488876087835 4.874334606508173 -13.811618000337148 52 17 14
-2.685944004838749 4.90053529224475 -14.139685534585505 95 60 56
-2.6844213771064713 4.808913194622384 -14.28888001544636 94 59 55
-2.683865860674315 4.779975343984989 -14.364218301532189 94 59 55
-2.6845921980907876 4.833955823608507 -14.340890002792746 94 59 55
-2.6858741788203426 4.923790635381633 -14.274382345103861 94 59 55
-2.6853677421993716 4.919152287162468 -14.444311060456911 94 61 56
-2.6848455801876026 4.892575483372163 -14.5180294838493 93 62 57
-2.6849991906555513 4.909553091689973 -14.538993116069857 92 61 56
-2.6848115575814826 4.904580539228503 -14.586798458011442 90 59 54
-2.6847410501104125 4.907167215443735 -14.625508393949557 87 56 51
-2.681178568443029 4.700005571630033 -15.008132532643806 88 57 52
-2.678106181597853 4.525215003779334 -15.356146912715925 89 68 67
-2.6785957065189967 4.564039955421855 -15.351805449468593 12 4 6
-2.678637970235241 4.5742278062456645 -15.383262082935872 9 9 11
-2.677918229570799 4.535709212418348 -15.476094557133251 13 13 15
-2.68138333282759 4.839519248823361 -15.580345250173366 95 83 80
-2.6814496714486094 4.851300004127994 -15.61011451670947 94 79 77
-2.681481591398178 4.860908553307213 -15.642785476555824 92 76 74
-2.681522345968606 4.8710899627822855 -15.67478285387243 92 75 73
-2.6815435186825076 4.880043714880408 -15.708469178600865 89 72 69
-2.6814850243853043 4.883969883014318 -15.748873301918572 89 72 67
-2.6814690653320783 4.8906067201539685 -15.785813532308154 90 73 68
-2.681452341109843 4.897212388485697 -15.82289800016293 91 75 70
-2.680914455043892 4.8709193477602915 -15.9038844011999 93 76 73
-2.6809465446721616 4.88066239510292 -15.937117487720268 96 81 80
-2.680940475742827 4.888011957123273 -15.973636244607276 103 92 90
-2.680922375100715 4.894619735804291 -16.011251082550523 111 103 101
-2.6810140802965363 4.908162055035655 -16.039629860643696 123 117 116
-2.6813759864617963 4.938721958932736 -16.04506549143919 129 126 127
-2.681840566581966 4.975726621154537 -16.041681549606103 129 128 131
-2.6820578799082417 4.997163826230045 -16.059319948878233 130 131 132
-2.6819835854504563 5.000279222965242 -16.1019240825645 133 133 135
-2.6824216576671907 5.03558401620431 -16.100649549357275 135 135 137
-2.681790245362117 5.011613621804445 -16.227821801987428 140 140 140
