ply
format ascii 1.0
element vertex 832
property float x
property float y
property float z
property float nx
property float ny
property float nz
property uchar diffuse_red
property uchar diffuse_green
property uchar diffuse_blue
property uchar class
property uchar detection
end_header
1.1150 -3.6893 -14.9323 -0.851 -0.268 0.452 100 45 32 0 0
1.2983 -3.7407 -16.6322 -0.842 -0.536 -0.063 73 50 44 0 0
2.4627 -2.0061 -13.8386 -0.353 -0.689 0.633 149 92 74 0 0
2.4515 -2.0219 -13.8621 -0.353 -0.689 0.633 144 85 68 0 0
2.0709 -2.5412 -14.5530 -0.416 -0.890 0.187 87 30 12 0 0
2.0728 -2.5854 -14.8685 -0.091 -0.976 0.199 55 14 5 0 0
1.6784 -3.0425 -15.0343 0.424 -0.152 0.893 101 38 20 0 0
1.4447 -3.2733 -14.8583 -0.388 -0.519 0.762 99 37 18 0 0
1.4308 -3.2914 -14.8777 -0.388 -0.519 0.762 97 38 21 0 0
1.0952 -3.6743 -14.9773 -0.767 -0.378 0.518 98 48 35 0 0
1.2851 -3.7183 -16.6953 -0.802 -0.597 -0.009 90 75 68 0 0
2.4398 -1.9867 -13.8402 -0.095 -0.778 0.621 144 84 64 0 0
2.2934 -2.1430 -13.8083 -0.622 -0.375 0.688 136 56 32 0 0
2.2817 -2.1592 -13.8309 -0.393 -0.591 0.704 136 55 32 0 0
2.2470 -2.1964 -13.8249 -0.386 0.222 0.895 137 60 38 0 0
2.0384 -2.5302 -14.5421 -0.584 -0.793 0.175 72 21 10 0 0
2.0351 -2.5388 -14.5765 -0.544 -0.834 0.097 63 19 10 0 0
2.0595 -2.5974 -15.1632 -0.219 -0.706 0.673 46 11 5 0 0
2.1249 -2.5505 -15.3351 -0.590 -0.640 0.492 45 12 5 0 0
2.1249 -2.5564 -15.3759 -0.740 -0.329 0.587 44 15 8 0 0
1.6407 -3.0363 -15.0151 0.278 -0.067 0.958 100 37 19 0 0
1.6361 -3.0521 -15.0883 -0.356 -0.852 0.384 98 37 18 0 0
1.3245 -3.6440 -16.8010 -0.502 0.074 0.862 91 78 71 0 0
1.3014 -3.6703 -16.8075 -0.224 0.104 0.969 112 104 102 0 0
0.9435 -4.0288 -16.5662 -0.800 -0.411 0.437 182 182 183 0 0
2.7180 -1.6288 -13.7966 0.213 -0.406 0.889 162 96 71 0 0
2.2627 -2.1363 -13.8372 -0.052 -0.775 0.629 135 55 31 0 0
2.2370 -2.1654 -13.8423 -0.122 -0.073 0.990 133 56 33 0 0
2.0149 -2.5111 -14.5431 -0.331 -0.920 0.210 51 11 4 0 0
2.0513 -2.5696 -15.2267 -0.177 -0.780 0.600 41 10 3 0 0
1.3099 -3.3493 -14.9690 -0.095 -0.404 0.910 94 34 16 0 0
1.2870 -3.4042 -15.1749 -0.083 0.350 0.933 97 34 17 0 0
1.2994 -3.5123 -16.0199 -0.391 -0.614 0.686 26 14 13 0 0
1.2774 -3.5438 -16.0702 -0.505 -0.694 0.513 24 12 11 0 0
1.2662 -3.5597 -16.0951 -0.393 -0.657 0.644 27 14 14 0 0
1.2682 -3.6456 -16.7057 -0.921 -0.339 -0.190 84 64 53 0 0
0.9413 -3.9974 -16.6480 -0.763 -0.309 0.568 186 186 188 0 0
0.9269 -4.0162 -16.6677 -0.869 -0.289 0.402 190 190 192 0 0
3.4046 -0.8579 -14.0260 0.367 0.372 0.853 120 81 73 0 0
2.8864 -1.4033 -13.8388 -0.354 -0.373 0.858 127 56 38 0 0
2.2388 -2.1181 -13.8373 0.111 -0.799 0.591 135 55 31 0 0
2.1748 -2.1826 -13.7945 0.079 -0.645 0.760 135 58 35 0 0
1.9845 -2.4984 -14.5350 -0.331 -0.920 0.210 91 39 23 0 0
1.9750 -2.5461 -14.7960 -0.550 -0.770 0.324 47 12 3 0 0
2.0309 -2.5525 -15.2736 -0.554 -0.817 0.158 37 8 2 0 0
1.0314 -3.6553 -15.2684 -0.707 -0.566 0.424 46 29 28 0 0
1.2285 -3.6584 -16.8148 -0.954 -0.142 -0.265 137 134 134 0 0
2.8627 -1.3835 -13.8400 -0.354 -0.373 0.858 120 52 33 0 0
2.3178 -1.9829 -13.8164 0.048 -0.466 0.884 140 78 60 0 0
2.2140 -2.1006 -13.8363 -0.163 -0.629 0.760 133 56 31 0 0
1.1117 -3.6760 -16.3562 -0.947 -0.287 0.143 65 45 43 0 0
1.1086 -3.6849 -16.3946 -0.947 -0.287 0.143 74 46 41 0 0
0.8862 -3.9778 -16.7269 -0.254 -0.768 0.587 194 194 196 0 0
1.9961 -2.3257 -14.0397 -0.349 -0.636 0.688 117 51 20 0 0
1.9345 -2.4252 -14.2630 -0.613 -0.749 0.250 79 17 3 0 0
2.0589 -2.4555 -15.4650 -0.783 -0.400 0.476 31 6 2 0 0
2.0561 -2.4639 -15.5023 -0.514 -0.629 0.583 32 6 2 0 0
1.7136 -2.8037 -15.2186 0.227 0.595 0.771 46 7 1 0 0
1.5780 -2.9325 -15.0640 -0.900 0.052 0.434 83 29 15 0 0
1.7253 -2.7523 -15.2706 0.049 0.702 0.711 32 5 2 0 0
1.8804 -2.5076 -15.0802 -0.544 -0.814 0.202 54 19 9 0 0
2.0254 -2.4136 -15.5717 -0.230 -0.545 0.806 25 6 2 0 0
2.4868 -1.6024 -13.7320 -0.644 -0.357 0.677 139 86 72 0 0
1.8460 -2.4761 -14.9061 -0.371 -0.910 0.187 30 4 1 0 0
1.8511 -2.4768 -14.9531 -0.415 -0.856 0.308 46 11 3 0 0
1.2367 -3.2110 -15.3160 -0.988 0.133 0.082 86 27 11 0 0
1.8281 -2.4514 -14.9153 -0.403 -0.896 0.184 44 9 5 0 0
1.8247 -2.4599 -14.9507 -0.461 -0.837 0.296 57 17 7 0 0
3.0330 -0.9187 -13.8769 0.213 0.324 0.922 112 61 47 0 0
2.4828 -1.5076 -13.6743 -0.165 -0.527 0.834 145 71 36 0 0
1.9958 -2.3136 -15.6380 -0.219 -0.526 0.822 26 8 4 0 0
1.9562 -2.3559 -15.6229 -0.521 -0.384 0.763 23 5 3 0 0
0.9360 -3.4930 -15.5861 -0.864 -0.467 0.191 92 72 68 0 0
0.9332 -3.5403 -15.9186 -0.414 -0.692 0.591 54 43 41 0 0
0.9319 -3.5472 -15.9591 -0.502 -0.588 0.634 55 44 43 0 0
0.9268 -3.5575 -15.9934 -0.525 -0.567 0.635 58 45 44 0 0
0.9181 -3.5710 -16.0221 -0.106 -0.867 0.487 65 46 45 0 0
0.7021 -3.8864 -16.5762 -0.924 -0.361 0.128 192 192 194 0 0
2.4537 -1.4937 -13.6685 0.045 -0.549 0.834 143 68 34 0 0
2.0741 -1.9412 -13.8346 -0.282 -0.527 0.802 139 55 30 0 0
1.0620 -3.2721 -15.3239 -0.011 0.410 0.912 82 24 13 0 0
0.9245 -3.5134 -15.9866 -0.814 -0.283 0.506 66 47 46 0 0
2.8759 -0.9842 -13.7514 -0.142 0.202 0.969 114 60 46 0 0
2.0481 -1.9248 -13.8322 -0.271 -0.548 0.791 136 51 26 0 0
1.7226 -2.3242 -14.0901 -0.352 -0.831 0.430 105 28 4 0 0
0.9022 -3.3952 -15.2368 -0.585 0.639 0.500 84 26 13 0 0
0.8876 -3.4408 -15.4609 -0.406 -0.895 0.184 92 49 39 0 0
0.8903 -3.4654 -15.6739 -0.815 -0.517 0.261 63 38 36 0 0
0.9815 -3.4151 -16.0761 -0.749 -0.657 0.085 72 46 44 0 0
0.9490 -3.5302 -16.6806 -0.865 -0.387 0.319 147 145 146 0 0
2.1515 -1.7645 -13.8428 -0.650 -0.452 0.611 149 94 78 0 0
1.7149 -2.4225 -15.1368 -0.164 -0.954 0.251 28 6 3 0 0
1.7320 -2.4221 -15.2841 -0.546 -0.825 -0.146 25 7 5 0 0
1.8678 -2.2997 -15.5211 0.112 -0.925 0.362 23 6 4 0 0
0.8840 -3.3773 -15.2866 -0.690 0.603 0.401 83 25 13 0 0
0.9552 -3.4038 -16.1164 -0.097 -0.886 0.454 83 51 47 0 0
0.9361 -3.5005 -16.7010 -0.824 -0.234 0.516 151 149 150 0 0
0.9208 -3.5259 -16.7649 -0.920 -0.385 0.065 165 163 166 0 0
2.1259 -1.7475 -13.8410 -0.446 -0.406 0.798 143 88 72 0 0
1.6552 -2.3069 -14.0638 -0.521 -0.749 0.409 104 27 4 0 0
1.3279 -2.8706 -15.5937 0.184 -0.467 0.865 75 19 7 0 0
1.2400 -2.9634 -15.5431 -0.634 0.234 0.737 76 20 8 0 0
0.9592 -3.2568 -15.3587 0.235 0.128 0.963 75 23 13 0 0
0.8581 -3.3769 -15.4072 -0.743 -0.218 0.633 90 37 23 0 0
0.8199 -3.4441 -15.5964 -0.756 -0.597 0.268 87 52 46 0 0
0.8287 -3.4521 -15.7369 -0.877 -0.312 0.364 85 52 46 0 0
0.9212 -3.4667 -16.6734 -0.676 -0.282 0.681 145 142 142 0 0
2.3225 -1.4715 -13.7773 0.102 -0.286 0.953 113 52 39 0 0
2.0921 -1.7432 -13.8667 -0.413 -0.578 0.704 132 69 52 0 0
2.0287 -1.8095 -13.8240 -0.418 -0.757 0.502 124 47 27 0 0
1.6478 -2.3513 -14.7092 -0.490 -0.831 0.265 75 28 11 0 0
1.2757 -2.8884 -15.6356 0.413 -0.728 0.547 74 20 10 0 0
0.8525 -3.4767 -16.5102 0.419 0.235 0.877 126 120 120 0 0
0.8037 -3.5327 -16.5165 -0.749 -0.093 0.656 148 147 145 0 0
0.7959 -3.5679 -16.7270 -0.973 -0.232 -0.014 177 177 177 0 0
2.2922 -1.4401 -13.6200 -0.201 -0.884 0.421 144 70 38 0 0
1.6151 -2.3409 -14.6975 -0.611 -0.728 0.310 66 19 5 0 0
1.2517 -2.8380 -15.3860 -0.586 0.322 0.744 63 20 12 0 0
1.1941 -2.9287 -15.5899 -0.339 -0.427 0.838 67 19 12 0 0
0.8534 -3.3476 -15.8554 -0.644 -0.692 0.325 89 52 44 0 0
0.7698 -3.5225 -16.5010 -0.902 -0.244 0.356 151 150 148 0 0
0.8214 -3.4805 -16.6336 -0.817 -0.419 0.396 160 160 159 0 0
0.7840 -3.5372 -16.7495 -0.997 -0.045 0.065 179 179 179 0 0
2.2830 -1.4068 -13.6385 -0.506 0.005 0.862 143 69 37 0 0
2.2623 -1.4318 -13.6505 -0.506 0.005 0.862 159 91 62 0 0
2.2465 -1.4520 -13.6685 -0.547 -0.338 0.766 143 85 68 0 0
1.7187 -2.0656 -13.7878 0.493 0.115 0.862 149 86 70 0 0
1.6547 -2.1557 -13.9302 -0.200 -0.592 0.781 110 31 7 0 0
1.6182 -2.2051 -13.9957 -0.322 -0.636 0.702 89 22 6 0 0
1.3123 -2.7236 -15.3900 -0.587 0.514 0.626 5 4 5 0 0
1.2849 -2.7547 -15.3902 -0.587 0.514 0.626 11 6 5 0 0
1.2673 -2.7765 -15.4051 -0.675 0.363 0.643 29 13 10 0 0
1.2447 -2.8030 -15.4125 -0.609 0.360 0.707 47 20 14 0 0
1.2235 -2.8282 -15.4218 -0.675 0.363 0.643 56 19 13 0 0
0.8406 -3.3131 -15.8316 -0.305 -0.756 0.580 88 60 55 0 0
0.8302 -3.3281 -15.8574 -0.538 -0.749 0.387 88 60 54 0 0
0.8243 -3.3389 -15.8905 -0.403 -0.903 0.149 89 61 56 0 0
2.1980 -1.4620 -13.6760 0.182 -0.277 0.944 136 80 67 0 0
1.6128 -2.1599 -13.9442 -0.200 -0.592 0.781 105 28 6 0 0
1.5347 -2.3061 -14.4164 -0.458 -0.738 0.496 106 57 28 0 0
1.5293 -2.3161 -14.4481 -0.617 -0.586 0.526 98 47 25 0 0
1.3840 -2.6081 -15.4935 -0.493 0.667 0.559 3 3 3 0 0
1.3057 -2.6929 -15.4589 -0.404 0.691 0.599 7 5 6 0 0
1.2701 -2.7319 -15.4467 -0.492 0.652 0.577 13 7 7 0 0
1.2354 -2.7701 -15.4356 -0.513 0.633 0.580 23 13 9 0 0
1.2223 -2.7876 -15.4574 -0.623 0.656 0.426 38 17 15 0 0
1.2037 -2.8359 -15.6810 -0.926 0.282 0.249 48 17 11 0 0
0.7543 -3.3842 -15.9879 -0.083 -0.935 0.345 101 93 93 0 0
0.7343 -3.4134 -16.0413 -0.141 -0.933 0.332 106 101 98 0 0
1.5799 -2.1508 -13.9320 -0.331 -0.658 0.676 102 25 2 0 0
1.5303 -2.2360 -14.1715 -0.738 -0.620 0.267 79 17 3 0 0
1.5165 -2.2821 -14.4246 -0.594 -0.586 0.552 79 28 14 0 0
1.5060 -2.2970 -14.4492 -0.508 -0.679 0.530 72 25 10 0 0
1.2647 -2.7001 -15.5177 -0.592 0.678 0.437 16 13 12 0 0
1.2189 -2.7539 -15.5317 -0.759 0.578 0.300 29 14 13 0 0
0.8525 -3.2983 -16.5897 0.164 0.101 0.981 134 132 133 0 0
2.7193 -0.7849 -13.7647 -0.168 0.339 0.926 119 60 45 0 0
2.1320 -1.4380 -13.6169 0.230 -0.932 0.279 135 85 68 0 0
1.9098 -1.7120 -13.7882 -0.382 -0.664 0.642 127 56 37 0 0
1.5519 -2.1369 -13.9265 -0.392 -0.772 0.500 105 28 5 0 0
1.5196 -2.1958 -14.1124 -0.633 -0.579 0.513 105 28 3 0 0
1.5019 -2.2223 -14.1654 -0.423 -0.649 0.633 87 22 6 0 0
1.4949 -2.2338 -14.1944 -0.503 -0.832 0.235 65 10 2 0 0
0.8294 -3.2829 -16.6381 0.552 0.188 0.813 146 144 147 0 0
2.5529 -0.9256 -13.7470 -0.330 -0.617 0.715 145 78 46 0 0
2.1050 -1.4268 -13.6509 -0.081 -0.715 0.694 132 77 62 0 0
2.0632 -1.4772 -13.6740 -0.002 -0.445 0.895 122 60 39 0 0
1.8827 -1.6967 -13.7844 -0.352 -0.481 0.803 126 56 37 0 0
1.8475 -1.7361 -13.7770 -0.266 -0.170 0.949 131 50 24 0 0
1.4968 -2.1767 -14.1138 -0.308 -0.754 0.580 104 27 2 0 0
1.4762 -2.2060 -14.1629 -0.308 -0.754 0.580 93 27 9 0 0
1.4659 -2.2526 -14.4606 -0.641 -0.648 0.411 103 45 16 0 0
1.4983 -2.3598 -15.6943 0.401 -0.597 0.695 5 5 5 0 0
0.8585 -3.2023 -16.6401 -0.144 0.576 0.805 140 139 137 0 0
2.0345 -1.4634 -13.6683 -0.087 -0.493 0.866 122 59 38 0 0
1.8598 -1.6772 -13.7859 -0.454 -0.476 0.753 124 55 37 0 0
1.5086 -2.1011 -13.9704 -0.342 -0.443 0.828 102 25 3 0 0
1.4846 -2.1336 -14.0145 -0.400 -0.505 0.764 89 20 4 0 0
1.4748 -2.1567 -14.1165 -0.142 -0.879 0.455 104 27 1 0 0
1.4530 -2.1872 -14.1638 -0.206 -0.664 0.719 94 30 10 0 0
1.4863 -2.2747 -15.2518 -0.354 -0.935 0.001 33 8 6 0 0
1.6237 -2.1551 -15.5801 -0.822 -0.557 0.121 7 2 1 0 0
1.1927 -2.6618 -15.6903 -0.932 0.103 0.348 20 16 17 0 0
2.0038 -1.4515 -13.6601 -0.011 -0.502 0.865 124 60 38 0 0
1.4346 -2.1460 -14.0174 -0.325 -0.667 0.671 96 23 7 0 0
1.4124 -2.1900 -14.1797 -0.215 -0.862 0.458 76 15 2 0 0
1.4541 -2.2632 -15.2410 -0.355 -0.935 0.011 34 9 7 0 0
1.4993 -2.2475 -15.5593 -0.358 -0.702 0.616 10 6 7 0 0
1.4556 -2.3096 -15.6632 0.049 0.068 0.996 13 11 12 0 0
1.1920 -2.6148 -15.6852 -0.495 -0.382 0.781 17 15 16 0 0
1.1728 -2.6383 -15.6980 -0.414 -0.199 0.888 19 17 18 0 0
1.1420 -2.6731 -15.6925 -0.652 0.011 0.758 20 18 19 0 0
1.1781 -2.6429 -15.7917 -0.001 -0.318 0.948 20 17 18 0 0
0.6859 -3.3224 -16.7927 -0.282 -0.038 0.959 185 185 185 0 0
0.9703 -2.9507 -16.8228 -0.743 0.027 0.668 140 138 139 0 0
0.7038 -3.2470 -16.7308 -0.679 0.086 0.730 177 177 179 0 0
0.6499 -3.3190 -16.8196 -0.065 -0.333 0.941 188 188 190 0 0
2.5627 -0.7220 -13.7267 -0.049 -0.034 0.998 117 59 46 0 0
1.3726 -2.1415 -14.1520 -0.312 -0.673 0.671 104 34 10 0 0
1.3576 -2.1060 -14.0867 -0.466 -0.849 0.249 102 22 2 0 0
1.3487 -2.1235 -14.1519 -0.307 -0.652 0.693 102 31 10 0 0
1.3286 -2.1823 -14.4767 -0.537 -0.800 0.268 108 51 29 0 0
1.3221 -2.1930 -14.5073 -0.495 -0.771 0.401 97 44 25 0 0
0.8861 -2.9495 -16.8121 -0.917 -0.203 0.344 149 149 151 0 0
0.8753 -2.9649 -16.8395 -0.751 -0.027 0.659 155 155 157 0 0
0.6449 -3.2326 -16.8533 -0.137 -0.475 0.869 186 187 189 0 0
1.7315 -1.5939 -13.7757 -0.602 -0.644 0.472 123 48 27 0 0
1.5705 -1.7862 -13.8309 -0.626 -0.183 0.758 144 64 36 0 0
1.4134 -1.9783 -13.9262 -0.462 -0.355 0.813 131 55 36 0 0
1.3270 -2.0947 -14.0775 -0.415 -0.907 0.072 107 28 5 0 0
1.3242 -2.1059 -14.1511 -0.153 -0.693 0.704 100 28 9 0 0
1.3191 -2.1407 -14.4184 -0.640 -0.512 0.573 87 34 13 0 0
1.2994 -2.1863 -14.6290 -0.340 -0.913 0.225 60 14 4 0 0
1.3726 -2.1887 -15.4351 -0.595 -0.779 -0.197 5 1 3 0 0
0.8684 -2.9177 -16.7797 -0.729 -0.548 0.410 147 147 149 0 0
0.8415 -2.9539 -16.8252 -0.565 -0.205 0.799 157 157 159 0 0
1.6735 -1.6142 -13.7696 -0.632 -0.519 0.575 129 45 19 0 0
1.3894 -1.9605 -13.9259 -0.095 -0.537 0.838 140 67 49 0 0
1.2963 -2.1212 -14.4202 -0.553 -0.564 0.613 76 20 8 0 0
1.2657 -2.2340 -15.1451 -0.157 -0.880 0.449 39 11 7 0 0
0.6160 -3.1541 -16.7074 0.328 -0.655 0.681 179 180 183 0 0
0.5909 -3.1982 -16.8470 -0.407 0.029 0.913 191 192 194 0 0
1.2702 -2.0720 -14.1036 -0.400 -0.809 0.431 101 22 2 0 0
1.2647 -2.0817 -14.1348 -0.343 -0.654 0.675 97 23 5 0 0
1.2399 -2.1607 -14.6132 -0.259 -0.937 0.235 54 11 6 0 0
1.2377 -2.1672 -14.6501 -0.300 -0.937 0.178 64 14 8 0 0
1.2579 -2.1767 -14.9638 -0.427 -0.902 0.067 65 29 21 0 0
1.2447 -2.2030 -15.0678 -0.304 -0.863 0.404 53 18 9 0 0
0.8454 -2.8424 -16.7357 -0.510 -0.629 0.587 144 142 145 0 0
0.8565 -2.8363 -16.8007 -0.664 -0.747 -0.035 147 145 148 0 0
0.5714 -3.1543 -16.6732 0.338 -0.168 0.926 180 181 183 0 0
2.0038 -1.1244 -13.6472 -0.251 0.075 0.965 137 65 38 0 0
1.2448 -2.0555 -14.1015 -0.557 -0.540 0.631 107 29 5 0 0
1.2107 -2.1475 -14.6060 -0.271 -0.939 0.212 58 16 6 0 0
1.2086 -2.1537 -14.6431 -0.368 -0.914 0.169 73 25 11 0 0
1.2259 -2.1742 -15.0352 -0.250 -0.909 0.334 64 21 6 0 0
1.2200 -2.1845 -15.0676 -0.250 -0.909 0.334 52 15 6 0 0
1.2116 -2.1973 -15.0965 -0.367 -0.847 0.385 42 9 7 0 0
1.0862 -2.5315 -16.9120 -0.934 0.355 -0.029 118 118 120 0 0
0.8294 -2.8187 -16.7979 -0.802 -0.413 0.431 147 145 148 0 0
0.8170 -2.8357 -16.8227 -0.196 -0.947 0.256 152 151 154 0 0
0.8187 -2.8388 -16.8718 0.408 -0.361 0.839 158 158 160 0 0
0.5239 -3.1814 -16.8639 -0.384 -0.083 0.919 192 193 195 0 0
1.9945 -1.0902 -13.6662 -0.479 0.264 0.837 136 63 37 0 0
1.6724 -1.4784 -13.7864 -0.332 -0.320 0.887 134 67 49 0 0
1.2736 -1.9597 -13.9422 -0.425 -0.379 0.822 107 30 10 0 0
1.2244 -2.0338 -14.1064 -0.503 -0.525 0.686 105 27 4 0 0
1.2130 -2.0495 -14.1294 -0.713 -0.417 0.564 98 22 4 0 0
1.1773 -2.1885 -15.0820 -0.612 -0.586 0.531 65 25 13 0 0
1.1597 -2.2622 -15.6027 0.379 -0.411 0.829 12 10 11 0 0
1.4956 -1.6452 -13.8526 -0.170 -0.626 0.761 137 53 26 0 0
1.2089 -2.0032 -14.0792 -0.677 -0.401 0.617 109 28 5 0 0
1.2083 -2.0078 -14.1172 -0.059 -0.508 0.859 103 25 3 0 0
1.1578 -2.1648 -15.0896 -0.302 -0.881 0.363 68 28 9 0 0
1.0352 -2.3570 -15.5760 -0.397 -0.783 0.479 17 14 15 0 0
2.3481 -0.5858 -13.7084 0.241 -0.065 0.968 120 59 47 0 0
1.5320 -1.5529 -13.8179 -0.678 -0.265 0.686 133 46 19 0 0
1.4962 -1.5938 -13.8087 -0.398 -0.574 0.715 136 50 23 0 0
1.1811 -1.9892 -14.0737 -0.161 -0.103 0.982 110 29 7 0 0
1.1765 -1.9979 -14.1061 0.055 -0.594 0.803 103 25 2 0 0
1.1280 -2.1514 -15.0820 -0.302 -0.881 0.363 53 21 11 0 0
0.9952 -2.3622 -15.6380 -0.365 -0.523 0.770 18 16 19 0 0
0.8913 -2.6042 -16.8514 0.537 -0.706 0.462 130 130 130 0 0
2.4935 -0.3797 -13.8398 -0.761 -0.438 0.479 119 60 45 0 0
1.5043 -1.5384 -13.8131 -0.531 -0.413 0.740 133 47 20 0 0
1.1574 -1.9711 -14.0738 -0.121 -0.141 0.983 108 28 7 0 0
1.1326 -2.1193 -15.2935 -0.473 -0.867 -0.159 35 14 12 0 0
0.9445 -2.3740 -15.6402 0.281 -0.110 0.953 17 15 17 0 0
0.9500 -2.4196 -16.1746 -0.620 -0.624 -0.476 34 33 31 0 0
2.4349 -0.3958 -13.7990 0.421 -0.447 0.789 119 60 44 0 0
2.2525 -0.5963 -13.6521 -0.160 -0.371 0.915 120 59 47 0 0
2.2244 -0.6370 -13.7326 -0.516 -0.282 0.809 118 62 45 0 0
1.9126 -1.0031 -13.7245 -0.438 -0.156 0.885 174 111 86 0 0
1.8933 -1.0271 -13.7383 -0.438 -0.156 0.885 138 90 71 0 0
1.1131 -1.9743 -14.0451 -0.005 -0.835 0.551 106 28 7 0 0
0.7152 -2.6014 -15.7002 -0.615 -0.724 0.313 22 20 21 0 0
2.3897 -0.3979 -13.7744 0.018 0.113 0.993 121 60 46 0 0
1.0787 -1.9637 -13.9914 -0.389 -0.740 0.549 93 22 2 0 0
1.0508 -2.0642 -14.7063 -0.612 -0.771 0.174 112 61 31 0 0
0.9031 -2.3778 -16.1807 -0.332 -0.844 -0.421 29 28 26 0 0
0.5224 -2.8812 -16.7596 -0.837 0.331 0.436 176 177 179 0 0
2.3454 -0.3957 -13.7122 -0.202 -0.476 0.856 120 62 50 0 0
2.4334 -0.3055 -13.8589 0.466 -0.754 0.464 121 59 47 0 0
2.2652 -0.4920 -13.7292 -0.155 -0.173 0.973 120 60 46 0 0
1.0517 -1.9528 -14.0257 -0.515 -0.588 0.624 104 28 7 0 0
1.0208 -2.0518 -14.6979 -0.577 -0.736 0.353 77 31 21 0 0
0.7711 -2.4642 -15.9605 -0.629 -0.695 -0.347 25 24 24 0 0
0.8740 -2.3668 -16.2191 -0.386 -0.844 -0.373 32 31 29 0 0
0.5166 -2.8424 -16.7942 -0.802 0.342 0.490 178 179 181 0 0
0.9964 -2.0188 -14.5354 -0.358 -0.869 0.342 92 39 16 0 0
0.9990 -2.0271 -14.6608 -0.433 -0.844 0.317 76 33 20 0 0
0.9977 -2.0322 -14.6996 -0.417 -0.826 0.378 84 37 18 0 0
0.9865 -2.0552 -14.8055 -0.413 -0.898 0.153 61 19 5 0 0
0.6716 -2.5183 -15.7937 -0.244 -0.969 0.034 21 19 20 0 0
1.0591 -2.1689 -16.9860 -0.819 0.449 0.357 77 76 74 0 0
1.8213 -0.9180 -13.6947 0.211 -0.350 0.913 132 59 33 0 0
1.7986 -0.9457 -13.7040 0.257 -0.245 0.935 162 99 73 0 0
1.7696 -0.9802 -13.7051 0.257 -0.245 0.935 136 85 67 0 0
1.3910 -1.4363 -13.7840 -0.407 -0.247 0.880 136 48 21 0 0
1.2118 -1.6511 -13.8107 -0.349 -0.684 0.641 142 66 44 0 0
0.8046 -2.3004 -15.6585 0.082 -0.085 0.993 11 11 13 0 0
0.7227 -2.3895 -15.5697 -0.552 0.068 0.831 11 10 13 0 0
0.7052 -2.4116 -15.5846 -0.485 0.071 0.872 12 11 14 0 0
0.6118 -2.5360 -15.7359 -0.114 -0.892 0.437 22 20 20 0 0
0.6696 -2.4800 -15.8753 0.034 -0.989 -0.143 24 22 22 0 0
0.5114 -2.7576 -16.8755 -0.739 0.498 0.455 179 180 182 0 0
-3.1106 -7.0303 -16.6304 -0.926 -0.357 0.123 218 218 218 0 0
-3.1162 -7.0400 -16.6650 -0.926 -0.224 0.305 218 218 218 0 0
-3.1237 -7.0516 -16.6942 -0.916 -0.246 0.318 217 217 217 0 0
-3.1264 -7.0586 -16.7373 -0.932 -0.313 0.183 218 218 218 0 0
1.7922 -0.9044 -13.6887 0.274 -0.360 0.892 139 67 40 0 0
1.7674 -0.9344 -13.6953 0.291 -0.223 0.930 157 96 72 0 0
1.7369 -0.9706 -13.6944 0.291 -0.223 0.930 141 89 70 0 0
1.1859 -1.6353 -13.8079 -0.349 -0.684 0.641 150 72 51 0 0
0.9328 -2.0200 -14.7571 -0.497 -0.813 0.304 116 59 33 0 0
1.0504 -1.9636 -15.6985 -0.069 -0.323 0.944 8 8 10 0 0
0.7086 -2.3598 -15.5870 -0.485 0.071 0.872 19 19 21 0 0
0.6878 -2.3854 -15.5965 -0.485 0.071 0.872 21 21 23 0 0
0.6698 -2.4080 -15.6106 -0.644 -0.051 0.764 35 35 37 0 0
0.5895 -2.5149 -15.7399 -0.252 -0.618 0.745 25 24 22 0 0
0.5720 -2.5370 -15.7546 0.130 -0.567 0.813 26 25 23 0 0
-3.1230 -7.0066 -16.6547 -0.926 -0.357 0.123 211 211 211 0 0
-3.1260 -7.0139 -16.6967 -0.892 -0.399 0.211 207 207 207 0 0
-3.1323 -7.0243 -16.7294 -0.814 -0.467 0.346 214 214 214 0 0
-3.1385 -7.0346 -16.7626 -0.862 -0.447 0.240 217 217 217 0 0
-3.1693 -7.0680 -16.7255 -0.077 0.108 0.991 217 217 217 0 0
1.7468 -0.9117 -13.7002 0.262 -0.093 0.961 161 105 81 0 0
0.9077 -2.0024 -14.7559 -0.428 -0.847 0.315 90 45 30 0 0
0.9005 -2.0136 -14.7862 -0.465 -0.781 0.417 91 45 31 0 0
1.0228 -1.9470 -15.6949 -0.069 -0.323 0.944 8 8 10 0 0
0.6866 -2.3383 -15.5913 0.233 -0.280 0.931 20 20 22 0 0
0.6658 -2.3639 -15.6009 -0.361 -0.020 0.932 22 22 24 0 0
0.6462 -2.3883 -15.6123 -0.397 -0.272 0.877 31 31 33 0 0
0.6290 -2.4101 -15.6276 -0.276 -0.204 0.939 28 28 30 0 0
-3.1382 -6.9856 -16.6710 -0.957 -0.243 0.161 217 217 217 0 0
-3.1368 -6.9887 -16.7257 -0.895 -0.421 0.146 214 214 214 0 0
-3.1648 -7.0239 -16.7477 -0.906 0.117 0.406 217 217 217 0 0
1.6726 -0.9502 -13.6743 -0.162 -0.957 0.240 135 87 73 0 0
1.1420 -1.5951 -13.8131 -0.658 -0.702 0.272 136 59 38 0 0
0.9018 -1.9093 -14.1386 0.188 -0.746 0.639 106 31 6 0 0
0.8642 -2.0079 -14.7681 -0.152 -0.827 0.541 66 23 10 0 0
0.9560 -1.9795 -15.7161 0.198 -0.128 0.972 14 10 14 0 0
0.6487 -2.3336 -15.5699 0.379 -0.433 0.818 28 28 30 0 0
0.5138 -2.5090 -15.7400 -0.338 -0.078 0.938 37 36 34 0 0
0.4932 -2.5344 -15.7495 -0.338 -0.078 0.938 32 31 29 0 0
1.2758 -1.3872 -13.7968 -0.438 -0.340 0.833 135 48 20 0 0
0.8331 -1.9968 -14.7578 -0.104 -0.845 0.525 101 49 30 0 0
0.9482 -1.9383 -15.7002 0.067 -0.211 0.975 11 8 10 0 0
0.9198 -1.9721 -15.6987 0.156 -0.138 0.978 12 10 13 0 0
0.6009 -2.3430 -15.5756 0.045 -0.485 0.873 30 30 32 0 0
0.4599 -2.5249 -15.7351 0.231 -0.357 0.905 37 36 34 0 0
1.5854 -0.9615 -13.7012 -0.275 -0.237 0.932 126 55 34 0 0
1.5340 -1.0206 -13.6723 -0.030 -0.209 0.977 132 57 32 0 0
0.8128 -1.9742 -14.7638 -0.269 -0.824 0.498 110 55 33 0 0
0.8322 -1.9740 -15.0432 -0.478 -0.822 0.309 109 56 25 0 0
0.9194 -1.9232 -15.6943 -0.011 -0.085 0.996 10 8 9 0 0
0.8665 -1.9868 -15.6974 -0.106 -0.603 0.791 12 10 13 0 0
0.8506 -2.0073 -15.7156 0.009 -0.735 0.678 14 12 15 0 0
0.5835 -2.3167 -15.5876 -0.196 -0.521 0.831 29 29 31 0 0
0.5204 -2.3944 -15.6143 -0.077 -0.268 0.960 30 28 31 0 0
0.4411 -2.5002 -15.7447 0.181 -0.726 0.663 35 33 32 0 0
0.8119 -1.8688 -14.0330 -0.068 -0.454 0.888 110 29 1 0 0
0.8093 -1.8908 -14.2670 -0.309 -0.915 0.261 90 46 33 0 0
0.7802 -1.9615 -14.7100 -0.744 -0.653 0.142 104 58 32 0 0
0.8043 -1.9591 -15.0379 -0.598 -0.518 0.612 110 60 28 0 0
0.8133 -2.0014 -15.6959 0.005 -0.364 0.931 12 10 13 0 0
0.5077 -2.3596 -15.5906 -0.342 -0.596 0.726 29 29 31 0 0
0.4934 -2.3784 -15.6104 -0.555 -0.332 0.763 31 29 32 0 0
0.4059 -2.4928 -15.7270 0.181 -0.726 0.663 27 23 22 0 0
0.0363 -3.0271 -16.8500 0.261 -0.953 -0.154 198 199 201 0 0
1.8530 -0.5459 -13.7244 -0.340 -0.422 0.841 173 104 67 0 0
1.8418 -0.5613 -13.7490 -0.541 -0.528 0.655 143 78 52 0 0
1.1906 -1.3467 -13.7790 -0.607 -0.682 0.408 137 52 23 0 0
0.7822 -1.8573 -14.0243 0.014 -0.519 0.855 110 29 5 0 0
0.7574 -1.9482 -14.7948 -0.570 -0.819 0.058 73 27 16 0 0
0.7821 -1.9380 -15.0417 -0.598 -0.518 0.612 90 41 26 0 0
0.8469 -1.9021 -15.5716 -0.283 -0.951 0.124 5 3 4 0 0
0.8858 -1.8671 -15.7214 -0.062 -0.020 0.998 8 6 8 0 0
0.7981 -1.9683 -15.6682 -0.387 -0.797 0.463 8 6 9 0 0
0.7846 -1.9864 -15.6901 -0.105 -0.577 0.810 10 8 11 0 0
0.4629 -2.3626 -15.5572 -0.633 -0.742 0.221 29 29 31 0 0
0.4590 -2.3703 -15.5942 -0.633 -0.742 0.221 37 36 39 0 0
0.4358 -2.4055 -15.6868 -0.409 -0.576 0.708 28 26 28 0 0
2.1489 -0.1420 -13.7410 0.236 0.021 0.972 121 64 50 0 0
1.9900 -0.3300 -13.6972 0.031 -0.540 0.841 120 58 42 0 0
1.8285 -0.5268 -13.7248 -0.340 -0.422 0.841 153 82 54 0 0
1.8190 -0.5403 -13.7515 -0.492 -0.521 0.697 129 62 39 0 0
1.8060 -0.5577 -13.7737 -0.492 -0.521 0.697 124 57 34 0 0
1.2164 -1.2678 -13.7695 -0.526 -0.476 0.705 137 52 23 0 0
1.2170 -1.2702 -13.8091 -0.118 -0.603 0.789 137 51 23 0 0
1.1913 -1.3014 -13.8129 -0.222 -0.644 0.732 138 52 24 0 0
0.7614 -1.9153 -15.0477 -0.493 -0.767 0.412 82 36 21 0 0
0.4868 -2.2851 -15.5503 -0.361 0.283 0.889 25 25 27 0 0
0.3743 -2.4299 -15.6689 -0.157 -0.359 0.920 42 41 39 0 0
0.3573 -2.4516 -15.6842 -0.193 -0.297 0.935 26 25 23 0 0
2.1859 -0.0507 -13.7796 0.201 0.006 0.980 119 66 54 0 0
1.9780 -0.2938 -13.6746 -0.003 -0.584 0.812 123 60 44 0 0
1.9583 -0.3186 -13.6887 0.031 -0.540 0.841 121 59 43 0 0
1.8448 -0.4565 -13.6997 -0.262 -0.289 0.921 120 55 33 0 0
1.8045 -0.5071 -13.7258 -0.395 -0.357 0.847 143 76 52 0 0
1.7954 -0.5202 -13.7530 -0.492 -0.521 0.697 117 51 31 0 0
0.3541 -2.4067 -15.6763 -0.677 -0.352 0.646 37 36 34 0 0
0.3356 -2.4299 -15.6891 -0.348 -0.018 0.937 21 20 18 0 0
2.0875 -0.1131 -13.6881 -0.114 0.100 0.988 123 69 59 0 0
2.1053 -0.0962 -13.7494 0.132 0.084 0.988 121 63 51 0 0
1.9116 -0.3239 -13.6610 -0.422 -0.737 0.528 121 59 43 0 0
1.7794 -0.4886 -13.7254 -0.340 -0.422 0.841 160 98 68 0 0
1.4006 -0.9418 -13.6563 -0.346 -0.301 0.889 124 54 34 0 0
0.7724 -1.7241 -13.9558 -0.113 -0.498 0.860 115 28 5 0 0
0.6914 -1.8280 -14.0352 -0.425 -0.547 0.721 105 26 1 0 0
0.7053 -1.8275 -14.2547 -0.194 -0.852 0.486 91 45 30 0 0
0.7034 -1.8879 -15.0338 -0.464 -0.873 0.152 112 61 42 0 0
0.7004 -1.8943 -15.0714 -0.586 -0.532 0.611 102 49 31 0 0
0.6891 -1.9099 -15.0959 -0.586 -0.532 0.611 78 31 14 0 0
0.3234 -2.3980 -15.7101 -0.645 -0.163 0.746 18 17 15 0 0
0.3096 -2.4163 -15.7308 -0.722 -0.010 0.692 22 19 18 0 0
1.8849 -0.3070 -13.6587 -0.422 -0.737 0.528 120 58 45 0 0
1.7602 -0.4636 -13.7326 -0.410 -0.617 0.671 173 112 79 0 0
0.7854 -1.6597 -13.9301 -0.845 -0.532 -0.050 156 86 64 0 0
0.7424 -1.7130 -13.9467 -0.555 -0.223 0.802 119 35 10 0 0
0.6709 -1.8812 -15.0636 -0.217 -0.888 0.406 92 42 26 0 0
0.3099 -2.3641 -15.6848 -0.534 -0.460 0.709 24 23 21 0 0
0.3029 -2.3750 -15.7171 -0.685 -0.473 0.555 20 19 17 0 0
0.2795 -2.4036 -15.7216 -0.876 -0.251 0.412 21 19 17 0 0
1.8646 -0.2830 -13.6646 -0.729 -0.328 0.600 120 56 44 0 0
1.7845 -0.3813 -13.6789 -0.060 -0.481 0.875 164 92 46 0 0
1.7167 -0.4685 -13.7474 -0.113 -0.724 0.681 124 58 38 0 0
1.4954 -0.7361 -13.7304 0.149 -0.372 0.916 127 77 62 0 0
1.0081 -1.3309 -13.7704 -0.343 -0.099 0.934 124 43 19 0 0
0.6923 -1.7300 -13.9872 -0.339 -0.695 0.634 104 22 3 0 0
0.6508 -1.7930 -14.1647 -0.707 -0.583 0.401 112 47 22 0 0
0.2847 -2.3462 -15.6839 -0.656 -0.255 0.710 21 20 18 0 0
0.2461 -2.3946 -15.7066 -0.780 -0.509 0.365 21 20 18 0 0
1.8355 -0.2716 -13.6981 -0.417 -0.222 0.882 113 53 40 0 0
1.8171 -0.2950 -13.7137 -0.453 -0.244 0.858 120 62 44 0 0
1.7014 -0.4363 -13.7206 -0.134 -0.650 0.748 120 57 33 0 0
1.6865 -0.4558 -13.7403 -0.118 -0.672 0.731 117 53 34 0 0
1.3860 -0.8130 -13.6176 0.433 -0.358 0.827 135 85 71 0 0
0.6397 -1.7552 -14.1037 -0.646 -0.671 0.364 113 31 2 0 0
0.6264 -1.7756 -14.1638 -0.677 -0.686 0.266 111 46 19 0 0
0.6217 -1.7837 -14.1968 -0.677 -0.686 0.266 101 45 29 0 0
0.6233 -1.7847 -14.2393 -0.602 -0.796 0.068 82 36 24 0 0
0.6285 -1.8336 -15.0319 -0.784 -0.615 -0.085 65 19 10 0 0
0.6309 -1.8340 -15.0780 -0.478 -0.732 0.485 55 14 8 0 0
0.6053 -1.8653 -15.0800 0.145 -0.892 0.429 46 13 9 0 0
0.6611 -1.8307 -15.5582 -0.806 -0.390 0.445 7 5 8 0 0
0.2375 -2.3617 -15.7785 0.035 -0.660 0.750 23 22 20 0 0
1.7952 -0.2727 -13.7175 -0.475 -0.148 0.867 105 49 33 0 0
1.3446 -0.8191 -13.6725 -0.559 -0.074 0.826 128 52 35 0 0
1.0163 -1.2236 -13.7313 -0.217 -0.511 0.832 123 44 20 0 0
0.6012 -1.7592 -14.1617 -0.654 -0.738 0.168 111 46 17 0 0
0.5977 -1.7658 -14.1966 -0.677 -0.735 0.050 102 46 29 0 0
0.5643 -1.8364 -14.6348 -0.281 -0.850 0.446 97 51 35 0 0
0.6136 -1.8074 -15.0895 -0.666 -0.594 0.451 57 17 8 0 0
0.5942 -1.8318 -15.1014 0.041 -0.548 0.836 49 14 8 0 0
0.2312 -2.3167 -15.7211 -0.427 -0.434 0.793 20 19 17 0 0
1.7805 -0.2422 -13.7307 -0.166 -0.060 0.984 106 49 33 0 0
1.7108 -0.3291 -13.7582 -0.415 -0.039 0.909 105 50 38 0 0
1.2710 -0.8642 -13.7232 -0.308 -0.185 0.933 124 51 36 0 0
0.7692 -1.4805 -13.7688 0.350 -0.058 0.935 151 92 77 0 0
0.5863 -1.7257 -14.0951 -0.432 -0.569 0.699 115 34 5 0 0
0.5774 -1.7384 -14.1218 -0.341 -0.698 0.630 110 32 2 0 0
0.5687 -1.7562 -14.2292 -0.464 -0.885 0.041 84 37 28 0 0
0.6061 -1.8073 -15.6825 -0.961 -0.210 0.180 12 12 14 0 0
0.0252 -2.5933 -16.8261 -0.866 -0.450 0.219 186 187 189 0 0
0.0227 -2.5993 -16.8694 -0.826 -0.556 -0.094 188 189 191 0 0
1.6912 -0.3042 -13.7650 -0.382 -0.021 0.924 114 51 38 0 0
1.0015 -1.1470 -13.7385 -0.156 -0.266 0.951 130 48 23 0 0
0.9812 -1.1726 -13.7493 -0.035 -0.293 0.955 131 49 24 0 0
0.5416 -1.7418 -14.2243 -0.464 -0.885 0.041 95 46 35 0 0
0.5200 -1.7926 -14.5997 -0.539 -0.829 0.149 93 44 31 0 0
0.2208 -2.2219 -15.5660 0.084 -0.270 0.959 38 38 40 0 0
0.1775 -2.2758 -15.5805 -0.428 -0.737 0.524 25 24 27 0 0
0.1735 -2.2860 -15.6622 -0.278 -0.725 0.630 17 15 18 0 0
0.8556 -1.2824 -13.8025 -0.252 -0.413 0.875 151 67 37 0 0
0.5000 -1.7671 -14.5648 -0.795 -0.593 0.129 97 45 33 0 0
0.5337 -1.7971 -15.6903 -0.552 -0.647 0.526 12 12 14 0 0
0.4899 -1.7052 -14.1377 -0.407 -0.644 0.648 111 55 22 0 0
0.5240 -1.7257 -15.1466 0.038 -0.982 0.186 57 17 10 0 0
0.4920 -1.7645 -15.1383 -0.478 -0.863 0.166 52 15 10 0 0
0.5182 -1.7619 -15.6173 -0.353 -0.909 0.223 8 8 10 0 0
0.5156 -1.7676 -15.6574 -0.146 -0.939 0.312 10 10 12 0 0
0.1355 -2.2282 -15.5483 -0.337 -0.577 0.744 30 30 31 0 0
0.1239 -2.2439 -15.5727 -0.333 -0.696 0.636 29 29 30 0 0
-0.0086 -2.4628 -16.4770 0.498 0.017 0.867 138 139 137 0 0
0.5913 -1.4748 -13.9594 -0.222 -0.439 0.871 134 91 76 0 0
0.4307 -1.7563 -15.3792 -0.173 -0.799 0.576 1 2 3 0 0
0.4123 -1.7823 -15.4366 -0.549 -0.451 0.704 3 3 5 0 0
0.0782 -2.2136 -15.7572 0.060 -0.702 0.709 39 38 43 0 0
0.7085 -1.2781 -13.8871 -0.466 -0.570 0.677 117 80 59 0 0
0.5690 -1.4550 -13.9617 -0.549 -0.528 0.648 118 77 53 0 0
0.3997 -1.7127 -14.8101 -0.349 -0.918 0.188 73 39 23 0 0
0.4004 -1.7143 -14.8535 -0.181 -0.970 0.163 68 36 20 0 0
0.3882 -1.7678 -15.5260 -0.418 -0.821 0.390 5 5 7 0 0
0.3910 -1.7747 -15.7088 0.206 -0.955 0.212 11 11 13 0 0
0.0650 -2.1794 -15.7324 -0.218 -0.738 0.639 21 21 23 0 0
0.0603 -2.1873 -15.7691 -0.588 -0.348 0.730 37 36 40 0 0
1.2778 -0.5159 -13.7282 -0.141 -0.200 0.970 141 85 61 0 0
0.3652 -1.7061 -14.7938 -0.303 -0.936 0.180 63 34 25 0 0
0.3644 -1.7093 -14.8349 -0.209 -0.949 0.238 53 26 15 0 0
0.3719 -1.7318 -15.4079 -0.679 -0.610 0.410 3 1 6 0 0
0.3913 -1.7120 -15.4842 -0.775 -0.574 0.265 3 3 5 0 0
0.3657 -1.7487 -15.5745 -0.191 -0.648 0.737 5 5 7 0 0
0.0295 -2.1682 -15.6238 -0.663 -0.698 0.271 60 60 62 0 0
0.0182 -2.1885 -15.7387 0.008 -0.609 0.793 35 35 35 0 0
0.0155 -2.1941 -15.7790 -0.380 -0.683 0.623 42 41 40 0 0
-0.0014 -2.2159 -15.7943 0.179 -0.211 0.961 27 26 25 0 0
1.5416 -0.1408 -13.7580 0.029 -0.138 0.990 142 74 41 0 0
0.3317 -1.7006 -14.8215 -0.217 -0.955 0.200 45 31 22 0 0
0.3277 -1.7076 -14.8574 -0.171 -0.976 0.138 70 51 41 0 0
0.3710 -1.6878 -15.4920 -0.775 -0.539 0.329 3 3 5 0 0
0.3295 -1.7452 -15.6001 -0.414 -0.827 0.381 6 6 8 0 0
0.0053 -2.1492 -15.6246 -0.528 -0.794 0.300 66 66 68 0 0
0.0118 -2.1465 -15.7258 -0.199 -0.924 0.328 28 28 29 0 0
-0.0098 -2.1737 -15.7328 -0.086 -0.556 0.827 37 37 37 0 0
-0.0150 -2.1821 -15.7688 0.191 -0.882 0.431 30 30 29 0 0
0.0174 -2.1875 -16.6166 -0.906 -0.015 0.424 112 112 112 0 0
1.2213 -0.4873 -13.7181 0.070 -0.384 0.921 125 51 35 0 0
0.3412 -1.6083 -14.2099 -0.639 -0.408 0.652 113 51 34 0 0
0.2984 -1.6905 -14.7647 -0.076 -0.967 0.243 40 37 37 0 0
0.3011 -1.6895 -14.8114 -0.209 -0.949 0.238 39 35 36 0 0
0.2941 -1.6998 -14.8426 -0.129 -0.985 0.115 31 24 24 0 0
-0.0123 -2.1249 -15.6818 -0.204 -0.867 0.455 15 15 17 0 0
-0.0381 -2.1594 -15.7264 -0.063 -0.669 0.741 35 35 35 0 0
-0.0525 -2.1783 -15.7461 0.133 -0.902 0.410 26 25 24 0 0
0.6619 -1.1358 -13.7203 0.086 -0.428 0.899 140 53 19 0 0
0.2724 -1.6468 -14.2221 -0.191 -0.898 0.396 90 42 32 0 0
0.2713 -1.6776 -14.8025 -0.079 -0.956 0.283 40 37 38 0 0
0.2640 -1.6882 -14.8333 0.013 -0.954 0.300 39 37 40 0 0
0.2600 -1.6950 -14.8694 -0.071 -0.970 0.233 36 36 37 0 0
0.3269 -1.6435 -15.5016 -0.634 -0.661 0.401 4 4 6 0 0
0.3195 -1.6544 -15.5337 -0.926 -0.072 0.370 5 5 7 0 0
0.2734 -1.7148 -15.5896 -0.034 -0.559 0.829 8 8 10 0 0
0.2419 -1.6631 -14.7520 -0.456 -0.879 0.137 42 35 35 0 0
0.2487 -1.6572 -14.8053 -0.599 -0.789 0.137 41 37 38 0 0
0.2491 -1.6588 -14.8486 -0.717 -0.694 0.066 39 36 41 0 0
0.3033 -1.6253 -15.5484 -0.884 -0.294 0.364 6 6 8 0 0
0.2408 -1.5977 -14.3704 -0.679 -0.728 0.094 121 61 36 0 0
0.2231 -1.6264 -14.5085 -0.386 -0.792 0.473 119 63 47 0 0
0.2244 -1.6309 -14.6361 -0.688 -0.645 0.334 107 49 36 0 0
0.2182 -1.6442 -14.7528 -0.709 -0.705 0.015 44 33 30 0 0
0.2187 -1.6456 -14.7961 -0.709 -0.705 0.015 41 37 36 0 0
0.2734 -1.6101 -15.4955 -0.299 -0.913 0.278 4 4 6 0 0
0.2258 -1.6743 -15.5937 -0.780 -0.340 0.525 12 12 14 0 0
0.2143 -1.6899 -15.6189 -0.669 -0.359 0.650 13 13 15 0 0
0.1967 -1.7127 -15.6337 -0.369 -0.150 0.917 13 13 15 0 0
0.0618 -1.8812 -15.6260 -0.492 0.176 0.853 8 8 10 0 0
-0.0302 -1.9952 -15.6003 -0.143 -0.258 0.955 9 9 11 0 0
-0.0923 -2.0700 -15.5362 0.097 -0.405 0.909 34 34 36 0 0
-0.0681 -2.0438 -15.6236 -0.125 -0.465 0.877 30 30 32 0 0
-0.0940 -2.0869 -15.8496 -0.248 -0.968 0.035 27 26 24 0 0
-0.1446 -2.1481 -15.8044 0.392 -0.472 0.789 32 30 28 0 0
-0.0899 -2.1220 -16.7025 -0.517 0.408 0.752 128 129 131 0 0
-0.1198 -2.1591 -16.6943 -0.320 0.436 0.841 135 136 138 0 0
0.2190 -1.6342 -15.6245 -0.597 -0.224 0.770 15 15 17 0 0
-0.0582 -1.9805 -15.5945 0.001 -0.486 0.874 9 9 11 0 0
-0.1291 -2.1211 -16.7249 -0.307 0.370 0.877 135 136 138 0 0
1.5716 0.2021 -13.6774 -0.524 -0.161 0.836 121 55 40 0 0
1.5506 0.1752 -13.6896 -0.324 -0.204 0.924 120 54 39 0 0
0.6534 -0.9561 -13.7668 -0.115 -0.688 0.717 132 50 26 0 0
0.1753 -1.5989 -14.7196 -0.076 -0.827 0.556 113 60 42 0 0
0.1863 -1.6029 -15.1244 -0.093 -0.810 0.578 15 15 17 0 0
0.2594 -1.5340 -15.6462 -0.928 0.170 0.332 9 9 11 0 0
-0.0869 -1.9668 -15.5872 -0.041 -0.422 0.906 10 10 12 0 0
1.4380 0.0856 -13.6536 -0.206 -0.224 0.952 114 49 33 0 0
0.8283 -0.6858 -13.7329 -0.080 -0.276 0.958 149 87 57 0 0
0.1490 -1.5814 -14.6737 0.075 -0.987 0.145 110 52 37 0 0
0.1242 -1.6345 -15.1929 -0.548 -0.797 0.252 5 5 7 0 0
1.4330 0.1303 -13.6402 -0.256 -0.626 0.737 119 54 35 0 0
0.8018 -0.6701 -13.7297 -0.067 -0.174 0.982 146 83 53 0 0
0.6384 -0.8765 -13.7350 0.140 -0.560 0.817 130 49 23 0 0
0.4129 -1.1623 -13.7641 -0.105 -0.827 0.553 137 54 30 0 0
0.1124 -1.5494 -13.9511 -0.184 -0.419 0.889 92 22 8 0 0
0.1086 -1.6034 -15.1643 -0.733 -0.559 0.387 5 5 7 0 0
0.1674 -1.5405 -15.4402 0.066 -0.056 0.996 3 3 5 0 0
-0.2478 -2.1135 -16.6443 -0.364 -0.253 0.896 134 135 137 0 0
1.3990 0.1383 -13.6282 -0.315 -0.598 0.737 121 55 37 0 0
0.5929 -0.8859 -13.7437 -0.166 -0.671 0.722 132 51 25 0 0
0.0790 -1.5910 -15.1557 -0.641 -0.520 0.565 5 5 7 0 0
0.0682 -1.6056 -15.1815 -0.641 -0.520 0.565 5 5 7 0 0
0.1159 -1.5554 -15.4396 -0.332 -0.937 0.107 3 3 5 0 0
-0.3124 -2.1063 -15.6782 0.130 0.123 0.984 47 45 48 0 0
0.0478 -1.6969 -16.8622 -0.834 0.173 0.525 86 84 82 0 0
1.4938 0.3120 -13.5481 0.131 -0.034 0.991 119 60 44 0 0
0.5788 -0.8541 -13.7183 -0.611 -0.569 0.551 132 50 26 0 0
0.5706 -0.8655 -13.7462 -0.477 -0.611 0.631 133 51 27 0 0
0.5592 -0.8808 -13.7696 -0.477 -0.611 0.631 135 55 30 0 0
0.0569 -1.5693 -15.1600 -0.508 -0.615 0.603 4 4 6 0 0
0.0457 -1.5845 -15.1850 -0.508 -0.615 0.603 5 5 7 0 0
-0.0588 -1.7758 -16.7595 0.051 0.276 0.960 91 90 90 0 0
1.5283 0.4038 -13.6261 -0.359 0.479 0.801 120 59 44 0 0
1.4568 0.3150 -13.5720 0.056 -0.155 0.986 122 59 44 0 0
0.5581 -0.8318 -13.7231 -0.210 -0.461 0.862 133 51 27 0 0
0.0707 -1.4694 -14.2422 -0.483 -0.387 0.785 91 36 24 0 0
0.0424 -1.5067 -14.2799 -0.277 -0.870 0.409 105 56 40 0 0
0.0509 -1.5098 -14.6717 -0.037 -0.812 0.582 104 49 38 0 0
-0.3071 -1.9957 -15.5495 -0.252 -0.757 0.603 30 30 32 0 0
-0.4263 -2.1827 -16.5436 0.109 -0.957 0.271 147 148 150 0 0
-0.4444 -2.2061 -16.5569 0.194 -0.932 0.306 152 153 155 0 0
0.8722 -0.3834 -13.7272 0.090 -0.382 0.920 123 61 33 0 0
0.8060 -0.4685 -13.7538 -0.134 -0.458 0.879 141 90 70 0 0
0.0490 -1.4487 -14.2456 -0.371 -0.040 0.928 94 39 29 0 0
0.0114 -1.4986 -14.3102 -0.263 -0.649 0.714 109 53 34 0 0
0.0241 -1.4846 -14.3722 -0.373 -0.924 0.081 106 51 31 0 0
0.0140 -1.5055 -14.6084 -0.255 -0.738 0.625 108 51 38 0 0
0.0226 -1.4965 -14.6649 0.127 -0.870 0.475 104 49 38 0 0
-0.3290 -1.9742 -15.5541 -0.573 -0.734 0.363 27 27 29 0 0
-0.3425 -2.0256 -16.5603 0.599 -0.014 0.801 122 122 122 0 0
1.8166 0.8648 -13.9082 -0.585 0.165 0.794 121 82 79 0 0
-0.0291 -1.4787 -13.5938 -0.507 0.397 0.765 165 105 83 0 0
0.0311 -1.4233 -14.2552 -0.137 0.128 0.982 98 45 32 0 0
0.0047 -1.4569 -14.2545 -0.137 0.128 0.982 78 26 11 0 0
-0.0099 -1.4762 -14.2727 -0.258 -0.796 0.548 103 53 38 0 0
-0.0133 -1.4912 -14.6031 -0.447 -0.684 0.577 103 48 36 0 0
-0.3883 -2.0070 -15.7650 -0.304 -0.574 0.760 54 52 51 0 0
-0.3488 -1.9604 -15.8841 -0.647 -0.716 0.262 56 52 51 0 0
-0.4271 -2.0800 -16.4944 0.288 0.312 0.905 129 129 128 0 0
-0.4520 -2.1228 -16.8373 -0.919 0.293 0.263 169 170 172 0 0
1.8041 0.9009 -13.9255 -0.775 0.030 0.631 120 78 71 0 0
0.3804 -0.9122 -13.7280 -0.258 -0.195 0.946 135 51 24 0 0
-0.0368 -1.4419 -13.6177 -0.496 0.387 0.777 166 101 76 0 0
0.0091 -1.4093 -14.4674 0.161 -0.637 0.754 104 47 27 0 0
-0.0450 -1.4822 -14.5907 -0.171 -0.808 0.564 105 50 38 0 0
-0.2034 -1.7141 -15.5497 -0.238 0.249 0.939 11 11 13 0 0
-0.4141 -1.9898 -15.7629 -0.327 -0.546 0.771 54 51 50 0 0
-0.2597 -1.8218 -16.7199 0.591 0.351 0.726 112 111 109 0 0
-0.4453 -2.0511 -16.4595 0.461 0.079 0.884 123 123 121 0 0
1.7828 0.9275 -13.8906 -0.860 -0.414 0.298 125 95 91 0 0
0.3563 -0.8943 -13.7276 -0.222 -0.488 0.844 128 47 24 0 0
-0.0867 -1.4584 -13.6164 -0.479 -0.626 0.616 139 60 34 0 0
-0.0742 -1.4702 -14.5824 -0.171 -0.808 0.564 105 48 37 0 0
-0.0850 -1.4849 -14.6071 -0.313 -0.897 0.311 103 49 36 0 0
-0.0412 -1.4564 -15.5617 -0.341 -0.275 0.899 2 2 4 0 0
-0.1576 -1.6074 -15.6298 -0.122 -0.118 0.985 8 6 9 0 0
-0.5075 -2.0774 -16.3879 0.481 0.317 0.818 124 123 121 0 0
-0.4535 -2.0241 -16.9356 0.154 -0.104 0.983 168 169 171 0 0
-0.4769 -2.0542 -16.9389 -0.564 -0.621 0.543 173 174 176 0 0
-2.5211 -4.6642 -16.6804 -0.744 0.538 0.396 214 214 214 0 0
0.3206 -0.8909 -13.7101 0.268 -0.754 0.600 122 46 27 0 0
-0.1052 -1.4526 -14.2760 -0.382 -0.919 0.103 107 55 35 0 0
-0.1247 -1.4847 -14.5388 0.338 -0.633 0.697 102 45 34 0 0
-0.5103 -2.0312 -16.4311 0.570 0.190 0.799 126 126 124 0 0
-2.5015 -4.5943 -16.7378 -0.693 0.557 0.459 214 214 214 0 0
0.7814 -0.2481 -13.6514 0.053 -0.354 0.934 126 57 37 0 0
0.5004 -0.6093 -13.6492 -0.089 -0.253 0.963 118 55 38 0 0
0.2865 -0.8855 -13.6948 0.117 -0.374 0.920 108 40 24 0 0
-0.1342 -1.4243 -13.6150 0.186 -0.054 0.981 127 61 38 0 0
-0.1635 -1.4619 -13.6093 -0.528 -0.146 0.837 129 67 49 0 0
-0.1475 -1.4640 -14.4983 0.592 -0.552 0.588 119 55 40 0 0
-0.4084 -1.8540 -16.6297 0.566 0.360 0.742 123 122 120 0 0
-0.5079 -1.9782 -16.4849 0.583 0.312 0.750 129 128 126 0 0
-0.5995 -2.1040 -16.7955 -0.391 0.575 0.719 171 172 175 0 0
-0.6403 -2.1556 -16.7632 -0.417 0.428 0.802 177 177 179 0 0
1.5118 0.7423 -13.6766 -0.157 0.127 0.979 107 64 55 0 0
0.2632 -0.8668 -13.6957 -0.028 -0.572 0.820 107 41 24 0 0
-0.1094 -1.3642 -14.4311 -0.678 -0.681 0.276 103 50 33 0 0
-0.4681 -1.8535 -15.5687 0.031 -0.303 0.952 14 12 13 0 0
-0.5932 -2.0456 -16.8592 -0.495 0.549 0.674 172 173 175 0 0
1.5009 0.7800 -13.6958 0.020 -0.150 0.989 107 61 50 0 0
1.4739 0.7451 -13.7006 0.020 -0.150 0.989 106 57 47 0 0
1.4252 0.6827 -13.6764 -0.300 0.054 0.952 108 56 43 0 0
1.3996 0.6494 -13.6826 -0.300 0.054 0.952 110 55 42 0 0
0.9022 0.0082 -13.6492 -0.007 -0.487 0.873 112 52 34 0 0
-0.1654 -1.4126 -15.5643 -0.851 -0.471 0.233 6 3 6 0 0
-0.3545 -1.6593 -15.6838 -0.323 0.318 0.891 11 9 10 0 0
-0.4810 -1.8205 -15.5901 -0.546 -0.356 0.758 14 12 13 0 0
-0.5133 -1.8630 -15.6224 -0.718 -0.298 0.629 15 13 15 0 0
-0.5142 -1.8651 -15.6669 -0.736 -0.056 0.675 32 30 33 0 0
-0.1659 -1.4396 -16.7521 -0.429 0.342 0.836 98 98 100 0 0
-0.2648 -1.5663 -16.7111 0.380 0.242 0.893 105 105 105 0 0
-0.5531 -1.9414 -16.8410 -0.236 -0.245 0.940 162 163 166 0 0
-0.5488 -1.9372 -16.8997 -0.020 0.149 0.989 165 166 165 0 0
-0.6007 -2.0041 -16.8956 -0.098 -0.237 0.966 172 173 176 0 0
-0.6372 -2.0507 -16.8719 0.548 -0.068 0.834 177 177 179 0 0
1.3812 0.6775 -13.6919 -0.144 0.006 0.990 125 62 43 0 0
1.3557 0.6443 -13.6982 -0.196 0.044 0.980 128 65 43 0 0
0.8572 0.0003 -13.6608 -0.127 -0.615 0.778 123 54 36 0 0
0.0723 -1.0162 -13.7207 0.159 -0.315 0.936 108 41 22 0 0
0.0254 -1.0771 -13.7295 0.185 -0.304 0.935 104 37 19 0 0
-0.2548 -1.4430 -13.8983 -0.664 -0.656 0.359 89 19 4 0 0
-0.2425 -1.4352 -14.2910 -0.904 -0.378 0.201 107 53 36 0 0
-0.2176 -1.4055 -14.4165 -0.175 -0.690 0.702 126 66 43 0 0
-0.5323 -1.8385 -15.6790 -0.752 -0.303 0.585 31 29 32 0 0
-0.4321 -1.7264 -16.5360 -0.632 0.482 0.606 112 112 112 0 0
-0.5480 -1.8828 -16.8524 0.125 -0.716 0.687 160 161 163 0 0
-0.5800 -1.9239 -16.8383 -0.180 -0.320 0.930 163 163 166 0 0
-0.6035 -1.9544 -16.8410 0.009 -0.113 0.994 165 166 165 0 0
-0.6751 -2.0471 -16.8467 0.548 -0.068 0.834 177 178 180 0 0
1.3583 0.6998 -13.6951 -0.068 -0.083 0.994 143 81 47 0 0
1.3340 0.6682 -13.7030 -0.085 -0.044 0.995 146 84 50 0 0
0.8472 0.0384 -13.6412 -0.183 -0.640 0.747 139 74 47 0 0
0.8297 0.0154 -13.6568 -0.211 -0.525 0.825 136 68 40 0 0
-0.1122 -1.2066 -13.7143 -0.442 -0.499 0.745 99 39 25 0 0
-0.2430 -1.3869 -14.2874 -0.711 -0.702 -0.047 106 55 40 0 0
-0.2204 -1.3638 -14.6227 -0.205 -0.600 0.773 102 46 35 0 0
-0.1796 -1.3205 -15.1298 0.449 -0.163 0.879 9 9 12 0 0
-0.2228 -1.3760 -15.0996 -0.373 -0.855 0.359 9 9 12 0 0
-0.2374 -1.3952 -15.1188 -0.689 -0.718 0.097 9 5 6 0 0
-0.4269 -1.6695 -16.6450 -0.634 0.420 0.649 117 117 116 0 0
-0.5802 -1.8719 -16.8391 0.102 -0.655 0.749 161 162 164 0 0
-0.5968 -1.8937 -16.8559 0.102 -0.655 0.749 163 163 167 0 0
1.5558 1.0077 -13.7476 -0.029 0.075 0.997 141 77 49 0 0
0.8182 0.0515 -13.6350 -0.308 -0.497 0.812 75 39 22 0 0
0.8026 0.0310 -13.6534 -0.308 -0.497 0.812 97 58 39 0 0
-0.2787 -1.3769 -13.8536 -0.275 -0.261 0.925 110 31 4 0 0
-0.2864 -1.3874 -13.8821 -0.381 -0.507 0.773 92 19 4 0 0
-0.2616 -1.3681 -14.6369 -0.205 -0.600 0.773 122 64 47 0 0
-0.2413 -1.3491 -15.0655 -0.207 -0.861 0.464 9 8 12 0 0
-0.2508 -1.3619 -15.0936 -0.306 -0.839 0.449 17 4 4 0 0
-0.6291 -1.8831 -16.8422 0.418 -0.415 0.808 165 165 168 0 0
1.5791 1.0925 -13.6492 -0.292 -0.020 0.956 211 208 212 0 0
0.8054 0.0855 -13.6518 -0.644 -0.053 0.763 32 20 17 0 0
0.7882 0.0628 -13.6679 -0.644 -0.053 0.763 34 22 19 0 0
0.5934 -0.1902 -13.6324 0.332 -0.261 0.907 52 29 21 0 0
0.4399 -0.3902 -13.6517 0.375 -0.467 0.801 62 35 20 0 0
0.0277 -0.9279 -13.7209 -0.557 -0.030 0.830 65 42 21 0 0
-0.0485 -1.0265 -13.6844 0.041 0.079 0.996 141 86 57 0 0
-0.2686 -1.3241 -14.4086 0.038 -0.620 0.784 106 44 29 0 0
-0.1919 -1.2462 -15.8355 -0.526 -0.397 0.752 38 33 35 0 0
-0.2223 -1.2863 -15.8742 -0.595 -0.354 0.722 129 50 34 0 0
-0.4851 -1.6252 -15.6723 0.288 -0.298 0.910 25 24 29 0 0
0.7851 0.1098 -13.6579 -0.677 -0.043 0.735 9 5 4 0 0
0.0108 -0.9011 -13.7314 -0.485 -0.070 0.871 14 5 2 0 0
-0.0718 -1.0082 -13.6849 0.041 0.079 0.996 93 61 46 0 0
-0.2956 -1.3024 -13.8609 -0.501 -0.389 0.773 113 34 3 0 0
-0.3694 -1.4256 -15.8388 0.001 0.202 0.979 29 28 30 0 0
-0.5926 -1.7168 -15.8448 -0.320 -0.850 0.419 38 34 32 0 0
0.7260 0.0841 -13.6091 -0.001 -0.669 0.744 8 5 4 0 0
-0.3169 -1.2819 -13.8644 -0.501 -0.389 0.773 110 34 1 0 0
-0.3145 -1.2798 -13.9506 -0.457 -0.825 0.333 89 18 5 0 0
-0.2930 -1.2746 -15.8844 -0.558 -0.299 0.775 111 44 36 0 0
-0.3405 -1.2643 -13.8642 -0.512 -0.469 0.720 109 33 6 0 0
-0.3534 -1.2813 -13.8845 -0.512 -0.469 0.720 102 25 5 0 0
-0.3819 -1.3241 -14.4244 -0.461 -0.826 0.326 132 60 44 0 0
-0.3687 -1.3080 -14.5325 -0.229 -0.947 0.224 121 53 42 0 0
-0.4428 -1.4188 -15.8899 -0.802 0.351 0.483 28 28 30 0 0
-0.3570 -1.2367 -13.7935 -0.368 -0.832 0.414 102 35 11 0 0
-0.4284 -1.3487 -15.9638 -0.008 -0.516 0.857 29 29 31 0 0
-0.4495 -1.2695 -15.4552 -0.498 -0.862 -0.094 108 60 41 0 0
1.4818 1.3397 -13.0735 -0.092 -0.870 0.485 211 211 213 0 0
-0.4461 -1.2082 -13.7630 -0.142 -0.953 0.267 110 54 27 0 0
-0.4614 -1.2300 -14.2808 -0.730 -0.672 0.124 83 43 28 0 0
-0.4703 -1.2440 -14.9628 -0.359 -0.919 0.163 78 32 25 0 0
-0.4769 -1.2542 -15.4504 -0.498 -0.862 -0.094 78 40 30 0 0
0.1353 -0.3890 -12.9725 0.281 -0.171 0.944 109 70 64 0 0
0.1050 -0.4291 -12.9677 0.393 -0.241 0.888 107 69 61 0 0
0.0420 -0.5125 -12.9541 0.225 0.105 0.969 103 55 47 0 0
-0.3721 -1.0609 -13.2725 0.154 -0.743 0.652 109 48 28 0 0
-0.4944 -1.2250 -14.9188 -0.452 -0.881 0.143 110 47 33 0 0
-0.4473 -1.1636 -15.5034 -0.842 -0.536 0.063 113 63 48 0 0
1.5183 1.4936 -12.9863 -0.096 -0.357 0.929 213 214 214 0 0
1.3340 1.2492 -13.0282 -0.531 -0.321 0.784 114 79 73 0 0
-0.4548 -1.1216 -15.4889 -0.908 -0.401 0.120 108 62 46 0 0
0.5595 0.2723 -12.8190 0.529 -0.536 0.658 119 53 41 0 0
0.5433 0.2508 -12.8355 0.308 -0.634 0.709 118 53 40 0 0
0.5250 0.2265 -12.8492 0.308 -0.634 0.709 119 52 40 0 0
0.0303 -0.4305 -12.9662 -0.530 -0.655 0.539 119 53 37 0 0
0.0119 -0.4549 -12.9782 -0.279 -0.747 0.603 117 53 36 0 0
-0.4784 -1.1055 -13.3375 -0.461 -0.487 0.741 76 16 5 0 0
-0.4843 -1.1133 -13.3681 -0.817 -0.467 0.339 80 19 7 0 0
-0.5633 -1.2141 -15.3361 -0.202 -0.979 0.036 118 65 49 0 0
1.5369 1.6245 -12.9944 0.043 0.209 0.977 213 213 216 0 0
1.4984 1.5731 -12.9855 0.130 -0.082 0.988 213 213 217 0 0
0.9417 0.8315 -12.8583 0.628 -0.389 0.674 114 50 39 0 0
0.2922 -0.0331 -12.9080 0.044 -0.107 0.993 119 48 36 0 0
0.2050 -0.1492 -12.9013 0.138 -0.050 0.989 118 49 33 0 0
0.1521 -0.2196 -12.9035 0.274 -0.550 0.789 119 50 33 0 0
-0.0085 -0.4333 -12.9437 -0.252 -0.797 0.548 121 53 35 0 0
-0.5476 -1.1481 -13.7089 -0.332 -0.670 0.664 93 44 28 0 0
-0.5595 -1.1638 -13.7306 -0.332 -0.670 0.664 93 42 28 0 0
-0.5629 -1.1682 -13.7662 -0.237 -0.821 0.520 96 44 30 0 0
-0.5885 -1.1962 -15.3351 0.073 -0.975 0.210 117 61 46 0 0
-0.5859 -1.1871 -16.7927 -0.479 0.334 0.812 130 129 133 0 0
1.4691 1.5872 -12.9805 0.130 -0.082 0.988 212 212 215 0 0
0.0418 -0.3173 -12.9341 0.199 -0.465 0.863 121 52 35 0 0
-0.0471 -0.4360 -12.9214 0.332 -0.654 0.680 122 51 33 0 0
-0.0672 -0.4628 -12.9309 0.319 -0.715 0.622 121 50 32 0 0
-0.0771 -0.4759 -12.9553 0.234 -0.677 0.698 120 49 31 0 0
-0.1133 -0.5242 -12.9409 0.394 -0.436 0.809 120 48 32 0 0
-0.4428 -0.9636 -12.9909 -0.662 -0.556 0.502 130 52 24 0 0
-0.4815 -1.0149 -13.0485 -0.381 -0.751 0.540 86 31 19 0 0
-0.4938 -1.0311 -13.0688 -0.204 -0.514 0.833 94 36 22 0 0
-0.5999 -1.1676 -13.9515 -0.737 -0.502 0.452 86 39 28 0 0
1.4513 1.6164 -12.9506 -0.737 0.302 0.605 210 213 214 0 0
0.1587 -0.1130 -12.7864 0.224 -0.384 0.896 121 49 34 0 0
0.1421 -0.1350 -12.8015 0.267 -0.199 0.943 121 51 35 0 0
-0.1619 -0.5415 -12.7876 -0.710 -0.551 0.439 122 51 33 0 0
-0.5255 -1.0256 -13.0551 -0.151 -0.292 0.945 107 42 22 0 0
-0.5620 -1.0728 -13.2747 -0.566 -0.824 -0.025 94 46 38 0 0
-0.6038 -1.1256 -13.6932 -0.810 -0.533 0.244 108 53 32 0 0
-0.6349 -1.1651 -13.9741 -0.433 -0.700 0.568 68 18 9 0 0
-0.6468 -1.1808 -13.9961 -0.362 -0.629 0.688 71 15 4 0 0
-0.6601 -1.1984 -14.0157 -0.456 -0.481 0.749 88 24 8 0 0
-0.6586 -1.1902 -14.8430 -0.574 -0.811 0.116 103 54 39 0 0
-0.6654 -1.1991 -14.8755 -0.454 -0.738 0.498 103 53 39 0 0
1.1789 1.3047 -12.9506 0.430 -0.719 0.546 117 51 39 0 0
0.4125 0.2771 -12.8649 -0.174 -0.492 0.853 118 49 34 0 0
-0.3368 -0.7272 -12.7942 -0.633 -0.441 0.636 121 48 33 0 0
-0.3960 -0.8052 -12.9376 -0.152 -0.562 0.813 117 44 27 0 0
-0.4108 -0.8249 -12.9540 -0.152 -0.562 0.813 116 43 26 0 0
-0.5792 -1.0482 -13.2042 -0.586 -0.751 0.303 94 49 40 0 0
-0.5884 -1.0603 -13.2293 -0.594 -0.801 0.073 94 52 41 0 0
-0.5858 -1.0564 -13.2734 -0.566 -0.824 -0.025 95 48 39 0 0
-0.5803 -1.0467 -13.5242 -0.791 -0.584 0.181 104 55 38 0 0
-0.6048 -1.0791 -13.5659 -0.877 -0.421 0.230 105 57 36 0 0
-0.6178 -1.0956 -13.6675 -0.835 -0.478 0.273 112 62 37 0 0
-0.6910 -1.1910 -13.9610 -0.123 -0.767 0.630 70 17 5 0 0
-0.6759 -1.1624 -14.8555 -0.421 -0.906 0.049 101 52 38 0 0
-0.6825 -1.1711 -14.8884 -0.494 -0.819 0.292 103 51 38 0 0
-0.6637 -1.1370 -15.8518 -0.294 -0.619 0.728 56 38 35 0 0
1.0800 1.2222 -12.7382 0.289 -0.684 0.670 115 55 42 0 0
0.7063 0.7208 -12.7536 -0.662 -0.016 0.750 120 50 40 0 0
-0.3549 -0.7033 -12.8013 -0.634 -0.493 0.596 122 50 36 0 0
-0.5022 -0.9010 -12.8106 0.416 -0.885 0.207 119 45 29 0 0
-0.6354 -1.0702 -13.6769 -0.835 -0.478 0.273 71 26 14 0 0
-0.7037 -1.1494 -14.8044 -0.173 -0.980 0.095 102 53 36 0 0
-0.7038 -1.1486 -14.8938 -0.645 -0.752 0.135 103 51 38 0 0
-0.6533 -1.0452 -13.6859 -0.773 -0.571 0.276 105 61 35 0 0
-0.7071 -1.1122 -14.0986 -0.574 -0.774 0.266 95 29 12 0 0
-0.7253 -1.1276 -14.8091 -0.363 -0.929 -0.070 103 52 35 0 0
-0.7271 -1.1289 -14.8956 -0.645 -0.752 0.135 105 53 38 0 0
-0.6938 -1.0744 -15.6514 -0.154 -0.901 0.406 105 54 43 0 0
-0.6976 -1.0790 -15.6917 -0.156 -0.934 0.323 90 43 33 0 0
1.4486 1.8274 -12.9960 0.581 0.082 0.809 213 213 216 0 0
1.0652 1.3068 -12.7439 -0.645 -0.582 0.495 115 51 41 0 0
1.0364 1.2681 -12.7458 0.411 -0.782 0.468 115 53 39 0 0
0.3758 0.3777 -12.7582 -0.556 0.133 0.821 120 50 38 0 0
0.2534 0.2130 -12.7819 -0.395 -0.258 0.881 121 52 37 0 0
0.2469 0.2048 -12.8117 -0.125 -0.618 0.777 123 51 36 0 0
0.2370 0.1918 -12.8367 -0.114 -0.446 0.888 123 51 36 0 0
0.1959 0.1360 -12.8176 -0.579 -0.177 0.796 124 51 36 0 0
0.0429 -0.0728 -12.6399 -0.355 -0.687 0.634 124 51 36 0 0
