ply
format ascii 1.0
element vertex 706
property float x
property float y
property float z
property uchar diffuse_red
property uchar diffuse_green
property uchar diffuse_blue
end_header
-5.840588953534793 3.3945520222606413 -16.657119747484593 203 203 203
-5.857861556561577 3.427947489962045 -16.651659584451515 203 203 203
-5.869082093984172 3.4477173293424084 -16.66825175126647 204 204 204
-5.939460147488785 3.6009155077108614 -16.46676509112815 205 205 205
-5.988647620355055 3.7064398724906873 -16.342128999239602 206 206 206
-6.023111564999928 3.778815861647641 -16.271140005958777 206 206 206
-9.109676238322711 10.338285210816878 -9.1020251867081 219 219 219
-9.117391958615613 10.35407744903126 -9.090435244089951 219 219 219
-9.125117580453493 10.36991312271746 -9.078587950296923 219 219 219
-9.176338853376617 10.497475903202416 -8.76381950664486 115 115 115
-9.184311649432622 10.514113965058016 -8.748498115320624 0 0 0
-9.193719616010968 10.534467617280441 -8.72287735369802 0 0 0
-4.596666585483836 1.4839199779889478 -12.479432430986755 211 211 213
-4.615341038664287 1.5194289503991887 -12.478829999721208 211 211 213
-4.619841836328668 1.5251646217140173 -12.508963643733068 210 210 212
-4.623272841682563 1.528645169845647 -12.541502009515197 209 210 212
-4.6267937221928355 1.532306955313588 -12.573926528002394 209 210 212
-4.635607469978326 1.547093846611629 -12.594799641560897 209 210 212
-4.644424047794468 1.5618858094486274 -12.615675986088133 209 209 211
-4.627423244449155 1.5223404754929675 -12.69366558419352 209 209 211
-4.664749462551926 1.5971350752488207 -12.651483591221186 209 209 210
-4.669524244426704 1.6034143305680302 -12.68136583794837 209 209 211
-4.676575184918448 1.6144823661008294 -12.706232102250805 210 208 211
-4.6806306545865235 1.619234973125764 -12.737842145795035 206 202 205
-4.684693999090139 1.6239970096010072 -12.76951141364285 194 188 191
-4.692067693819412 1.6357319508592592 -12.79379657922422 169 162 165
-4.689253448430202 1.6259753328964415 -12.8411475095662 148 136 134
-4.697137536651061 1.6387746720253595 -12.864408891212918 131 116 113
-4.706138400393158 1.6539288102931682 -12.885153124968458 120 100 98
-4.71431962519017 1.667351763235887 -12.907776096437797 113 89 86
-4.723392995016265 1.6826569920395977 -12.928376146992171 107 79 75
-4.772945083821117 1.783475721292556 -12.85600914431344 104 71 67
-4.785087515953565 1.8052926400884872 -12.869258754793698 100 62 57
-4.802530476626517 1.8383180540423658 -12.870218411061746 96 55 50
-4.8131527988016245 1.856931340971677 -12.886876817847224 92 51 47
-4.8214390322335134 1.8706047019962817 -12.908952107579612 88 47 43
-4.8283371288953 1.8813391873859433 -12.93428375629611 84 45 41
-4.835553501719763 1.892743816477609 -12.958908368269693 92 57 52
-4.842776337419352 1.904159013365621 -12.983551236243448 97 63 58
-4.844003543192926 1.9028721440625476 -13.0223500949228 95 64 59
-4.854805294890019 1.9218596661801821 -13.038648109788099 95 65 61
-4.855754844346416 1.9199680243345854 -13.07827999461818 95 65 62
-4.860592231062732 1.9263071301246715 -13.108795208237023 95 66 63
-4.793899007546067 1.7809361258251877 -13.310007051055514 97 69 66
-4.7955001825115 1.7803461392565003 -13.34894628352103 97 69 66
-4.797468549750516 1.7805240670540639 -13.387125858644772 99 71 69
-4.800119853114859 1.7821409341755103 -13.423777711999293 98 70 67
-4.800520162986837 1.7789675131214304 -13.465974245113571 99 72 70
-5.06286319792061 2.332240908946608 -12.873543896567835 101 74 73
-5.108617174794883 2.425608020414733 -12.803762617874279 103 76 74
-5.1065689496363476 2.4174100329198076 -12.849993923516983 106 79 77
-5.104511361873796 2.40917593055887 -12.896421979313391 104 79 77
-5.009305244241743 2.202777013964413 -13.171624801273492 108 82 80
-4.991364472869424 2.1606439907385737 -13.258230850210694 108 82 79
-4.972814415621009 2.1171741822764414 -13.346768718682771 107 80 78
-4.966872200697489 2.1005107784404675 -13.404508861806903 105 79 78
-4.9684343070145776 2.099810020074985 -13.443840744224119 108 82 81
-4.991147690278481 2.1441683663878575 -13.43056236705866 108 82 80
-4.975263358907628 2.106270517834098 -13.513616528476483 106 81 79
-4.982539905917685 2.11772232354609 -13.538960565943274 102 77 74
-4.997301888365978 2.1451378852693512 -13.54549979531837 102 77 73
-4.960113074551108 2.061706162438608 -13.683137203599735 98 70 67
-4.953638934120649 2.0437678353471065 -13.743721069537031 94 62 58
-4.961784409820504 2.0570231980360187 -13.767413832782921 98 62 55
-4.974724259671836 2.0805174802221984 -13.778909530465125 110 70 62
-4.962233196644632 2.049674544948069 -13.855388556606744 127 87 79
-4.955061319069299 2.0301683164964914 -13.9185821764382 108 71 61
-4.935966820397088 1.9851413558297728 -14.012736549858321 84 51 42
-4.916070665926208 1.938355466678113 -14.109433533017153 94 66 58
-4.9033082054424 1.9067894483897927 -14.188142261656992 95 66 59
-4.8667291696722295 1.8242051397062937 -14.329107730554256 91 60 55
-4.853311648818102 1.7911481531853806 -14.410470060474706 92 60 55
-4.838787701466213 1.7556846938608368 -14.49511465229088 93 61 53
-4.830499674051414 1.73354660916329 -14.563810365495751 93 61 53
-4.81303546461708 1.6917081832209195 -14.6569618445692 91 57 48
-4.795899279975417 1.6505300448440359 -14.749710564631204 88 51 43
-4.778075772507885 1.6078344619862568 -14.844739850266583 86 47 39
-4.77680397592616 1.6006168684677329 -14.896266694003398 84 45 37
-4.7998020818703395 1.6454867266920354 -14.883299684142912 81 41 34
-4.744707171848006 1.5226547802082164 -15.078932522888447 81 39 31
-4.766512808825951 1.5649408723393021 -15.069397369066039 79 36 27
-4.772290216879558 1.5727954938874626 -15.102799239689197 78 34 25
-4.793453506238473 1.6137242968210952 -15.094742521899908 75 31 22
-4.8178359880220025 1.6615947759546836 -15.077780168242302 74 29 21
-4.831382623806111 1.6861720875023005 -15.09001536440804 73 26 18
-4.639434347465597 1.2684166572765179 -15.662321467454305 71 24 16
-4.650200991054561 1.2868506748044846 -15.68384232575679 70 23 14
-4.648739186841777 1.278942528633415 -15.738907502980599 69 22 13
-4.973334187670293 1.97366812582991 -14.896853346130442 68 21 13
-5.013231122385333 2.055151040879222 -14.835276664939277 68 21 12
-4.611914118673566 1.1851369026241283 -15.99524182414293 67 20 13
-4.804512812682393 1.5958041171574289 -15.512223007234601 67 20 13
-4.845636571463745 1.67984309409887 -15.44821136008045 67 20 13
-4.864384791790427 1.7156210592156382 -15.446225602367047 68 20 13
-4.871290281548172 1.7258327528159114 -15.477316206850784 69 21 14
-4.9094870353480164 1.80365385892879 -15.420396158728796 70 22 14
-4.93483006673975 1.8537362725831166 -15.399267532201371 71 23 16
-4.945913209511218 1.873006640657504 -15.418262135818388 71 26 17
-4.9743371251792325 1.9297930240865329 -15.387961107194073 73 31 22
-5.003677202545897 1.988593134099026 -15.354716116116371 74 35 27
-5.036096962956576 2.0540937414781038 -15.312311509461953 76 38 30
-5.049349861289677 2.0781178662100945 -15.324498819316156 78 40 32
-5.067017455045195 2.1117130928001284 -15.323920604298875 77 41 34
-4.977416580205844 1.9127960845209238 -15.63301730769017 77 42 36
-4.916606266108548 1.7761392783435923 -15.86055835998411 79 45 39
-4.834186534444916 1.5924775196371073 -16.152253638523664 80 47 40
-4.819588555634759 1.555847274983269 -16.247907479182285 79 48 41
-4.756414665327595 1.4137043765747057 -16.486164738931375 79 49 43
-4.83387673349119 1.5769038851779609 -16.313014383473075 81 52 45
-4.850707745432887 1.6084719801931362 -16.317144683644692 82 54 49
-4.856653764166838 1.6163883688508962 -16.353317905793933 85 58 54
-5.042955143858611 2.016525880902492 -15.855006286626303 87 62 57
-5.017179672446274 1.9555719029437952 -15.98395526620548 88 66 61
-5.0665958393248545 2.058211821141482 -15.889282756583754 89 71 66
-4.978479958184118 1.8614506903518144 -16.205495535124996 91 74 70
-4.90764140653563 1.7021468955748453 -16.47175007252676 88 74 71
-4.819552597119824 1.5051011034377009 -16.79156798087039 88 74 71
-4.752716534581994 1.3542094891049832 -17.04909451218104 90 78 76
-4.709276672718002 1.2542047821928328 -17.237212276344476 93 83 81
-4.742965782114812 1.3223984844271408 -17.19176872167174 96 87 85
-4.638813839047105 1.0897301499900083 -17.566590308314254 100 92 90
-4.667234800987126 1.1463739628153338 -17.537758586686582 107 98 96
-4.678762262780003 1.1661399568878537 -17.56048536360602 113 105 103
-5.059694220307345 1.9933427863341944 -16.44462192472907 118 112 109
-5.036070246313969 1.9365908628515127 -16.572310289496453 124 118 117
-5.062579024719126 1.989447857001866 -16.54515856836278 132 127 126
-5.079162149970198 2.020611397619154 -16.548580299021044 139 134 134
-5.034576948260851 1.9178539552355396 -16.742902427915467 144 142 142
-5.0355852689232 1.914864527775638 -16.795508046929648 149 148 147
-5.050329516879052 1.9419584104270031 -16.805136986927813 155 153 152
-5.088026337026778 2.019382264629363 -16.742296767904513 160 159 157
-5.094598302337891 2.028588393476543 -16.777382175282717 162 161 160
-5.081130910763935 1.9938122468081865 -16.876171564204988 166 164 165
-5.122676046789033 2.079761485743573 -16.8002489733357 169 168 169
-5.123101494114312 2.07545790955231 -16.855081498335725 173 172 173
-5.115176072603496 2.052784428332279 -16.93690575569099 176 176 177
-5.188987858048911 2.2097584306196545 -16.756198425294993 179 179 181
-5.183783497186618 2.1930764366756925 -16.82916535001352 181 181 183
-5.179508115716093 2.17840687022069 -16.899463297537384 182 182 184
-5.191185998593854 2.1988253750030102 -16.918253614709034 184 184 186
-5.20562000510685 2.225315625269509 -16.928039711330122 185 185 187
-5.273645411335058 2.3698922613651385 -16.762481283669235 186 186 188
-5.275813642773886 2.369413934837721 -16.811771491581656 187 187 189
-5.294673226136254 2.4057286862121314 -16.806295270844767 187 187 189
-5.300997059567484 2.414401785456369 -16.842045366517368 188 188 190
-5.310904749650328 2.430977093237245 -16.86601232232936 189 189 191
-5.306958748204723 2.416956164155085 -16.936060092389855 190 190 192
-5.327805050084863 2.457682619779532 -16.923718248758227 190 190 191
-5.321215383405086 2.43778325312131 -17.002986838812596 191 191 192
-5.608676713975134 3.0681518383835478 -16.095064204103444 192 192 193
-5.559265023722727 2.953740990115543 -16.316103620587604 192 192 194
-5.526375802401458 2.87577978425736 -16.482621382237554 192 192 194
-5.515212867280498 2.8458445491895956 -16.57641185762483 193 193 195
-5.637021675914255 3.1104953507294644 -16.218094862230895 194 194 196
-5.568893092343576 2.954328390701619 -16.505890184943553 194 194 196
-5.462891050981716 2.7139955927879615 -16.92525466821059 195 195 197
-5.416351491545262 2.6053576008480572 -17.142858911960108 196 196 197
-5.1282555459060655 1.9603348903448463 -18.19506275654905 196 196 196
-5.078596470578798 1.8442601378721797 -18.428913824390065 197 197 197
-4.848401304778009 1.3268664838871436 -19.291167740488543 197 197 197
-4.673639068863036 0.9321889478201069 -19.965915610389047 198 198 198
-4.488039046957518 0.5129949626190227 -20.682944592814223 198 198 198
-5.26353664904396 2.214944584213727 -18.21884505821189 200 200 200
-4.9470654262057705 1.4972037329028414 -19.47325261575544 201 201 201
-4.452239015831329 0.3864266130355922 -21.311625813963055 201 201 201
-4.337717242257753 0.12384179827242026 -21.79618927985217 202 202 202
-5.793157133291491 3.3582625098430157 -16.74000811735739 203 203 203
-5.823658170134131 3.421127337255067 -16.686802245828172 203 203 203
-5.835882143582401 3.443115753176949 -16.6998727702395 204 204 204
-5.9063342116258974 3.5955531618365324 -16.49940794990406 204 204 204
-5.98865501212407 3.7747341242962125 -16.25376672539913 205 205 205
-6.0137742127419855 3.825806311827464 -16.217461437509336 205 205 205
-9.108726320793394 10.371277411784575 -9.031904948498116 219 219 219
-9.117640492873424 10.390057911691343 -9.011980850484107 219 219 219
-9.12547224313297 10.406114461790787 -8.99923371832473 219 219 219
-9.17516086598748 10.52858404387495 -8.697382214890105 116 116 116
-9.184994106732468 10.54989120127521 -8.669070757897789 0 0 0
-9.192770707801301 10.565989993550492 -8.654747277208347 0 0 0
-4.286569027311133 0.9054779855574937 -13.014612101463 211 211 213
-4.2544722659430025 0.834653895145653 -13.125097432327609 211 211 213
-4.296300778468433 0.9182530515169764 -13.076821940994032 210 210 212
-4.359743812224363 1.047070469390448 -12.981385071928305 210 210 212
-4.398294810927282 1.123908670594234 -12.93920786516342 210 210 212
-4.41743486799176 1.160185252125161 -12.938870340916733 210 210 211
-4.59166453018619 1.520932724503968 -12.599934177409462 211 211 210
-4.601325881613728 1.5374930154317084 -12.61903016897526 210 210 210
-4.610154813337791 1.5523109607784091 -12.639952314333097 210 209 210
-4.600336058415943 1.5280807175366018 -12.701965530480951 210 209 212
-4.626734487008784 1.579685901383074 -12.684207926422534 207 203 204
-4.632337420568808 1.587741419920515 -12.71231791258333 194 185 186
-4.627017057090111 1.5728984708788434 -12.764774323070691 172 160 162
-4.6337323755387345 1.583269196657096 -12.790588501208735 150 135 136
-4.641402188002431 1.5956379886569163 -12.81430645652074 133 112 111
-4.651959003187279 1.6140605844173335 -12.831570006570558 127 100 98
-4.663238827242838 1.6340016130309385 -12.847191356967178 120 89 84
-4.673332139038105 1.6514543201645226 -12.865468713415352 112 77 71
-4.68107237910095 1.6639670151564951 -12.889070780759088 106 67 59
-4.686673554442869 1.6719846160922467 -12.917561322471334 105 61 51
-4.6957775141973634 1.687356352434699 -12.938120769956473 101 51 42
-4.708429233698785 1.7101835692928762 -12.950571163704387 102 50 40
-4.771827119371217 1.839697741238019 -12.846527551050276 101 46 36
-4.791431126305318 1.8771865965359051 -12.842518675302944 99 46 34
-4.803919092822615 1.8997194904175307 -12.854795457093152 96 46 38
-4.810625498071689 1.9100904804270606 -12.880421015327979 91 45 39
-4.818023907999073 1.921914449851101 -12.904478532958885 86 42 37
-4.826400799996444 1.9357959641944515 -12.926285219843322 84 44 38
-4.833453355000893 1.9468866436215002 -12.951204649632402 88 52 47
-4.830205184438494 1.936271247315073 -13.000322894590079 91 58 54
-4.826578706269787 1.9248414535629657 -13.05051926403012 88 59 55
-4.830850627614918 1.9300459462980215 -13.082265161762432 90 60 57
-4.834674956111199 1.9342994082063103 -13.115148889682114 92 64 61
-4.853140040360342 1.9694316496822348 -13.113338465387606 93 65 62
-4.851039194418964 1.961175660220726 -13.16040258875961 92 64 61
-4.853919314092185 1.963418568886134 -13.195734227338445 93 65 62
-4.85527742170496 1.9624383657495215 -13.234816047648994 92 64 61
-4.857163659125715 1.962562505906095 -13.272751257381557 93 65 63
-4.858630936208941 1.9617907740102263 -13.311813989902898 95 67 65
-4.860028924797135 1.9608613623768552 -13.351167923359604 98 70 67
-4.861161092622077 1.959358513190867 -13.3912925561579 101 73 70
-4.839154082885905 1.9089013257588276 -13.48791756124788 102 76 72
-4.845445606507575 1.9182749707556699 -13.515872083496975 103 77 73
-4.841468620757976 1.9059101780540613 -13.569052730917274 104 79 75
-5.01066202453405 2.260170020433349 -13.196562922696966 105 80 77
-4.918296681386455 2.060686934598534 -13.466883984151416 104 78 76
-4.9217200776177545 2.0640031838022117 -13.501725713684309 102 76 75
-4.922750102531172 2.0622382017846226 -13.54260625033005 102 77 75
-4.922739964175219 2.058255731084953 -13.586212231924893 101 76 72
-4.9245406173900586 2.0580997838543005 -13.625445903009993 99 74 70
-4.9334256817688065 2.072962296155332 -13.647047262256052 102 77 73
-4.949841515578036 2.1038058314866537 -13.64972586762293 95 69 65
-4.943553922303938 2.0864605072732747 -13.709561812413792 92 64 60
-4.94890214706634 2.0938029567253666 -13.740210322427966 92 60 54
-4.9639633992306385 2.1217736975499135 -13.746273264596834 96 61 53
-4.970530493128189 2.1317009038289534 -13.77387891446159 107 66 58
-4.966488225084388 2.1190692043742616 -13.828636007425343 125 83 73
-4.948671821566796 2.0771248134920692 -13.918912967879255 94 58 50
-4.930922231728674 2.03528185040668 -14.009466076111565 113 84 79
-4.914149157104804 1.9954761931728133 -14.097950053581853 123 97 91
-4.8880626477572715 1.9358039867476977 -14.2109643043501 112 84 79
-4.875970730757697 1.9058809865305104 -14.28824929600934 96 65 60
-4.868370434441826 1.8854937158860992 -14.35420324509535 81 49 43
-4.859773662870246 1.8629564255961313 -14.423050579632196 80 46 39
-4.849039986776633 1.8358354759278939 -14.49780583967875 89 52 43
-4.827563511902836 1.7857727407047328 -14.60114493740079 90 50 42
-4.79974512101216 1.7221322847986498 -14.721734987375726 87 45 38
-4.773387417392385 1.6615512126898162 -14.839098532073404 84 41 35
-4.801248009452115 1.7166654770738141 -14.81319738205089 81 40 33
-4.790011587420649 1.6883080558763837 -14.891081887026289 81 39 30
-4.784169900215877 1.6714431276230473 -14.954923026858445 79 36 27
-4.74543172726359 1.5842459210298907 -15.10717551248691 76 33 24
-4.750381671308642 1.5903779953778336 -15.142842746243382 74 30 22
-4.762863406389512 1.6126105278193634 -15.158294425071173 75 28 20
-4.785921615538944 1.6574754932807627 -15.145100433587464 73 26 18
-4.846844493939809 1.7834043687549448 -15.028935631427483 71 24 16
-4.564093669756902 1.1735570678478089 -15.847484469167107 69 22 14
-4.570476521029553 1.1825523935488373 -15.881504332703253 68 21 12
-4.5803187609914655 1.1989532683713726 -15.906123241502183 68 21 12
-4.752103526954908 1.5624816694498538 -15.485648740747283 68 21 12
-4.648833487150868 1.3364587705187647 -15.820767762354048 67 20 14
-4.655629449589325 1.3463596290176536 -15.853431938989399 67 20 14
-4.824961774722998 1.7050480862981399 -15.435110720940187 67 20 14
-4.844695348486093 1.7428417636441331 -15.43044764863945 68 20 13
-4.862370082832529 1.776229079698033 -15.431368316363121 69 20 13
-4.883339680530342 1.8167068801277813 -15.4229265366355 69 20 13
-4.905179544431556 1.8590723781897571 -15.411847922050626 70 22 15
-4.924049460057578 1.8950712669570873 -15.408937134350182 70 25 15
-4.943457760453274 1.9322421928511853 -15.40434860241967 72 29 20
-4.979342344369072 2.004879767877161 -15.352832276448769 73 34 25
-5.005770660528934 2.057205155444022 -15.327773343333586 75 38 29
-5.01699592403291 2.076820136484045 -15.345845232390804 77 40 32
-4.945586004805138 1.918425791232674 -15.600707311176961 77 41 34
-4.961304027513902 1.9476565984418173 -15.606590614978053 77 42 36
-4.961696813009505 1.9438572740871614 -15.656576722716757 79 44 38
-4.828529997427893 1.6519916589245645 -16.093211621642133 80 46 39
-4.78351124006614 1.550066693007599 -16.276646271474373 80 47 40
-5.0303473638757215 2.059251571247737 -15.817330263623237 84 61 55
-5.013123959212862 2.017272383962898 -15.9203456145693 87 65 59
-5.040675538542664 2.0721202368168 -15.890937168763736 88 69 63
-5.028475157298066 2.0409557339305655 -15.979621893033361 89 72 68
-4.9659495748361895 1.900779243541968 -16.219152940576826 88 73 70
-4.839612636586653 1.622242885894825 -16.651437621043865 87 73 70
-4.748470246186381 1.4197347958772113 -16.980522425859256 88 76 72
-4.657933333043074 1.2183577546347424 -17.309778380175732 91 80 77
-4.761126387237284 1.4369826561270305 -17.05445193918215 93 85 82
-4.754264510631439 1.4169741160175366 -17.131624383905773 96 91 87
-4.893498989253416 1.714066247194336 -16.763908594441567 103 96 93
-4.918661012331405 1.7636685167093624 -16.74242673307646 109 104 101
-4.9761417805763735 1.883509937356279 -16.62152053447815 115 110 107
-4.990696683193897 1.9101397827596038 -16.631786564049015 121 116 113
-5.00801658775786 1.9427886497032594 -16.633438909766262 129 124 123
-5.031146271938457 1.9880874046994705 -16.6169613712393 136 132 131
-5.067295901735103 2.0617428809613187 -16.55976797928568 140 139 137
-5.0489162975921165 2.0167289987931003 -16.67208240943704 147 146 144
-5.043833256384685 2.0006216387243976 -16.743395304072468 152 151 149
-5.052307888995134 2.01402665500458 -16.772481164798222 158 157 155
-5.069500169348379 2.0464311294195756 -16.774163305753756 162 161 159
-5.0576875232898075 2.0155921508986596 -16.86734517249652 164 162 164
-5.088300935787267 2.0772757333078395 -16.826521879288876 168 166 169
-5.10056656390361 2.098948313221741 -16.843631709641528 173 171 174
-5.086291569843721 2.0626670225361172 -16.945388007475405 175 174 177
-5.090307528298419 2.0662973303763543 -16.98912074475917 177 177 179
-5.125950579105988 2.1390392717610442 -16.93142361585339 180 180 182
-5.163351340652097 2.2156724313176657 -16.867536395604407 181 181 183
-5.159093677015548 2.201227408053117 -16.937756707055957 182 182 184
-5.23236606582391 2.3564291664850963 -16.756826979913 183 183 185
-5.2371551094698585 2.361809124845511 -16.797416914948364 185 185 187
-5.241149070406221 2.365436072237241 -16.840728292093573 185 185 187
-5.2682840868089365 2.419762559348749 -16.8083768068906 186 186 188
-5.28460151393372 2.450404680965579 -16.811221099568257 187 187 189
-5.2927791489346365 2.463204037841064 -16.84078259006072 188 188 190
-5.287547692712003 2.446573294035704 -16.91476169599585 189 189 191
-5.325350902399504 2.524390421791586 -16.84623312572463 189 189 189
-5.304354299401409 2.4731123245018836 -16.9729427345166 190 190 190
-5.663476301353864 3.25705812908606 -15.830117732001415 191 191 191
-5.61577455491827 3.147327054221476 -16.043537329170874 192 192 193
-5.564503479604287 3.029628266702769 -16.27025241761211 192 192 194
-5.5349533439462775 2.959601027872738 -16.42503108389514 192 192 194
-5.734317180039523 3.393449234441802 -15.80549042878797 193 193 195
-5.617764160161576 3.1318668420035607 -16.255093458166975 194 194 196
-5.5221193972373595 2.9160961551489706 -16.636290222371834 195 195 196
-5.389261837933741 2.6180662818063656 -17.147191076183333 195 195 195
-5.304623371897122 2.4260926349542773 -17.495884212654925 196 196 196
-5.384342302503194 2.5966069514996786 -17.280795897046428 196 196 196
-5.135771508772814 2.0424844725539186 -18.198395792268187 198 198 198
-5.222968493264125 2.201439832717166 -18.2662955857102 199 199 199
-5.214237851748975 2.1764233977545286 -18.35963049081815 200 200 200
-4.530857367714299 0.649645767746839 -20.919328647820826 201 201 201
-4.385002173580646 0.31955711339199233 -21.512142209361194 201 201 201
-4.226468278415659 -0.03902251551711622 -22.154258816615272 201 201 201
-5.774502846742498 3.3866014969392237 -16.71812904039462 203 203 203
-5.833091543051193 3.5116058166727058 -16.563502380709828 203 203 203
-5.844019992577766 3.530719499937206 -16.58090548452114 204 204 204
-5.905456785956471 3.662225384756881 -16.414087289545236 204 204 204
-5.948741508358741 3.753435192765067 -16.31241657903901 204 204 204
-5.960989866251767 3.7755887965768067 -16.323874096321816 205 205 205
-6.047300781699096 3.9628026620942824 -16.06239720154569 205 205 205
-9.108948377137123 10.406683935291017 -8.95500259652873 219 219 219
-9.117830385775546 10.425303830842921 -8.935199595630644 219 219 219
-9.125573960994569 10.441086090998036 -8.922897690805808 219 219 219
-9.173918311264435 10.559032910497802 -8.63247327944029 118 118 118
-9.183590694668576 10.579820324076463 -8.605290120154457 0 0 0
-9.191318825709248 10.595734698985563 -8.591212829685125 0 0 0
0.010799467259436923 -7.206905131134647 -13.631387136814727 205 205 207
-4.211248100847957 0.8208465964223528 -13.040409395417381 212 212 214
-4.245106755275286 0.8875057012845575 -13.00991999619689 212 212 214
-4.221150394596041 0.8340565163368678 -13.102456212957112 211 211 213
-4.28363333959754 0.9602345629897391 -13.010456363433635 211 211 213
-4.330533519502531 1.0540763144999823 -12.951206060380084 211 211 213
-4.378353977776413 1.1498760496106097 -12.889476490263828 210 210 212
-4.413969516295598 1.2203309739308263 -12.853600538809683 210 210 212
-4.436368916293153 1.263315099910581 -12.846014776020622 208 210 212
-4.4687134191760265 1.3270154154680593 -12.816638303970182 209 210 211
-4.566908956339188 1.5278532188536773 -12.643357223257564 209 206 208
-4.575752097153437 1.5427010591325723 -12.664321362269321 200 193 195
-4.5700860942711055 1.527320596579404 -12.71713257306103 180 166 166
-4.579918989935764 1.544220509558711 -12.736036907270464 155 133 132
-4.590679971452365 1.5630554015963756 -12.75288822760119 139 109 109
-4.602943862662782 1.585025587099404 -12.76639401142963 123 91 89
-4.6148645770415 1.6062833036186945 -12.780624779073571 113 77 72
-4.62762914663033 1.6293045598990017 -12.792941728101882 111 66 59
-4.639349999192015 1.6501515318975541 -12.807547428029544 110 57 48
-4.651622648155894 1.6721531576302948 -12.820885016239131 103 47 36
-4.661631769805557 1.6894313362037319 -12.839277023040001 102 44 33
-4.6789407370608895 1.7219586866331453 -12.841186621888472 105 45 32
-4.686898444861352 1.7349561542095548 -12.864158211049121 106 44 29
-4.695968269725208 1.7502761377403746 -12.884626249182237 107 45 29
-4.700645097496018 1.756410756826579 -12.91510945276022 106 45 29
-4.748132453023801 1.8520736949310104 -12.84782002305668 107 46 29
-4.74781506838701 1.8477750648117501 -12.889585139334558 105 46 29
-4.774349730276535 1.8996568343040892 -12.869735810648585 101 46 31
-4.789704776400957 1.9281578405067887 -12.87543234505545 94 44 34
-4.81865452142123 1.9851332616921114 -12.849581121781135 90 43 36
-4.817307917189231 1.9786747310837653 -12.893781786691136 86 41 35
-4.807996786803166 1.9555145576921387 -12.956687934007764 83 44 39
-4.819417233539017 1.975781498427171 -12.971435527781798 83 48 46
-4.817107570559951 1.9672650359178383 -13.018331523631275 85 55 52
-4.813421406242647 1.955846392139999 -13.06863709688113 88 59 56
-4.81053476176036 1.9460877803308145 -13.117251939485413 89 61 58
-4.840019535929457 2.004244965849951 -13.089468898150855 88 60 57
-4.860226895795176 2.0429535051752206 -13.083405596208193 86 58 55
-4.872860901482051 2.065773375838049 -13.095211661977835 87 59 56
-4.875931643719394 2.068509754281564 -13.129808718019106 88 60 57
-4.875699897115128 2.0642985124336786 -13.172413645246621 90 62 59
-4.883856048257293 2.0777043012017615 -13.195007409937741 93 65 62
-4.886996436602759 2.0805625978598346 -13.229713337626306 93 65 61
-4.890059586846471 2.0832498889644278 -13.264702699585985 95 67 63
-4.896278546927672 2.0925678480932546 -13.292134426622507 98 70 66
-4.887801766787248 2.0709536230540206 -13.355380779638637 98 70 66
-4.905272896131347 2.1039408549113627 -13.35555660294666 99 70 66
-4.894145802141881 2.0767139540642754 -13.425647983609965 100 74 70
-4.916128331643007 2.119206888566482 -13.414717109221147 100 75 71
-4.913824557882252 2.1105390887261133 -13.463447404448143 101 76 72
-4.911510302525186 2.1018328404569324 -13.512388256355035 98 73 69
-4.9091519930367244 2.0930172443727466 -13.561624132139837 98 73 69
-4.919280375475179 2.1105237733720044 -13.579981500613481 96 71 67
-4.927099860715194 2.1231591424135368 -13.60409341435193 96 71 67
-4.9338977501145544 2.1336356716149187 -13.630791500058063 90 66 61
-4.942048544026516 2.1469648141525757 -13.654136390900456 89 66 60
-4.9492165556264265 2.158216098631889 -13.679980929284815 87 61 55
-4.947642859367374 2.1509939847568096 -13.727959536800197 86 57 51
-4.935509146218157 2.1214367661152864 -13.802892605815131 94 58 52
-4.9308444584029925 2.1076400928502705 -13.85917778445151 112 70 64
-4.942944411180086 2.1292798669900663 -13.872917658774037 123 82 75
-4.928737059364036 2.095264691638154 -13.953957518058242 86 50 43
-4.9150405346474315 2.0622962548925705 -14.034073906495452 117 89 85
-4.904523353181583 2.036025101413801 -14.106382450049058 114 89 85
-4.891703574535525 2.004847953057564 -14.184973213465135 117 92 86
-4.880922604583192 1.9779572945906807 -14.258650305556264 115 85 81
-4.873681255882706 1.9585381095135048 -14.323462430220495 101 67 63
-4.861869384406487 1.929404090761908 -14.400481513070549 82 44 37
-4.8519336829988635 1.9042170845259871 -14.472951098300541 74 32 24
-4.828956773766613 1.8513335307249026 -14.579990630273409 77 33 27
-4.805707768709112 1.7978237288054615 -14.688297666853227 80 38 29
-4.808519905339286 1.799592348433059 -14.72830581850232 80 38 28
-4.795768485622352 1.7682969975709106 -14.809689116306371 80 36 27
-4.790218647452022 1.7522671412877173 -14.872309945420826 77 33 24
-4.7837821042942235 1.7343292091451739 -14.937562601468647 76 31 22
-4.780477574409099 1.7230248571852753 -14.994717211526774 75 30 21
-4.833756293221789 1.8320386463793836 -14.900205849796489 74 27 19
-4.832964258027706 1.8260814970356423 -14.950573398967427 72 25 17
-4.831733558717097 1.81917403049398 -15.00231484545641 71 24 16
-4.835020612882738 1.821867544462311 -15.042009349592636 69 22 14
-4.582941634092757 1.2806710358892168 -15.776144677008334 67 20 13
-4.665400739219944 1.4518285100238906 -15.602348205123597 67 20 12
-4.730060906135765 1.5851610978221808 -15.476004626852738 67 20 12
-4.703830994125887 1.5247889621036483 -15.598215264876401 66 19 13
-4.71790332277209 1.5503202440172137 -15.610084193867976 66 19 13
-4.738461780500287 1.5896963200177385 -15.603972161451852 67 20 14
-4.833965091172126 1.7890550083089343 -15.389971671294298 67 20 13
-4.842137912685921 1.8020750582911989 -15.417276216240525 67 20 12
-4.862439682763034 1.840999515591582 -15.410788635412057 67 21 13
-4.8807394829176705 1.875661818310661 -15.409725658737665 69 23 14
-4.8947273928320705 1.9011195330836177 -15.420624732561041 68 24 13
-4.951856149980664 2.0188364633124944 -15.309962639767381 70 28 19
-4.949136757319062 2.0085997075632713 -15.367543162861656 72 33 24
-4.95369438221042 2.0139151083564677 -15.404733513680208 74 37 28
-4.9494864542821135 2.000455653319767 -15.466953017031281 76 39 31
-4.92104809462989 1.935079679122489 -15.598558604062418 76 40 33
-4.981763672426972 2.0606493936232635 -15.475732965979756 76 41 35
-4.9847231062837345 2.06251390124456 -15.517800022933159 78 43 37
-4.990851390056812 2.0711606991429212 -15.550875650946868 79 44 38
-5.00287825027935 2.0924525782871415 -15.566984569637848 79 46 39
-5.0172187525463645 2.118711759046624 -15.57635464027446 80 47 40
-5.015692185103154 2.1109177942858484 -15.631794966860033 82 49 42
-5.021166002478206 2.1181367945824237 -15.66703293825846 82 52 46
-4.983485196568322 2.0326412187359226 -15.82867957355554 82 54 50
-4.9868943333333675 2.035370614013427 -15.870572721359228 84 58 53
-5.007945951007959 2.0760180975943587 -15.860623759143134 86 63 57
-5.075294038025392 2.216256268033451 -15.713639475893268 88 68 62
-5.0003377336769175 2.0504071776594524 -15.987519965936922 89 70 67
-4.93780017314748 1.91114381103925 -16.22609656111595 87 71 68
-4.833007840967138 1.680767737892511 -16.592187646862676 87 72 69
-4.760268771462565 1.5192420172977084 -16.864543524709585 87 73 70
-4.662921617244768 1.304541053612236 -17.212442731324057 90 77 74
-4.7555208311664465 1.4991582342430911 -16.990038568251496 90 83 77
-4.744614904065984 1.4706800668031788 -17.078974571240575 94 88 83
-4.665545153937391 1.2950906996845468 -17.375097784051054 101 93 90
-4.636664813811584 1.2276781627525564 -17.52027094006562 104 99 96
-4.9403453466467795 1.8783242924946837 -16.650933014886473 111 106 103
-4.974890694512512 1.9480802367237624 -16.60012406511789 119 114 111
-4.984750393238595 1.9645286522104488 -16.624697746260757 126 121 120
-5.016278517966901 2.0278236480493987 -16.58248595325654 133 129 128
-5.023084082999524 2.037682368941704 -16.61632319270622 139 137 135
-5.0474003019795175 2.085424256627614 -16.59590101485052 145 143 141
-5.022534132573183 2.0267239351083814 -16.728321584694257 150 149 147
-5.029036921386142 2.035893158227048 -16.7634861089344 156 155 153
-5.028010012308586 2.0287413008295854 -16.82233330289837 159 158 157
-5.032020974800876 2.032487345304924 -16.865583518772866 163 161 162
-5.05801225025383 2.083882323291375 -16.839641079669015 167 165 168
-5.075913926547779 2.117756569602384 -16.83898461169772 171 169 172
-5.085069633553679 2.132663458775128 -16.865948434163332 173 172 175
-5.1360310758499885 2.2383328462193974 -16.75977483366579 175 175 177
-5.127673555088341 2.2152329848921397 -16.84233851784255 179 179 181
-5.147160667766165 2.2526036024617335 -16.836019837209765 180 180 182
-5.203127101812317 2.3692937253639546 -16.71216113158406 181 181 183
-5.209026013259109 2.3771791390913988 -16.74894123900101 183 183 185
-5.2123851847035745 2.379529721600105 -16.79404576800711 184 184 186
-5.216707740199336 2.3839636222986798 -16.83617527679318 185 185 187
-5.225687885279276 2.3985283688435732 -16.86325773840537 186 186 188
-5.263271433894266 2.475406829253439 -16.796829519541692 186 186 188
-5.276815336258144 2.4999398608368733 -16.80869910216404 187 187 189
-5.254452341306896 2.446180979760981 -16.938715142854257 189 189 191
-5.3202729524020995 2.584734428743629 -16.778174569753094 189 189 189
-5.290658952269022 2.5151080137007362 -16.932696383784553 189 189 189
-5.648523155400326 3.2867418784079163 -15.852954359473276 191 191 192
-5.614687869382067 3.2080636326808225 -16.019645898764978 191 191 193
-5.316045826847368 2.550317707927867 -17.07660548082501 192 192 194
-5.542352670687316 3.0402441850086577 -16.3716756756684 193 193 195
-5.496551359435157 2.935114142598847 -16.58181452842277 194 194 196
-5.45988404554295 2.8498703463466226 -16.762234076632183 194 194 196
-5.420416893454988 2.7583995121426748 -16.953246150114595 195 195 196
-5.406326125130601 2.7224386015036055 -17.05874107966479 195 195 196
-5.430677192606003 2.7707090959341834 -17.033093841139266 196 196 196
-5.506678461067851 2.932299654379128 -16.829581782222228 196 196 196
-5.530545159799146 2.979616015520027 -16.804376743021027 197 197 197
-5.508059388107117 2.9251934347796773 -16.9392678037882 198 198 198
-5.518927926785034 2.943966707052451 -16.959108819684523 198 198 198
-5.515548830756268 2.931430909983625 -17.02857688798073 198 198 198
-5.548209617290394 2.9981033784063813 -16.972388589357408 199 199 199
-4.651426324440147 1.0020611781437943 -20.382462260051458 201 201 201
-4.49240195940776 0.6454355485216681 -21.01733528251271 201 201 201
-4.3458462951389505 0.315937419733344 -21.611852879595585 201 201 201
-5.7932097902790005 3.497227389194906 -16.5623023875263 203 203 203
-5.813383105554438 3.5367350973533904 -16.546489861542568 203 203 203
-5.824564697990585 3.5564000744971995 -16.56293974437596 203 203 203
-5.834332765420056 3.5729431865974846 -16.584489936683035 204 204 204
-5.851635438614894 3.6061475901253406 -16.57862093651181 204 204 204
-5.867352234664723 3.6358591583075572 -16.57836482578421 205 205 205
-5.842080644767624 3.5748520040714693 -16.7281842324699 205 205 205
-5.8619348923020524 3.6137064898884734 -16.712941954518136 206 206 206
-5.855707895161979 3.5947917927480564 -16.793692086512873 206 206 206
-9.109166688360956 10.441510008444833 -8.879361111901556 218 218 218
-9.11854070546403 10.461272900216459 -8.856153675805906 218 218 218
-9.126642407894508 10.477895917869962 -8.841261604108631 219 219 219
-9.17269363627038 10.589044869697416 -8.568495647319619 119 119 119
-9.180658501356532 10.605465264909586 -8.552972857489 0 0 0
-9.18988058348032 10.625042404757059 -8.528622223426225 0 0 0
-4.137278046139888 0.7397310858002006 -13.062017725024184 212 212 214
-4.154034311901054 0.7707674987390094 -13.068244066449973 211 211 213
-4.1945947712585285 0.851001690394658 -13.024109656281613 211 211 213
-4.218697565651009 0.8972523868094209 -13.01443755409524 211 211 213
-4.2602385543063646 0.9795742408844994 -12.96751997326578 211 211 213
-4.309682321530661 1.0782765199161082 -12.903335833117836 211 211 213
-4.353759811521622 1.165922853608631 -12.850099983678419 210 210 212
-4.396708130446305 1.2512720745177095 -12.798828458056448 211 210 212
-4.429734148669461 1.316121600979641 -12.768462862811319 210 208 210
-4.457156569644311 1.3693960962972058 -12.749879201882717 207 200 202
-4.489022939813052 1.4318949012370923 -12.72143366310967 190 175 174
-4.533532484226567 1.5206117108104857 -12.665225752496433 166 140 136
-4.543859670517649 1.5385359732712671 -12.683021645073367 138 104 98
-4.544491597292787 1.536364717635518 -12.721997443978061 120 77 69
-4.557060311328752 1.5589326674881914 -12.734923968737366 110 62 54
-4.56601968852799 1.574018437211925 -12.755747495581149 105 55 48
-4.5834485358640045 1.6066741180651576 -12.757893803688084 102 52 44
-4.595502038409027 1.628184359620998 -12.771827837446441 103 49 40
-4.611799791412172 1.6585077061965205 -12.776304782637478 107 47 37
-4.626425973663865 1.6853683344280364 -12.784410508166797 104 40 29
-4.647237693195672 1.7250823008369869 -12.77862702799195 103 37 25
-4.6592188011128695 1.7464635771922161 -12.792474733686745 104 37 24
-4.6778478050893995 1.7816634037650325 -12.79134349460757 106 38 25
-4.683540879772515 1.7899832004236944 -12.819254424331088 107 41 25
-4.6965692366499745 1.8135513668111334 -12.830626070701094 107 44 27
-4.727883950895487 1.8751596987430141 -12.80045314983025 108 44 28
-4.784209909691363 1.988833823019712 -12.713037900663853 107 43 26
-4.78399043627996 1.9848809654036854 -12.754069459747246 109 45 27
-4.783690627116017 1.9807490149777078 -12.795422354179967 108 46 28
-4.769019572311929 1.9466772735462996 -12.869935566291705 104 45 31
-4.796743802794143 2.000889153975692 -12.847077625511162 99 43 32
-4.810133913541453 2.0252555039922915 -12.857098231917657 92 43 34
-4.796633692839038 1.9935780417603732 -12.929430774194653 87 45 39
-4.788252042694856 1.9725439136126077 -12.990187406313646 82 47 44
-4.785044876626271 1.96227925672842 -13.039127217935565 82 52 48
-4.793260538816172 1.9758292836045932 -13.06150857925364 83 54 50
-4.807270294079068 2.0014691976715038 -13.070300541053044 83 55 52
-4.7923087799031485 1.9666371584143416 -13.14728298188681 85 57 54
-4.850001817975766 2.083487047853035 -13.052914122674913 86 57 55
-4.860362463602164 2.101531462947867 -13.070047980810344 85 57 54
-4.864389922213962 2.1063443133169315 -13.102230507753346 85 57 54
-4.862857218318701 2.0995290340140476 -13.147759361916215 86 58 55
-4.868019006611515 2.106695823955097 -13.177431454438153 87 59 56
-4.874166802463444 2.115919109998793 -13.204801361200651 89 61 57
-4.880232932051156 2.1249671970897444 -13.232418396883663 91 64 58
-4.8813706509477175 2.123697260486029 -13.27199396056162 94 65 60
-4.8842654272939106 2.126094453438634 -13.307438410317584 98 69 63
-4.886805225267585 2.127739616788136 -13.343846840064398 97 68 63
-4.892481229414083 2.135944794335799 -13.372713660958826 97 70 65
-4.900102511223355 2.1482208096582056 -13.39688074078896 97 72 67
-4.901986790888451 2.148469673181162 -13.435157053251611 97 72 67
-4.902030407077143 2.144849107648514 -13.478083414509264 96 71 66
-4.901845136967744 2.1407357578311696 -13.521722734710172 94 69 65
-4.903479468332668 2.1404267820887153 -13.561006103198041 92 67 63
-4.906040903400736 2.1420527474194473 -13.598109752066328 93 68 64
-4.923906638941608 2.175797954297447 -13.597168740998294 91 66 61
-4.9283154138868195 2.1812946233239865 -13.629753407614995 90 64 59
-4.939010772858126 2.1999903731428123 -13.646647969398062 88 61 57
-4.940652474968633 2.199662494328052 -13.686311494398563 86 58 54
-4.934402320700359 2.182734543095204 -13.746026565207 83 55 50
-4.927173200413579 2.163726225337411 -13.808474373912375 97 60 55
-4.930435248289205 2.1667620990595 -13.84453744773133 117 74 64
-4.9261922519106305 2.1539974872300114 -13.899832148095289 114 71 56
-4.922173163695108 2.1416847787476825 -13.954779080775168 92 55 47
-4.918144678659963 2.1293331110389424 -14.009972401546257 118 90 87
-4.903409750814029 2.094411999337775 -14.092937165184487 113 86 82
-4.8937644645370835 2.0701799459100143 -14.163163990150714 113 85 79
-4.883726158278305 2.045092109011165 -14.234726618871466 111 82 76
-4.867044555360566 2.0059698088382323 -14.323871766449678 114 83 77
-4.852591183336232 1.9715092253091102 -14.407648066331035 101 68 62
-4.839365817160212 1.9396046852278976 -14.48861724340197 86 50 44
-4.825494440935435 1.906303570764445 -14.571665190660656 74 34 28
-4.815001585760191 1.8801008816371096 -14.646222955889098 72 29 21
-4.8021913854502465 1.8489745498529961 -14.727239434905098 72 26 18
-4.790566974519679 1.820320245404175 -14.805500594777516 70 23 15
-4.770451262740473 1.7736891601134372 -14.906678970929637 68 21 13
-4.762883684966904 1.7535418719907678 -14.974937495706502 71 24 16
-4.746327854677857 1.7143600148501452 -15.067520551107695 73 26 18
-4.762844079407705 1.7451046132086194 -15.071886318290058 71 24 16
-4.793318214399974 1.8053973710688744 -15.038602828463574 70 23 15
-4.803535744512946 1.8228360823756296 -15.05963236470959 69 22 15
-4.716245564944826 1.6337755842535806 -15.344607167912423 66 19 13
-4.797625698306913 1.8019007727518188 -15.173234683848918 66 19 13
-4.777576644992706 1.7551767553640607 -15.276946561393782 66 19 13
-4.796186376470686 1.790364359915241 -15.275536012636387 66 19 13
-4.769666749697633 1.7298555894470518 -15.39770856984286 66 19 13
-4.878499263007038 1.9564434903290007 -15.148259344262344 66 19 13
-4.880003224573672 1.9553994963646968 -15.193215971698795 66 20 13
-4.8369454033962285 1.8597358156195645 -15.361672032840598 65 21 12
-4.853334054529341 1.89024330525607 -15.365999825953368 66 22 13
-4.870242923583092 1.9218652902311355 -15.368771135824622 68 24 15
-4.899625499853181 1.9800082254128242 -15.336566048923299 69 25 14
-4.912032600118921 2.0020888570117332 -15.351611708582524 69 26 17
-4.910025947785073 1.993516380766022 -15.407158690702843 71 32 23
-4.914594687363179 1.9989149980179866 -15.44437445136882 74 36 27
-4.921191968150774 2.0086222879155207 -15.475952089598518 75 38 30
-4.925682404730656 2.0138377967340766 -15.513580143929307 76 40 33
-4.977629749416421 2.120127946799438 -15.4161188000597 76 41 35
-4.978077879825253 2.116749151661942 -15.46507876057013 77 42 36
-4.984172612165548 2.1253910740414543 -15.498029321561688 78 43 37
-4.99356918939457 2.1410671626529627 -15.52155969960858 78 45 38
-4.985755202210676 2.120028460641013 -15.594769750437113 80 46 39
-4.991086982407884 2.1270136766776266 -15.630260259625128 82 48 41
-4.996500606119974 2.134165584613032 -15.665606135004063 82 50 45
-4.853255430990204 1.8238336560422983 -16.13417608245438 82 54 50
-4.963105530415117 2.05396845122017 -15.865836156802011 83 56 52
-4.972062098101086 2.068632494075338 -15.891487432948061 85 61 55
-4.975351511268413 2.071177496474098 -15.933839012479726 87 66 61
-4.873018581508276 1.8477992067452966 -16.28805996006461 88 70 66
-5.062858568974819 2.249393105446674 -15.779327727704619 88 70 68
-4.939576609444327 1.9810422194791801 -16.19729648847823 87 70 68
-4.816369474491863 1.7126299721750646 -16.617611133441507 85 70 67
-4.680669757834359 1.417233726781097 -17.077858029551823 88 74 71
-4.7689230840724095 1.6015256429690128 -16.86920547053583 89 80 75
-4.738307585386099 1.5311104491613579 -17.016751341840205 93 86 80
-4.5807304321356614 1.1883320109370894 -17.54840003386779 99 90 86
-4.915171751988453 1.8961987798578335 -16.647779694886047 108 103 100
-4.944088526415596 1.9535595925607234 -16.61446655881842 116 111 108
-4.966578081683675 1.9971451865508358 -16.600450628630995 123 117 117
-4.975362922526759 2.0113002290026145 -16.62825148658456 131 125 125
-4.98026737916358 2.0171098445567486 -16.668036121037282 138 133 133
-4.992213782712801 2.038054328909963 -16.686189496002243 145 141 140
-4.987132715068147 2.0223655607650555 -16.757076869635974 149 148 146
-4.988586074903809 2.020714014802193 -16.807971532016634 153 152 150
-4.9886844689520675 2.016128526142162 -16.86328094704779 157 156 154
-5.000951336405976 2.0377372231168875 -16.88073445699325 162 160 161
-5.036083311257176 2.108624027436216 -16.82638195680218 166 164 167
-5.048892266620737 2.131426869903007 -16.841833333298908 169 167 170
-5.072606072383117 2.1777532658518126 -16.822786321896864 172 172 174
-5.096032073656297 2.223481816501992 -16.804383205646975 174 174 176
-5.109297099239083 2.2472994752148745 -16.818032405178865 177 177 179
-5.149480570833768 2.3292526467382224 -16.745734525828837 179 179 181
-5.16746289318753 2.363295261052417 -16.74389243741026 181 181 183
-5.2129049122481295 2.456700682106746 -16.65369855482675 182 182 184
-5.224213369920502 2.476364563430824 -16.672762391327858 183 183 185
-5.223828674254997 2.470735718048977 -16.72961462478493 184 184 186
-5.265969865335074 2.55711597830397 -16.648758738251605 185 185 187
-5.231315101545231 2.4772914770413594 -16.817151364503246 186 186 188
-5.300812705188199 2.6229693175870565 -16.64644365558926 187 187 189
-5.236174157271533 2.478103437501016 -16.913882551802924 188 188 190
-5.346268944012383 2.7118817710438474 -16.60864782502043 189 189 191
-5.352492449936487 2.720578505684232 -16.64377595462271 189 189 191
-5.204872267244893 2.395478164634331 -17.18798712853883 190 190 192
-5.406202169663386 2.822710693250829 -16.633016738911625 190 190 192
-5.33448932653897 2.662091289236683 -16.9285523890121 192 192 194
-5.549763420033964 3.1250716111663284 -16.26376007179921 192 192 194
-5.506513495761589 3.0263033102639145 -16.464011884367604 193 193 195
-5.466839790785676 2.935211692636047 -16.653388359502664 194 194 196
-5.442385721630575 2.8771467938086515 -16.792350230495472 194 194 196
-5.385519755074405 2.748442653429448 -17.042213696293935 195 195 197
-5.409251395146672 2.795173716802772 -17.018864918729278 195 195 198
-5.427748574360147 2.8305231933669672 -17.013119107618355 196 196 198
-5.4545337484850736 2.88395847332865 -16.9787510255858 197 197 197
-5.481780000269758 2.9384316605533876 -16.942422455840056 197 197 197
-5.503921764678081 2.9817988281574435 -16.923341398378952 198 198 198
-5.52086599458374 3.013841767675153 -16.92200498489915 198 198 198
-5.546853168624368 3.0656498854252607 -16.88906873328452 199 199 199
-5.537332174437086 3.0398946287774837 -16.97966932281417 199 199 199
-5.562402369086007 3.089724974508692 -16.94963049623776 199 199 199
-4.5988728358469935 0.9652505857271487 -20.5309197814063 201 201 201
-5.7713274822723575 3.5176033391490957 -16.553087515193624 203 203 203
-5.773847590610133 3.518243796753861 -16.600713486921425 203 203 203
-5.784452192425744 3.5267571029586007 -16.733671586763172 204 204 204
-5.853361526774059 3.6732388283318373 -16.540793828574763 204 204 204
-5.828253127956723 3.613125307292589 -16.68921198702283 205 205 205
-5.8841113197785475 3.731047470918064 -16.542330587845097 206 206 206
-5.855292295900895 3.6627036642876254 -16.70510600557592 206 206 206
-5.854653308943224 3.6563274159985415 -16.765068054371678 206 206 206
-9.109317954602387 10.475613996841464 -8.805371111167702 218 218 218
-9.119124512067577 10.496348299426057 -8.77921697557942 218 218 218
-9.126729842861668 10.51168833713082 -8.767514090786866 219 219 219
-9.171475956956254 10.618603368057492 -8.505500144782985 121 121 121
-9.180376585845961 10.637266121673829 -8.48357200097294 0 0 0
-9.189779045768473 10.657191899983289 -8.457963803178146 0 0 0
-3.970317673166155 0.46829189792542447 -13.275563403435289 211 212 214
-4.126907578246303 0.7864823791954887 -12.991289955359914 212 212 214
-4.162923586178101 0.8570399817285645 -12.9571952551558 210 211 213
-4.1987375389219075 0.9272107286537565 -12.92318483359065 210 211 212
-4.24258535664115 1.0139291715019985 -12.871934846064194 211 211 213
-4.250852715849932 1.0275046614233414 -12.895324691724241 212 210 213
-4.292143889944693 1.1090186137097797 -12.848827930249044 211 209 212
-4.335316017802244 1.194438170858814 -12.797921803128967 212 209 212
-4.3751056034348 1.2729321535410376 -12.753778733779296 209 208 209
-4.41481427472011 1.3512930560927034 -12.709409292327084 201 194 193
-4.445296956962574 1.4106862841166854 -12.684414823669954 178 157 157
-4.477089522590367 1.47280139430756 -12.656325338241016 149 115 112
-4.495786144545211 1.5079551797427762 -12.656183675096699 124 80 76
-4.515614343538092 1.5454517058711406 -12.653471074223106 111 60 54
-4.537244318257589 1.586674757470559 -12.64670950571755 104 51 43
