ply
format ascii 1.0
element vertex 857
property float x
property float y
property float z
property float nx
property float ny
property float nz
property uchar diffuse_red
property uchar diffuse_green
property uchar diffuse_blue
property uchar class
property uchar detection
end_header
-1.8963 4.3242 -13.5708 -0.092 0.912 0.399 27 7 6 0 0
-1.8950 4.3341 -13.5986 0.165 0.972 0.167 28 6 8 0 0
-1.8924 4.3610 -13.6082 -0.284 0.610 0.740 30 7 6 0 0
-1.8904 4.3817 -13.6244 -0.284 0.610 0.740 40 8 2 0 0
-1.8882 4.4029 -13.6400 -0.203 0.638 0.743 63 14 2 0 0
-1.8864 4.4192 -13.6609 0.018 0.540 0.841 95 53 25 0 0
-1.8825 4.4572 -13.6970 -0.008 0.725 0.689 91 54 37 0 0
-1.8803 4.4790 -13.7120 0.367 0.837 0.407 56 17 10 0 0
-1.8710 4.5097 -14.1123 0.239 0.638 0.732 81 31 15 0 0
-1.8611 4.5363 -14.5719 0.623 0.768 0.149 68 25 17 0 0
-1.8597 4.5461 -14.6020 0.481 0.805 0.347 44 9 4 0 0
-1.8579 4.5614 -14.6256 0.496 0.800 0.338 23 2 1 0 0
-1.8563 4.5760 -14.6503 0.453 0.821 0.349 25 4 2 0 0
-1.8554 4.5781 -14.6896 0.483 0.841 0.244 34 8 4 0 0
-1.8401 4.7096 -14.9124 0.201 -0.329 0.923 73 23 12 0 0
-1.8193 4.9519 -14.8703 0.152 0.641 0.752 79 29 13 0 0
-1.8167 4.9807 -14.8772 0.243 0.594 0.767 80 30 14 0 0
-1.8042 5.1120 -14.9265 0.201 0.759 0.620 99 52 39 0 0
-1.8023 5.1294 -14.9474 0.109 0.760 0.640 99 50 36 0 0
-1.8009 5.1397 -14.9774 -0.288 0.810 0.510 84 29 15 0 0
-1.7998 5.1463 -15.0122 -0.063 0.865 0.497 87 34 21 0 0
-1.7863 5.0681 -16.2482 0.929 0.364 0.064 28 9 7 0 0
-1.7683 5.1607 -16.8453 0.429 0.902 -0.058 108 100 95 0 0
-1.7679 5.1550 -16.9032 0.398 0.905 -0.149 120 116 113 0 0
-1.7639 5.1775 -17.0206 -0.350 0.038 0.936 157 157 159 0 0
-1.7393 5.4958 -16.8038 -0.288 -0.245 0.926 178 178 178 0 0
-1.7136 5.7829 -16.8229 -0.748 -0.107 0.655 200 201 203 0 0
-2.0563 2.4305 -12.4022 -0.396 0.511 0.763 123 50 33 0 0
-1.9838 3.2546 -12.4190 -0.291 0.495 0.818 123 49 31 0 0
-1.9507 3.6318 -12.4246 0.096 0.145 0.985 126 48 28 0 0
-1.9450 3.6947 -12.4362 -0.334 0.232 0.914 126 48 28 0 0
-1.9155 4.0233 -12.4763 -0.447 0.506 0.737 125 48 28 0 0
-1.8663 4.5101 -12.8493 0.290 0.866 0.408 86 58 49 0 0
-1.8641 4.5333 -12.8617 -0.008 0.657 0.754 51 29 24 0 0
-1.8684 4.3383 -13.5912 -0.484 0.690 0.538 27 7 6 0 0
-1.8668 4.3520 -13.6150 -0.057 0.702 0.709 29 6 3 0 0
-1.8607 4.4112 -13.6668 0.030 0.565 0.824 113 70 41 0 0
-1.8580 4.4406 -13.6734 0.029 0.361 0.932 98 67 36 0 0
-1.8564 4.4542 -13.6975 -0.250 0.506 0.825 83 44 31 0 0
-1.8460 4.4948 -14.0861 0.430 0.872 0.235 94 48 31 0 0
-1.8446 4.5050 -14.1147 0.335 0.735 0.589 73 24 10 0 0
-1.8365 4.5088 -14.5595 0.576 0.704 0.415 68 21 12 0 0
-1.8349 4.5220 -14.5856 0.594 0.689 0.414 56 17 11 0 0
-1.8332 4.5359 -14.6110 0.594 0.689 0.414 29 4 2 0 0
-1.8312 4.5559 -14.6291 0.445 0.778 0.443 23 3 1 0 0
-1.8294 4.5720 -14.6518 0.495 0.683 0.537 32 5 2 0 0
-1.8312 4.5112 -14.8508 0.559 0.778 0.287 57 16 9 0 0
-1.8255 4.5412 -15.0285 0.478 0.758 0.445 74 23 12 0 0
-1.8137 4.6841 -14.9833 -0.931 0.028 0.363 76 24 13 0 0
-1.8115 4.7072 -14.9979 -0.972 0.162 0.171 78 25 14 0 0
-1.7892 4.9883 -14.8645 0.029 0.819 0.573 81 30 13 0 0
-1.7659 5.1462 -15.4043 0.904 0.427 -0.008 47 41 41 0 0
-1.7576 5.0750 -16.2352 0.411 0.908 0.079 26 9 6 0 0
-1.7574 5.0655 -16.2958 -0.282 -0.034 0.959 32 13 9 0 0
-1.7552 5.0868 -16.3140 0.750 0.618 0.234 39 14 10 0 0
-1.7391 5.1389 -16.9726 0.336 0.928 0.161 141 139 138 0 0
-1.7201 5.3458 -17.0218 -0.185 -0.019 0.983 178 178 178 0 0
-1.9550 3.2832 -12.4256 -0.497 0.455 0.739 125 49 31 0 0
-1.9278 3.5989 -12.4174 0.015 0.327 0.945 125 47 27 0 0
-1.8920 4.0046 -12.4564 0.232 0.581 0.780 126 49 29 0 0
-1.8898 4.0261 -12.4709 0.286 0.760 0.583 127 50 30 0 0
-1.8883 4.0388 -12.4939 -0.173 0.407 0.897 128 50 31 0 0
-1.8536 4.4212 -12.5780 -0.129 0.466 0.875 143 69 37 0 0
-1.8689 3.9901 -13.7669 -0.574 0.808 0.134 29 11 10 0 0
-1.8438 4.3129 -13.6157 0.093 0.409 0.908 27 8 3 0 0
-1.8406 4.3502 -13.6141 -0.046 0.764 0.643 32 7 3 0 0
-1.8346 4.4072 -13.6682 0.172 0.757 0.630 114 69 38 0 0
-1.8323 4.4323 -13.6797 0.040 0.634 0.772 94 60 32 0 0
-1.8308 4.4441 -13.7056 0.253 0.672 0.696 70 27 18 0 0
-1.8266 4.4744 -13.7892 0.464 0.763 0.450 95 51 29 0 0
-1.8255 4.4356 -14.0299 0.237 0.636 0.735 74 29 21 0 0
-1.8232 4.4591 -14.0434 0.203 0.968 0.149 80 39 30 0 0
-1.8222 4.4627 -14.0794 0.098 0.928 0.359 97 54 41 0 0
-1.8203 4.4811 -14.0987 0.335 0.735 0.589 87 38 23 0 0
-1.8185 4.4975 -14.1202 0.335 0.735 0.589 63 13 3 0 0
-1.8109 4.4857 -14.5836 0.308 0.735 0.604 68 25 15 0 0
-1.8088 4.5058 -14.6016 0.190 0.636 0.748 39 7 3 0 0
-1.8066 4.5274 -14.6179 0.083 0.661 0.745 22 2 1 0 0
-1.8051 4.5388 -14.6462 0.459 0.827 0.326 27 3 0 0 0
-1.7822 4.7496 -14.8999 -0.955 0.103 0.278 77 24 13 0 0
-1.7846 4.7000 -15.0036 -0.516 0.818 -0.253 78 24 13 0 0
-1.7622 4.9898 -14.8595 0.039 0.883 0.468 83 29 13 0 0
-1.7604 5.0050 -14.8832 0.020 0.496 0.868 85 32 16 0 0
-1.7414 5.1271 -15.3371 0.701 0.664 -0.259 53 50 47 0 0
-1.7342 5.0100 -16.2735 0.414 0.298 0.860 20 7 6 0 0
-1.7298 5.0384 -16.3774 0.755 0.497 0.428 39 14 10 0 0
-1.7119 5.1247 -16.9395 0.475 0.879 0.037 130 127 124 0 0
-1.6832 5.4520 -16.9614 0.845 0.529 -0.074 183 183 183 0 0
-1.9540 2.9939 -12.4008 -0.292 0.681 0.672 124 48 32 0 0
-1.8727 3.9322 -12.4527 -0.454 0.448 0.771 128 50 30 0 0
-1.8651 4.0152 -12.4788 0.344 0.798 0.495 123 45 25 0 0
-1.8512 4.1829 -12.4573 -0.112 0.647 0.754 125 47 30 0 0
-1.8495 4.1977 -12.4781 -0.167 0.341 0.925 130 53 37 0 0
-1.8209 4.4518 -12.8313 0.431 0.510 0.745 95 60 49 0 0
-1.8188 4.4723 -12.8465 0.431 0.510 0.745 87 57 49 0 0
-1.8424 3.9967 -13.7180 -0.655 -0.040 0.755 22 6 6 0 0
-1.8390 4.0383 -13.7129 -0.695 -0.120 0.709 29 11 7 0 0
-1.8189 4.3018 -13.5863 0.607 0.179 0.774 27 7 5 0 0
-1.8085 4.4051 -13.6677 0.040 0.789 0.612 114 74 41 0 0
-1.8061 4.4297 -13.6796 0.115 0.714 0.691 93 57 32 0 0
-1.7999 4.4676 -13.8331 0.492 0.846 0.206 85 41 17 0 0
-1.7988 4.4355 -14.0271 0.114 0.856 0.504 78 33 22 0 0
-1.7969 4.4540 -14.0463 0.080 0.980 0.184 86 42 33 0 0
-1.7957 4.4609 -14.0784 -0.129 0.937 0.326 95 48 37 0 0
-1.7940 4.4750 -14.1025 0.400 0.703 0.588 74 25 11 0 0
-1.7906 4.4779 -14.2607 0.497 0.836 0.233 90 30 8 0 0
-1.7803 4.5145 -14.6299 0.330 0.694 0.641 22 3 1 0 0
-1.7787 4.5266 -14.6575 0.285 0.898 0.335 32 8 3 0 0
-1.7354 5.0138 -14.7415 -0.601 0.775 0.193 81 28 15 0 0
-1.7334 5.0061 -14.8787 -0.019 0.556 0.831 91 36 21 0 0
-1.7310 5.0319 -14.8892 -0.045 0.377 0.925 90 39 26 0 0
-1.7285 5.0593 -14.8977 0.144 0.548 0.824 114 66 54 0 0
-1.7263 5.0814 -14.9127 0.144 0.548 0.824 97 43 30 0 0
-1.7163 5.1055 -15.3176 0.757 0.611 -0.230 55 49 49 0 0
-1.7063 4.9699 -16.4205 0.460 0.634 0.622 32 10 8 0 0
-1.6851 5.1046 -16.9150 0.396 0.882 0.255 114 109 106 0 0
-1.6837 5.1115 -16.9549 0.460 0.880 0.121 132 131 129 0 0
-1.6822 5.1211 -16.9911 0.348 0.868 0.354 146 146 147 0 0
-1.6699 5.2685 -16.9772 -0.280 -0.200 0.939 171 171 173 0 0
-1.6387 5.6456 -16.9194 0.365 -0.272 0.890 198 198 200 0 0
-1.6280 5.7852 -16.8586 0.437 -0.324 0.839 203 204 206 0 0
-1.9272 2.9987 -12.3940 -0.292 0.681 0.672 123 47 31 0 0
-1.9106 3.1944 -12.3951 -0.547 0.819 0.173 123 47 28 0 0
-1.8259 4.1836 -12.4541 -0.112 0.647 0.754 125 48 30 0 0
-1.8227 4.2094 -12.4992 -0.230 0.196 0.953 139 69 57 0 0
-1.8070 4.3864 -12.5365 -0.231 0.561 0.795 163 96 77 0 0
-1.8051 4.4044 -12.5541 -0.026 0.588 0.808 152 83 54 0 0
-1.7984 4.4169 -12.8280 0.521 0.391 0.758 89 53 43 0 0
-1.7966 4.4336 -12.8472 0.143 0.058 0.988 94 62 52 0 0
-1.8093 4.0730 -13.7119 -0.346 -0.275 0.897 26 6 4 0 0
-1.7861 4.3677 -13.6281 0.519 0.724 0.455 75 19 4 0 0
-1.7803 4.4224 -13.6847 0.253 0.738 0.625 83 45 27 0 0
-1.7717 4.4440 -14.0146 0.365 0.865 0.346 81 39 25 0 0
-1.7681 4.4628 -14.1134 0.427 0.727 0.538 64 15 6 0 0
-1.7677 4.4414 -14.2183 0.438 0.888 -0.142 76 23 10 0 0
-1.7521 4.5163 -14.6666 0.408 0.829 0.382 40 11 4 0 0
-1.7490 4.4814 -14.9623 0.539 0.805 0.248 76 23 13 0 0
-1.7064 5.0060 -14.8757 -0.049 0.832 0.553 92 34 23 0 0
-1.7040 5.0328 -14.8848 0.112 0.694 0.712 107 60 49 0 0
-1.7018 5.0552 -14.8996 0.144 0.548 0.824 101 53 39 0 0
-1.7001 5.0695 -14.9245 0.492 0.504 0.709 85 28 16 0 0
-1.6813 4.9246 -16.4312 -0.107 0.829 0.549 22 8 6 0 0
-1.6710 5.0368 -16.4685 0.567 0.396 0.723 51 24 21 0 0
-1.6033 5.7205 -16.9534 0.342 -0.450 0.825 204 204 206 0 0
-1.9690 2.1941 -12.3442 -0.085 0.124 0.989 123 51 36 0 0
-1.9132 2.8526 -12.3794 0.129 0.397 0.909 124 51 34 0 0
-1.9011 2.9945 -12.3950 -0.327 0.574 0.751 123 47 31 0 0
-1.8005 4.1842 -12.4508 -0.112 0.647 0.754 127 51 30 0 0
-1.7816 4.3905 -12.5299 0.037 0.802 0.597 158 86 60 0 0
-1.7897 4.0100 -13.6208 0.141 0.990 -0.022 6 0 0 0 0
-1.7926 3.9498 -13.7230 -0.389 -0.209 0.897 16 7 6 0 0
-1.7456 4.4356 -14.0211 0.365 0.865 0.346 86 42 29 0 0
-1.7431 4.4473 -14.0879 0.361 0.925 0.120 75 23 12 0 0
-1.7419 4.4534 -14.1211 0.461 0.818 0.343 59 12 7 0 0
-1.7411 4.4379 -14.2192 0.422 0.898 -0.125 86 29 11 0 0
-1.7286 4.4845 -14.6173 0.209 0.713 0.670 23 4 3 0 0
-1.7187 4.4960 -15.0274 0.577 0.761 0.297 75 21 11 0 0
-1.6979 4.8123 -14.7713 -0.696 -0.334 0.636 78 25 12 0 0
-1.6811 4.9947 -14.8439 -0.026 0.949 0.315 90 35 20 0 0
-1.6795 5.0060 -14.8725 -0.231 0.734 0.639 98 47 34 0 0
-1.6772 5.0304 -14.8847 0.019 0.736 0.677 109 60 51 0 0
-1.6738 5.0588 -14.9348 0.522 0.627 0.578 88 39 25 0 0
-1.6545 4.9100 -16.3999 0.019 0.913 0.407 23 10 10 0 0
-1.6484 4.9640 -16.4696 0.260 0.679 0.687 49 27 24 0 0
-1.6368 5.0652 -16.6190 0.686 0.689 0.235 40 37 38 0 0
-1.6340 5.0765 -16.7008 0.483 0.856 0.184 60 43 40 0 0
-1.6286 5.0783 -16.9454 0.330 0.538 0.776 125 123 120 0 0
-1.9413 2.2020 -12.3350 -0.167 0.144 0.975 123 51 36 0 0
-1.9401 2.2086 -12.3646 0.286 0.677 0.679 123 51 36 0 0
-1.9091 2.5848 -12.3628 0.339 0.748 0.571 125 52 35 0 0
-1.9027 2.6609 -12.3677 0.035 0.378 0.925 123 50 33 0 0
-1.8633 3.1501 -12.3245 -0.049 0.441 0.896 124 49 31 0 0
-1.8611 3.1740 -12.3381 0.084 0.537 0.839 126 51 33 0 0
-1.8489 3.3057 -12.3947 0.099 0.447 0.889 124 47 29 0 0
-1.8235 3.6013 -12.4398 0.098 0.840 0.534 125 48 28 0 0
-1.7747 4.1811 -12.4864 0.196 0.397 0.897 139 65 52 0 0
-1.7680 3.9271 -13.7051 0.291 0.306 0.906 8 1 0 0 0
-1.7653 3.9576 -13.7118 -0.431 0.442 0.787 22 10 8 0 0
-1.7604 4.0109 -13.7333 -0.561 0.457 0.691 25 5 6 0 0
-1.7536 4.1120 -13.6646 -0.741 0.222 0.633 25 5 5 0 0
-1.7540 4.0908 -13.7261 -0.252 0.732 0.633 26 6 5 0 0
-1.7512 4.1240 -13.7295 -0.231 -0.024 0.973 28 7 5 0 0
-1.7354 4.3355 -13.6572 0.469 0.356 0.808 105 54 31 0 0
-1.7291 4.3990 -13.7045 0.413 0.880 0.235 50 9 8 0 0
-1.7219 4.3991 -14.0192 0.647 0.519 0.559 84 37 27 0 0
-1.7170 4.4380 -14.0953 0.361 0.925 0.120 67 18 7 0 0
-1.7029 4.4055 -14.8336 0.129 0.793 0.596 60 16 9 0 0
-1.6505 5.0274 -14.8853 0.020 0.850 0.526 85 34 21 0 0
-1.6400 4.8226 -16.0890 0.189 0.976 0.109 22 13 11 0 0
-1.6058 5.0665 -16.7114 0.371 0.927 -0.051 60 41 38 0 0
-1.6024 5.0455 -16.9389 0.213 0.468 0.858 114 108 105 0 0
-1.6002 5.0673 -16.9575 0.120 0.500 0.858 131 130 128 0 0
-1.9234 2.0790 -12.3640 -0.205 0.382 0.901 119 49 33 0 0
-1.9182 2.1491 -12.3411 0.009 0.036 0.999 121 49 34 0 0
-1.8835 2.5650 -12.3771 -0.108 0.908 0.406 124 51 34 0 0
-1.8475 3.0059 -12.3797 -0.437 0.496 0.750 124 48 32 0 0
-1.8248 3.2872 -12.3738 0.077 0.273 0.959 123 46 28 0 0
-1.7976 3.6028 -12.4357 0.222 0.819 0.529 126 49 29 0 0
-1.7612 4.0348 -12.4846 -0.234 0.754 0.613 123 46 27 0 0
-1.7510 4.1672 -12.4621 0.157 0.539 0.827 134 59 44 0 0
-1.7330 4.0221 -13.7184 -0.561 0.457 0.691 25 5 6 0 0
-1.7281 4.0773 -13.7375 -0.159 0.691 0.705 26 6 5 0 0
-1.7097 4.3238 -13.6669 0.469 0.356 0.808 113 66 38 0 0
-1.7080 4.3368 -13.6916 0.570 0.592 0.570 98 59 31 0 0
-1.7022 4.3919 -13.7482 0.447 0.860 0.247 60 14 10 0 0
-1.6911 4.4230 -14.1093 0.598 0.775 0.206 60 14 4 0 0
-1.6770 4.3944 -14.8012 0.506 0.509 0.696 55 14 7 0 0
-1.6226 5.0267 -14.9258 0.458 0.831 0.317 91 48 38 0 0
-1.5974 4.9069 -16.3971 -0.022 0.736 0.677 21 10 9 0 0
-1.5954 4.9246 -16.4207 -0.118 0.809 0.576 21 9 8 0 0
-1.5934 4.9421 -16.4446 0.081 0.775 0.627 21 10 9 0 0
-1.5914 4.9599 -16.4681 0.088 0.791 0.605 22 9 8 0 0
-1.5713 5.0635 -16.9593 0.120 0.500 0.858 136 136 135 0 0
-1.9041 1.9886 -12.3303 -0.016 0.279 0.960 119 50 35 0 0
-1.9013 2.0203 -12.3394 -0.016 0.279 0.960 119 49 33 0 0
-1.8985 2.0519 -12.3486 -0.016 0.279 0.960 119 50 34 0 0
-1.8952 2.0936 -12.3493 0.515 0.525 0.678 120 50 34 0 0
-1.7257 4.1678 -12.4589 -0.203 0.379 0.903 136 65 52 0 0
-1.7021 4.3371 -12.8623 0.405 0.272 0.873 93 62 54 0 0
-1.7060 4.0454 -13.6521 0.366 -0.402 0.839 23 5 5 0 0
-1.6929 4.1995 -13.6817 0.110 0.479 0.871 48 9 4 0 0
-1.6839 4.3129 -13.6758 0.414 0.466 0.782 109 66 33 0 0
-1.6502 4.3401 -14.9474 0.364 0.793 0.489 70 20 11 0 0
-1.6485 4.3534 -14.9743 0.533 0.722 0.440 73 23 12 0 0
-1.5987 5.0069 -14.8619 0.241 0.924 0.297 84 33 18 0 0
-1.5971 5.0171 -14.8919 0.203 0.870 0.450 91 44 34 0 0
-1.5942 5.0339 -14.9567 0.245 0.848 0.470 70 42 36 0 0
-1.5860 4.7652 -16.1585 0.528 0.846 0.076 16 7 5 0 0
-1.5834 4.7726 -16.2428 0.250 0.794 0.554 16 7 8 0 0
-1.5651 4.9355 -16.4502 0.179 0.734 0.655 18 8 8 0 0
-1.5422 5.0669 -16.9508 0.051 0.206 0.977 141 141 141 0 0
-1.5029 5.5633 -16.9241 -0.626 0.385 0.678 194 195 197 0 0
-1.7497 3.5667 -12.3937 -0.076 0.783 0.618 127 50 32 0 0
-1.7478 3.5842 -12.4126 -0.183 0.747 0.639 128 51 32 0 0
-1.7460 3.6012 -12.4320 -0.057 0.745 0.665 126 49 30 0 0
-1.7143 3.9965 -12.4457 0.138 0.446 0.884 118 41 23 0 0
-1.7104 4.0343 -12.4798 -0.240 0.507 0.828 119 45 28 0 0
-1.6832 3.9720 -13.7268 0.512 -0.250 0.822 25 6 6 0 0
-1.6598 4.2880 -13.6611 0.340 0.373 0.863 114 64 33 0 0
-1.6580 4.3037 -13.6829 0.552 0.613 0.565 109 65 33 0 0
-1.5580 4.7552 -16.1684 0.411 0.910 0.043 16 7 7 0 0
-1.5476 4.8249 -16.3585 0.415 0.778 0.471 17 6 6 0 0
-1.5456 4.8406 -16.3849 0.398 0.811 0.429 17 6 6 0 0
-1.5441 4.8480 -16.4226 0.432 0.825 0.364 17 7 7 0 0
-1.5271 5.0087 -16.5866 0.623 0.513 0.590 18 9 8 0 0
-1.7735 2.9292 -12.4043 0.034 0.076 0.997 122 46 30 0 0
-1.7204 3.5961 -12.4340 0.078 0.648 0.757 127 50 32 0 0
-1.6568 3.9630 -13.7335 0.727 0.323 0.605 26 6 5 0 0
-1.6340 4.2754 -13.6718 0.512 0.427 0.746 112 67 32 0 0
-1.6213 4.2970 -14.0812 -0.105 0.069 0.992 89 44 33 0 0
-1.6189 4.3243 -14.0908 0.506 0.753 0.420 99 49 34 0 0
-1.6111 4.3052 -14.4369 0.674 0.705 0.223 57 9 4 0 0
-1.4281 5.7491 -17.0394 0.739 -0.013 0.674 208 208 210 0 0
-1.7392 3.0398 -12.3743 0.071 0.278 0.958 123 47 31 0 0
-1.6752 3.8416 -12.4474 0.330 0.532 0.780 127 50 32 0 0
-1.6539 4.1056 -12.4762 -0.302 0.561 0.771 144 77 58 0 0
-1.6407 4.2713 -12.4907 -0.068 0.444 0.894 150 73 48 0 0
-1.6397 3.8515 -13.6923 0.705 0.577 0.412 9 0 0 0 0
-1.6301 3.9607 -13.7329 0.562 0.226 0.796 26 6 5 0 0
-1.5948 4.2908 -14.0851 0.036 0.623 0.781 98 49 37 0 0
-1.5930 4.3048 -14.1096 0.174 0.824 0.540 88 33 20 0 0
-1.5912 4.3204 -14.1322 0.362 0.879 0.312 68 16 6 0 0
-1.5889 4.3206 -14.2127 0.645 0.761 -0.068 70 19 5 0 0
-1.5853 4.2757 -14.4676 0.745 0.650 0.152 44 7 1 0 0
-1.4663 4.9203 -16.9496 0.547 0.821 -0.165 88 75 73 0 0
-1.4213 5.5357 -16.8541 -0.755 0.511 0.410 191 192 194 0 0
-1.6734 3.5436 -12.4072 -0.168 0.474 0.864 124 47 27 0 0
-1.6716 3.5592 -12.4278 -0.385 0.420 0.822 124 47 27 0 0
-1.6687 3.5970 -12.4279 0.004 0.233 0.972 124 47 27 0 0
-1.6497 3.8389 -12.4473 0.231 0.668 0.707 124 47 29 0 0
-1.6273 4.1107 -12.5038 -0.415 -0.262 0.872 162 100 85 0 0
-1.6135 3.8371 -13.7044 0.753 0.634 0.179 18 5 5 0 0
-1.6106 3.8514 -13.7673 0.753 0.634 0.179 28 8 6 0 0
-1.6091 3.8583 -13.7991 0.759 0.633 0.150 26 6 5 0 0
-1.5696 4.2787 -14.0557 -0.287 0.780 0.556 88 42 29 0 0
-1.5678 4.2944 -14.0782 0.070 0.913 0.401 102 53 38 0 0
-1.5664 4.2986 -14.1135 0.018 0.883 0.469 74 20 8 0 0
-1.5650 4.3053 -14.1462 0.188 0.969 0.157 60 12 3 0 0
-1.5589 4.2548 -14.4884 0.594 0.688 0.417 42 4 0 0 0
-1.5571 4.2690 -14.5134 0.466 0.824 0.322 62 21 17 0 0
-1.5555 4.2789 -14.5435 0.381 0.920 0.092 56 13 5 0 0
-1.4388 4.9123 -16.9076 0.508 0.835 -0.214 69 54 49 0 0
-1.3724 5.7188 -17.0784 0.689 0.121 0.715 207 207 209 0 0
-1.6874 3.0000 -12.4393 -0.156 0.724 0.672 120 44 28 0 0
-1.6481 3.5310 -12.4161 0.235 0.250 0.939 124 47 28 0 0
-1.6410 3.6143 -12.4444 0.216 0.384 0.898 129 51 34 0 0
-1.6241 3.8387 -12.4449 -0.112 0.938 0.327 123 45 26 0 0
-1.5904 4.2693 -12.4873 -0.018 0.437 0.899 155 83 54 0 0
-1.5876 3.8131 -13.7266 0.782 0.617 0.086 25 8 9 0 0
-1.5840 3.8417 -13.7745 0.709 0.635 0.307 26 6 6 0 0
-1.5747 3.9762 -13.7497 0.391 0.584 0.711 26 7 4 0 0
-1.5565 4.2344 -13.7073 0.185 0.490 0.852 101 53 24 0 0
-1.5463 4.2520 -14.0025 0.159 0.819 0.551 62 18 11 0 0
-1.5445 4.2671 -14.0256 -0.164 0.829 0.535 81 37 29 0 0
-1.5415 4.2820 -14.0890 0.053 0.992 0.112 94 46 31 0 0
-1.5331 4.2204 -14.5246 0.810 0.314 0.495 49 8 3 0 0
-1.5319 4.2185 -14.5682 0.754 0.450 0.478 69 23 20 0 0
-1.4574 4.6161 -16.0578 0.063 0.844 0.533 18 9 10 0 0
-1.4107 4.8824 -16.9461 0.550 0.805 -0.223 84 74 70 0 0
-1.4079 4.9239 -16.9372 -0.134 -0.043 0.990 112 108 106 0 0
-1.3960 5.0590 -16.9938 -0.072 -0.394 0.916 158 158 159 0 0
-1.3644 5.5378 -16.8436 -0.296 0.828 0.477 193 194 196 0 0
-1.3624 5.5571 -16.8649 -0.831 0.054 0.553 195 196 198 0 0
-1.8852 -0.0887 -12.6008 0.584 0.663 0.468 109 52 42 0 0
-1.6201 3.5547 -12.4267 -0.102 0.108 0.989 125 48 30 0 0
-1.6174 3.5887 -12.4304 -0.189 0.124 0.974 126 49 31 0 0
-1.5653 4.2675 -12.4865 0.109 0.586 0.803 158 84 50 0 0
-1.5631 3.7842 -13.7150 0.711 0.660 0.242 15 6 5 0 0
-1.5615 3.7933 -13.7444 0.711 0.660 0.242 26 9 9 0 0
-1.5388 4.1374 -13.6532 0.176 0.313 0.933 56 11 7 0 0
-1.5365 4.1647 -13.6628 0.176 0.313 0.933 83 27 7 0 0
-1.5324 4.2060 -13.6962 0.185 0.490 0.852 111 63 25 0 0
-1.5194 4.2552 -13.9960 0.159 0.691 0.705 68 24 16 0 0
-1.5179 4.2626 -14.0277 -0.224 0.624 0.748 89 46 36 0 0
-1.5146 4.2825 -14.0854 0.268 0.963 0.023 78 29 15 0 0
-1.5073 4.1793 -14.5685 0.627 0.515 0.585 60 20 14 0 0
-1.5053 4.1989 -14.5876 0.643 0.491 0.588 62 17 12 0 0
-1.5032 4.2187 -14.6064 0.643 0.491 0.588 85 45 31 0 0
-1.5009 4.2455 -14.6173 0.337 0.143 0.930 49 17 10 0 0
-1.4351 4.9575 -15.0336 0.479 0.771 0.420 60 48 44 0 0
-1.4343 4.6231 -15.8607 0.391 0.920 -0.032 109 105 102 0 0
-1.4286 4.6220 -16.0467 -0.379 0.672 0.636 17 7 8 0 0
-1.4267 4.6377 -16.0727 -0.349 0.767 0.538 16 8 8 0 0
-1.4247 4.6536 -16.0983 -0.263 0.820 0.509 40 32 30 0 0
-1.3815 4.8826 -16.9422 -0.130 -0.005 0.992 100 93 91 0 0
-1.3787 4.9241 -16.9332 -0.134 -0.043 0.990 120 118 117 0 0
-1.3554 5.2938 -16.8005 0.556 -0.134 0.820 169 169 169 0 0
-1.8563 -0.1062 -12.6109 0.675 0.469 0.569 110 53 43 0 0
-1.5941 3.5575 -12.4215 -0.032 0.266 0.963 125 48 30 0 0
-1.5916 3.5889 -12.4275 -0.102 0.108 0.989 124 47 29 0 0
-1.5402 4.2640 -12.4873 0.037 0.795 0.606 152 79 41 0 0
-1.5392 3.7386 -13.7206 0.605 0.234 0.761 9 1 1 0 0
-1.5369 3.7661 -13.7309 0.605 0.234 0.761 22 9 9 0 0
-1.5354 3.7711 -13.7646 0.744 0.601 0.292 24 6 6 0 0
-1.5258 3.9207 -13.7247 -0.376 0.244 0.894 26 6 5 0 0
-1.5124 4.1336 -13.6544 0.041 0.357 0.933 66 16 4 0 0
-1.5102 4.1592 -13.6659 0.176 0.313 0.933 99 43 15 0 0
-1.4943 4.2457 -13.9639 0.109 0.473 0.874 63 18 12 0 0
-1.4926 4.2557 -13.9925 -0.077 0.593 0.802 76 34 24 0 0
-1.4823 4.1496 -14.5578 0.570 0.704 0.424 48 7 1 0 0
-1.4763 4.2036 -14.6208 0.458 0.379 0.804 88 52 39 0 0
-1.4735 4.2462 -14.6134 0.322 -0.032 0.946 32 6 2 0 0
-1.4238 4.8555 -14.7719 0.287 0.938 0.194 109 60 43 0 0
-1.4221 4.8650 -14.8026 0.163 0.921 0.353 101 51 37 0 0
-1.4202 4.8798 -14.8269 0.525 0.830 0.191 91 37 26 0 0
-1.4192 4.8701 -14.8816 0.578 0.706 0.409 91 51 41 0 0
-1.4172 4.8887 -14.9013 0.416 0.843 0.340 86 56 47 0 0
-1.4156 4.8940 -14.9376 0.330 0.786 0.523 46 19 14 0 0
-1.4092 4.6154 -15.7758 0.391 0.920 -0.032 96 91 90 0 0
-1.4078 4.6131 -15.8244 0.391 0.920 -0.032 109 103 103 0 0
-1.4053 4.5982 -15.9354 -0.089 0.992 0.093 24 18 18 0 0
-1.3736 4.7473 -16.5869 0.206 0.518 0.830 51 28 26 0 0
-1.3692 4.7909 -16.6241 0.446 0.735 0.511 53 29 27 0 0
-1.3671 4.8069 -16.6507 0.413 0.715 0.564 44 23 23 0 0
-1.3497 4.9225 -16.9319 -0.055 0.018 0.998 129 127 128 0 0
-1.3353 5.1543 -16.8495 -0.235 -0.488 0.841 162 162 162 0 0
-1.8211 0.0322 -12.4707 -0.599 0.043 0.799 109 50 43 0 0
-1.8259 -0.0942 -12.5993 0.152 0.002 0.988 109 52 41 0 0
-1.6157 2.9027 -12.4117 0.150 0.242 0.959 120 45 28 0 0
-1.5920 3.2410 -12.3917 -0.223 0.846 0.484 122 46 30 0 0
-1.5683 3.5565 -12.4198 -0.151 0.145 0.978 126 49 31 0 0
-1.5168 4.2489 -12.4642 0.198 0.730 0.653 155 81 48 0 0
-1.5098 3.7674 -13.7267 -0.051 -0.145 0.988 23 6 6 0 0
-1.5041 3.8508 -13.7174 -0.121 -0.009 0.993 25 5 5 0 0
-1.4862 4.1258 -13.6599 0.150 0.342 0.928 80 26 6 0 0
-1.4839 4.1525 -13.6701 0.150 0.342 0.928 117 66 32 0 0
-1.4660 4.2517 -13.9940 0.107 0.965 0.239 85 42 32 0 0
-1.4563 4.1085 -14.6014 0.798 0.042 0.601 61 18 14 0 0
-1.3936 4.8673 -14.8392 0.626 0.763 0.161 90 46 34 0 0
-1.3920 4.8743 -14.8732 0.655 0.698 0.290 90 58 48 0 0
-1.3901 4.8895 -14.8971 0.671 0.575 0.469 67 36 30 0 0
-1.3818 4.9270 -15.0656 0.574 0.736 0.359 55 48 46 0 0
-1.3837 4.5745 -15.7793 -0.025 0.998 0.050 26 21 20 0 0
-1.3821 4.5755 -15.8237 -0.008 0.997 0.076 44 38 37 0 0
-1.3786 4.5946 -15.8907 -0.184 0.933 0.309 14 7 9 0 0
-1.3769 4.6002 -15.9294 -0.089 0.992 0.093 14 5 6 0 0
-1.3686 4.6217 -16.1334 0.221 0.935 0.276 41 29 29 0 0
-1.3469 4.7229 -16.5684 0.119 0.696 0.708 53 29 26 0 0
-1.3447 4.7433 -16.5888 0.119 0.696 0.708 46 23 20 0 0
-1.3231 4.8860 -16.9301 -0.104 0.009 0.995 122 118 118 0 0
-1.2850 5.4351 -16.8849 0.230 0.969 -0.086 189 191 190 0 0
-1.7957 -0.0579 -12.5338 0.028 0.516 0.856 109 51 41 0 0
-1.5895 2.8968 -12.4143 0.150 0.242 0.959 122 47 28 0 0
-1.5658 3.2428 -12.3874 0.136 0.423 0.896 123 47 31 0 0
-1.5635 3.2684 -12.3995 0.059 0.451 0.891 122 46 30 0 0
-1.4947 4.1986 -12.4756 0.055 0.365 0.929 153 73 44 0 0
-1.4820 3.7900 -13.7002 -0.119 -0.373 0.920 24 4 5 0 0
-1.4754 3.8645 -13.7391 0.376 0.713 0.592 26 6 4 0 0
-1.4712 3.9461 -13.6921 -0.051 0.795 0.604 28 4 5 0 0
-1.4693 3.9618 -13.7144 -0.190 0.159 0.969 28 5 6 0 0
-1.4599 4.1183 -13.6650 0.236 0.302 0.924 94 38 13 0 0
-1.4576 4.1457 -13.6745 0.236 0.302 0.924 116 73 34 0 0
-1.4428 4.2265 -13.9395 -0.167 0.399 0.901 52 12 4 0 0
-1.3555 4.5722 -15.7789 -0.230 0.971 0.061 13 6 7 0 0
-1.3538 4.5752 -15.8207 -0.230 0.971 0.061 15 7 7 0 0
-1.3521 4.5818 -15.8578 -0.003 0.979 0.204 15 7 8 0 0
-1.3503 4.5894 -15.8940 -0.003 0.979 0.204 14 5 6 0 0
-1.3467 4.6057 -15.9650 -0.219 0.953 0.208 17 7 7 0 0
-1.3417 4.6155 -16.0914 -0.160 0.964 0.211 39 27 27 0 0
-1.3273 4.6104 -16.5243 0.234 0.490 0.840 26 10 10 0 0
-1.3250 4.6380 -16.5352 0.012 0.415 0.910 28 13 11 0 0
-1.3226 4.6681 -16.5427 -0.146 0.538 0.830 36 16 14 0 0
-1.3139 4.7524 -16.6213 0.112 0.816 0.567 60 39 39 0 0
-1.3118 4.7704 -16.6452 0.184 0.806 0.562 47 25 25 0 0
-1.2724 5.1670 -16.9733 0.497 0.791 -0.358 174 174 176 0 0
-1.7649 -0.0322 -12.5123 0.338 0.241 0.910 109 51 40 0 0
-1.5814 2.6498 -12.3806 -0.397 0.306 0.866 121 48 31 0 0
-1.5610 2.9161 -12.4299 -0.110 0.518 0.848 124 49 32 0 0
-1.5373 3.2711 -12.3944 -0.105 0.614 0.783 124 48 32 0 0
-1.4747 4.1215 -12.4775 0.061 -0.119 0.991 142 67 43 0 0
-1.4707 4.1637 -12.5070 -0.159 0.365 0.917 152 74 43 0 0
-1.4444 3.9459 -13.6895 -0.051 0.795 0.604 27 6 5 0 0
-1.4341 4.0946 -13.6873 0.531 0.659 0.532 107 52 22 0 0
-1.3289 4.5694 -15.7336 0.006 1.000 0.014 42 41 43 0 0
-1.3273 4.5700 -15.7783 0.006 1.000 0.014 15 10 11 0 0
-1.3238 4.5813 -15.8551 -0.003 0.979 0.204 12 6 6 0 0
-1.3220 4.5889 -15.8912 -0.003 0.979 0.204 16 10 10 0 0
-1.3202 4.5968 -15.9270 -0.053 0.980 0.193 27 20 20 0 0
-1.3184 4.6041 -15.9637 -0.003 0.979 0.204 43 34 34 0 0
-1.3152 4.5998 -16.0619 -0.199 0.974 0.105 39 28 28 0 0
-1.3003 4.5988 -16.4883 0.192 0.601 0.776 26 11 10 0 0
-1.2629 4.8959 -16.9586 0.047 0.029 0.998 145 144 145 0 0
-1.5363 2.9015 -12.4050 -0.168 0.393 0.904 122 47 28 0 0
-1.5344 2.9172 -12.4263 -0.183 0.580 0.793 123 47 30 0 0
-1.5188 3.1670 -12.3802 -0.214 0.096 0.972 125 49 33 0 0
-1.5164 3.1989 -12.3866 -0.097 0.258 0.961 122 46 30 0 0
-1.5140 3.2291 -12.3945 -0.097 0.258 0.961 122 46 30 0 0
-1.5116 3.2590 -12.4027 -0.151 0.283 0.947 122 46 30 0 0
-1.4715 3.8124 -12.4539 -0.313 0.538 0.783 119 43 27 0 0
-1.4463 4.1382 -12.5292 0.006 0.503 0.864 145 68 30 0 0
-1.4297 3.7412 -13.7452 0.385 0.174 0.907 25 5 6 0 0
-1.4241 3.8297 -13.7308 0.302 -0.148 0.942 26 6 5 0 0
-1.4200 3.9182 -13.6770 -0.411 0.395 0.822 26 6 4 0 0
-1.4162 3.9475 -13.7237 -0.145 0.192 0.971 38 6 4 0 0
-1.3183 4.8237 -14.7559 0.246 0.964 -0.102 94 40 27 0 0
-1.3007 4.5692 -15.7305 0.006 1.000 0.014 56 56 57 0 0
-1.2990 4.5699 -15.7751 0.051 0.990 0.133 45 42 42 0 0
-1.2954 4.5825 -15.8503 0.084 0.974 0.211 42 39 38 0 0
-1.2936 4.5888 -15.8880 0.086 0.972 0.218 44 41 39 0 0
-1.2917 4.5975 -15.9227 0.120 0.989 0.092 51 46 46 0 0
-1.2865 4.6090 -16.0465 0.101 0.994 0.050 44 31 31 0 0
-1.2714 4.5930 -16.4925 0.081 0.647 0.759 25 10 10 0 0
-1.1924 5.5395 -16.8691 0.128 0.534 0.836 199 200 202 0 0
-1.1905 5.5419 -16.9156 0.166 0.762 0.626 201 202 204 0 0
-1.5103 2.8867 -12.4153 0.128 0.481 0.867 122 47 28 0 0
-1.4457 3.8171 -12.4469 -0.313 0.538 0.783 119 42 25 0 0
-1.4430 3.8608 -12.4406 -0.080 0.421 0.903 119 41 25 0 0
-1.4332 3.9589 -12.5233 0.578 0.508 0.639 148 92 80 0 0
-1.4313 3.9779 -12.5404 0.401 0.759 0.513 144 76 59 0 0
-1.3834 4.0556 -13.6841 0.374 0.457 0.807 102 54 23 0 0
-1.3405 4.1471 -14.6701 0.220 0.435 0.873 31 13 9 0 0
-1.3351 4.1144 -14.8763 0.868 0.352 0.351 55 14 8 0 0
-1.2918 4.8035 -14.7774 0.450 0.890 -0.072 85 34 19 0 0
-1.2689 4.5742 -15.8118 0.017 0.996 0.087 57 54 54 0 0
-1.2580 4.6085 -16.0437 -0.122 0.992 0.029 43 31 30 0 0
-1.2447 4.5660 -16.4772 0.219 0.606 0.765 22 10 9 0 0
-1.2426 4.5882 -16.4954 0.219 0.606 0.765 25 10 9 0 0
-1.2400 4.6312 -16.4856 0.192 0.440 0.877 30 12 11 0 0
-1.1598 5.5799 -16.9053 0.177 0.938 0.298 204 204 206 0 0
-1.5004 2.6731 -12.3527 -0.416 0.294 0.861 120 47 30 0 0
-1.4892 2.8061 -12.4129 0.152 0.287 0.946 123 48 29 0 0
-1.4867 2.8406 -12.4179 -0.093 0.665 0.741 123 48 29 0 0
-1.4839 2.8821 -12.4166 0.128 0.481 0.867 122 47 28 0 0
-1.4818 2.9065 -12.4304 0.128 0.481 0.867 122 47 26 0 0
-1.4305 3.6559 -12.4549 0.159 0.299 0.941 121 44 26 0 0
-1.4197 3.8323 -12.4299 -0.208 0.772 0.601 119 42 24 0 0
-1.4175 3.8595 -12.4393 0.042 0.275 0.961 120 42 26 0 0
-1.4148 3.9020 -12.4341 -0.523 0.586 0.619 122 49 29 0 0
-1.4080 3.9490 -12.5301 0.688 0.480 0.544 149 91 80 0 0
-1.3827 3.6476 -13.7196 0.747 0.650 -0.141 22 9 8 0 0
-1.2244 4.4817 -16.3948 0.469 0.466 0.750 15 5 4 0 0
-1.2180 4.5406 -16.4597 0.187 0.641 0.744 19 8 7 0 0
-1.2111 4.6294 -16.4845 0.028 0.500 0.865 41 21 20 0 0
-1.2089 4.6543 -16.4990 0.028 0.500 0.865 47 28 24 0 0
-1.2045 4.6980 -16.5361 0.283 0.589 0.757 59 38 35 0 0
-1.2024 4.7156 -16.5605 0.247 0.772 0.586 47 24 21 0 0
-1.1362 5.4820 -16.9473 -0.425 0.678 0.599 201 201 203 0 0
-1.1315 5.5690 -16.9179 -0.343 0.656 0.672 204 204 206 0 0
-1.4741 2.6611 -12.3604 0.177 0.585 0.792 120 47 30 0 0
-1.4689 2.7364 -12.3655 -0.307 0.305 0.901 123 47 31 0 0
-1.4380 3.1480 -12.4595 0.000 0.097 0.995 121 44 27 0 0
-1.4316 3.2662 -12.4234 -0.151 0.440 0.885 123 46 29 0 0
-1.4047 3.6583 -12.4500 -0.042 0.330 0.943 119 42 24 0 0
-1.3940 3.8370 -12.4228 0.321 0.709 0.628 119 42 24 0 0
-1.3913 3.8793 -12.4179 -0.323 0.614 0.720 119 43 25 0 0
-1.3889 3.9157 -12.4185 -0.314 0.721 0.618 121 48 29 0 0
-1.3871 3.9324 -12.4376 -0.174 0.703 0.689 128 61 44 0 0
-1.3577 3.6275 -13.6986 0.721 0.675 -0.154 10 1 1 0 0
-1.3564 3.6167 -13.7486 0.767 0.628 0.134 26 10 10 0 0
-1.2855 4.1413 -14.6706 -0.103 0.221 0.970 12 3 2 0 0
-1.2821 4.1460 -14.7490 0.111 0.992 -0.054 26 8 5 0 0
-1.2833 4.0087 -14.9499 0.828 0.561 -0.013 45 13 8 0 0
-1.1999 4.4331 -16.3602 0.571 0.760 0.311 14 8 6 0 0
-1.1978 4.4493 -16.3864 0.396 0.745 0.537 15 4 5 0 0
-1.1957 4.4656 -16.4125 0.088 0.835 0.543 14 4 3 0 0
-1.1939 4.4556 -16.4734 0.323 0.794 0.515 15 4 4 0 0
-1.1736 4.7098 -16.5649 0.247 0.772 0.586 42 20 17 0 0
-1.4289 2.8992 -12.4316 -0.070 0.701 0.709 121 46 25 0 0
-1.4269 2.9186 -12.4496 -0.005 0.857 0.514 122 47 28 0 0
-1.4246 2.9494 -12.4577 0.440 0.734 0.518 125 49 32 0 0
-1.3862 3.5493 -12.4431 -0.385 0.310 0.869 123 44 27 0 0
-1.3685 3.8316 -12.4253 0.193 0.524 0.829 118 41 23 0 0
-1.3655 3.8923 -12.4030 -0.221 0.691 0.688 121 45 27 0 0
-1.3636 3.9105 -12.4208 -0.221 0.691 0.688 122 49 31 0 0
-1.3617 3.9273 -12.4399 -0.237 0.649 0.723 131 65 50 0 0
-1.3329 3.5961 -13.6892 0.747 0.664 -0.034 7 1 1 0 0
-1.3315 3.5903 -13.7339 0.726 0.687 0.016 18 7 6 0 0
-1.3195 3.7673 -13.7454 -0.152 -0.039 0.988 27 6 5 0 0
-1.3160 3.8491 -13.6989 0.186 0.049 0.981 31 5 5 0 0
-1.3136 3.8872 -13.6979 0.434 0.304 0.848 37 7 7 0 0
-1.2831 4.1992 -13.9517 -0.026 0.106 0.994 105 63 53 0 0
-1.2635 4.0287 -14.7125 0.333 -0.184 0.925 103 65 55 0 0
-1.2581 4.1336 -14.6763 0.199 0.046 0.979 11 5 6 0 0
-1.2546 4.1429 -14.7495 0.111 0.992 -0.054 29 10 7 0 0
-1.2130 4.7741 -14.7615 -0.490 0.659 0.571 88 36 22 0 0
-1.2121 4.7233 -14.8658 0.673 0.737 0.064 92 49 36 0 0
-1.2029 4.6450 -15.2211 0.111 0.961 -0.254 64 46 43 0 0
-1.2000 4.7209 -15.1704 0.473 0.854 -0.218 53 42 40 0 0
-1.1709 4.4273 -16.3643 0.135 0.683 0.718 13 6 5 0 0
-1.1686 4.4629 -16.3650 0.030 0.597 0.801 14 4 5 0 0
-1.1667 4.4629 -16.4126 -0.102 0.874 0.475 14 4 3 0 0
-1.1533 4.6220 -16.4875 0.128 0.664 0.737 40 19 18 0 0
-1.1447 4.7013 -16.5729 -0.050 0.732 0.680 35 17 14 0 0
-1.4240 2.5963 -12.3756 0.175 0.396 0.901 124 48 32 0 0
-1.4024 2.8992 -12.4289 -0.070 0.701 0.709 121 45 29 0 0
-1.3980 2.9525 -12.4523 -0.457 0.557 0.694 125 49 33 0 0
-1.3882 3.1003 -12.4617 -0.179 0.780 0.599 122 45 29 0 0
-1.3864 3.1138 -12.4849 -0.074 0.848 0.525 122 45 29 0 0
-1.3687 3.3945 -12.4773 0.276 0.166 0.947 122 44 27 0 0
-1.3400 3.8946 -12.3982 -0.258 0.529 0.809 128 52 38 0 0
-1.3380 3.9134 -12.4154 -0.221 0.691 0.688 124 52 39 0 0
-1.3062 3.5754 -13.7074 0.650 0.758 0.057 12 3 2 0 0
-1.3046 3.5764 -13.7452 0.642 0.754 0.139 27 10 10 0 0
-1.2870 3.8753 -13.7075 0.203 0.036 0.979 50 8 6 0 0
-1.2776 4.0233 -13.7068 0.411 0.565 0.715 99 48 21 0 0
-1.2588 4.1543 -13.9582 0.340 0.315 0.886 102 55 43 0 0
-1.1849 4.7248 -14.8608 0.358 0.917 -0.176 92 51 43 0 0
-1.1771 4.6408 -15.1794 -0.052 0.978 -0.203 68 46 44 0 0
-1.1418 4.4371 -16.3479 -0.687 0.585 0.432 11 2 3 0 0
-1.1200 4.6700 -16.5153 -0.031 0.529 0.848 42 19 18 0 0
-1.0972 4.7458 -16.9487 0.144 0.654 0.742 142 140 140 0 0
-1.3781 2.8702 -12.4166 -0.218 0.420 0.881 123 47 31 0 0
-1.3758 2.9029 -12.4230 -0.254 0.709 0.658 121 45 29 0 0
-1.3635 3.0936 -12.4299 -0.138 0.908 0.395 122 45 29 0 0
-1.3618 3.1020 -12.4575 -0.227 0.698 0.679 122 45 29 0 0
-1.3579 3.1388 -12.4951 -0.340 0.384 0.858 121 44 28 0 0
-1.3150 3.8737 -12.4154 -0.029 0.216 0.976 124 53 38 0 0
-1.3130 3.8931 -12.4321 0.000 0.330 0.944 127 63 51 0 0
-1.2603 3.8697 -13.7104 0.106 0.046 0.993 62 11 3 0 0
-1.2570 3.9608 -13.6536 0.592 0.708 0.386 86 27 6 0 0
-1.2493 4.0184 -13.7480 0.456 0.775 0.438 54 13 6 0 0
-1.2321 4.1452 -13.9651 0.340 0.315 0.886 104 61 49 0 0
-1.0998 4.5833 -16.4365 -0.254 0.582 0.773 36 17 15 0 0
-1.0681 4.7124 -16.9917 0.213 0.666 0.715 146 144 146 0 0
-1.0436 5.1575 -16.9079 -0.232 -0.167 0.958 182 182 184 0 0
-1.3899 2.3090 -12.3331 0.721 0.041 0.692 121 49 34 0 0
-1.3813 2.4073 -12.3908 -0.314 0.465 0.827 122 49 32 0 0
-1.3410 3.0613 -12.3858 0.048 0.983 0.176 122 46 30 0 0
-1.3354 3.1063 -12.4511 -0.390 0.626 0.675 120 43 27 0 0
-1.3339 3.1008 -12.4913 -0.599 0.654 0.462 119 42 26 0 0
-1.3320 3.1171 -12.5120 -0.599 0.654 0.462 121 44 28 0 0
-1.2773 4.0219 -12.4822 -0.183 0.772 0.608 149 71 36 0 0
-1.2545 3.5241 -13.7152 -0.085 -0.071 0.994 10 1 1 0 0
-1.2325 3.9303 -13.6441 0.658 0.576 0.486 77 17 4 0 0
-1.0818 4.4499 -16.3716 -0.035 0.556 0.830 13 4 4 0 0
-1.0753 4.5160 -16.4271 0.096 0.613 0.784 29 13 11 0 0
-1.0709 4.5816 -16.4352 -0.137 0.781 0.610 36 16 15 0 0
-1.0409 4.6911 -16.9680 0.419 0.629 0.655 144 142 144 0 0
-1.3564 2.3831 -12.3735 -0.115 0.317 0.942 123 50 34 0 0
-1.3542 2.4130 -12.3833 -0.115 0.317 0.942 124 51 34 0 0
-1.3234 2.8763 -12.4411 0.422 0.794 0.437 121 45 29 0 0
-1.3128 3.0741 -12.4068 0.023 0.806 0.592 122 46 30 0 0
-1.2558 3.9786 -12.4507 0.064 0.049 0.997 139 71 49 0 0
-1.2275 3.5175 -13.7190 -0.218 -0.073 0.973 20 7 6 0 0
-1.1830 4.0715 -13.9601 0.272 0.354 0.895 91 46 34 0 0
-1.1020 4.6630 -14.9695 0.351 0.936 0.036 66 38 33 0 0
-1.0441 4.5721 -16.3967 0.072 0.806 0.588 33 16 13 0 0
-1.0420 4.5723 -16.4442 -0.108 0.628 0.770 34 16 14 0 0
-1.0398 4.5990 -16.4562 0.047 0.752 0.658 34 16 15 0 0
-1.0376 4.6204 -16.4755 0.369 0.664 0.650 35 15 15 0 0
-1.0116 4.6604 -17.0070 0.487 0.475 0.733 148 146 150 0 0
-0.9858 5.0969 -16.9879 0.552 0.242 0.798 183 183 185 0 0
-1.3246 2.4613 -12.3749 -0.414 0.622 0.665 123 50 35 0 0
-1.3226 2.4792 -12.3948 -0.514 0.517 0.685 122 48 33 0 0
-1.3197 2.5418 -12.3766 0.001 0.193 0.981 123 47 31 0 0
-1.3010 2.8302 -12.4085 -0.010 0.883 0.470 122 46 30 0 0
-1.2991 2.8430 -12.4325 -0.010 0.883 0.470 121 45 29 0 0
-1.2002 3.5229 -13.7106 -0.085 -0.071 0.994 30 15 13 0 0
-1.1946 3.5457 -13.8041 0.268 0.626 0.732 23 5 5 0 0
-1.1920 3.6026 -13.7845 -0.390 0.638 0.664 25 6 4 0 0
-1.1795 3.8975 -13.6727 0.635 0.600 0.486 101 47 17 0 0
-1.1582 4.0403 -13.9514 0.092 0.495 0.864 79 35 26 0 0
-1.1527 4.0518 -14.0581 0.500 0.812 -0.301 107 71 62 0 0
-1.1497 3.9859 -14.2104 0.588 0.777 -0.225 106 69 60 0 0
-1.1148 3.8447 -15.1635 0.774 0.632 -0.041 53 13 6 0 0
-1.0366 4.5394 -15.9672 0.360 0.707 0.609 20 9 9 0 0
-1.0260 4.4735 -16.2863 0.714 0.658 0.240 34 28 26 0 0
-1.0173 4.5075 -16.4313 0.046 0.691 0.722 31 16 13 0 0
-1.0152 4.5660 -16.4013 -0.003 0.838 0.546 32 16 13 0 0
-1.2977 2.4623 -12.3714 -0.330 0.873 0.359 122 49 34 0 0
-1.2930 2.5340 -12.3806 0.120 0.132 0.984 123 47 31 0 0
-1.2789 2.7610 -12.3958 -0.078 0.446 0.892 122 46 30 0 0
-1.1753 3.4764 -13.7162 0.330 0.092 0.940 16 6 6 0 0
-1.1731 3.5106 -13.7203 0.330 0.092 0.940 30 14 12 0 0
-1.1710 3.5417 -13.7274 0.421 0.158 0.893 22 5 3 0 0
-1.1672 3.5556 -13.7910 -0.460 0.682 0.569 23 5 5 0 0
-1.1550 3.8485 -13.6822 0.512 0.499 0.699 87 31 7 0 0
-1.1432 3.9373 -13.8226 0.443 0.668 0.597 86 43 20 0 0
-1.1313 4.0368 -13.9523 0.092 0.495 0.864 87 43 34 0 0
-1.1293 4.0624 -13.9642 0.433 0.543 0.720 100 59 50 0 0
-1.1257 4.0450 -14.0625 0.164 0.952 0.257 106 71 62 0 0
-1.0999 3.9240 -14.7708 0.688 0.511 0.515 105 72 67 0 0
-1.0889 3.7584 -15.2168 0.219 -0.477 0.851 31 10 7 0 0
-1.0865 3.8205 -15.1883 0.550 0.103 0.829 47 13 8 0 0
-1.0844 3.8454 -15.2029 0.305 -0.055 0.951 58 16 8 0 0
-1.0495 4.6032 -14.9931 0.846 0.494 0.202 90 61 56 0 0
-1.0475 4.6138 -15.0232 0.671 0.740 0.056 51 22 20 0 0
-1.0434 4.6448 -15.0715 0.546 0.600 0.584 55 27 24 0 0
-1.0271 4.5699 -15.5163 0.268 0.890 0.368 16 8 9 0 0
-1.0250 4.5525 -15.5829 0.581 0.790 0.193 13 5 6 0 0
-1.0081 4.5312 -15.9744 0.360 0.707 0.609 20 9 9 0 0
-0.9905 4.4882 -16.4057 -0.004 0.723 0.691 31 16 13 0 0
-0.9884 4.5042 -16.4322 -0.095 0.620 0.779 29 14 11 0 0
-1.2711 2.4440 -12.3843 0.042 0.647 0.761 122 49 34 0 0
-1.1655 3.8665 -12.8731 -0.221 0.941 0.256 95 60 53 0 0
-1.1481 3.4783 -13.7115 0.314 0.338 0.887 25 13 12 0 0
-1.1440 3.5189 -13.7477 0.548 0.319 0.773 22 5 3 0 0
-1.1421 3.5196 -13.7860 0.658 0.706 0.261 22 5 6 0 0
-1.1400 3.5507 -13.7932 -0.069 0.641 0.765 24 6 6 0 0
-1.1165 3.9238 -13.8340 0.524 0.630 0.573 103 69 40 0 0
-1.1006 4.0422 -14.0228 0.495 0.868 0.039 107 73 65 0 0
-1.0987 4.0427 -14.0621 0.466 0.883 0.053 105 69 60 0 0
-1.0741 3.8935 -14.7602 0.350 0.779 0.519 92 63 61 0 0
-1.0720 3.9264 -14.7650 0.574 0.818 0.037 106 73 66 0 0
-1.0538 3.8867 -15.1950 0.069 -0.455 0.888 69 20 12 0 0
-1.0474 3.9758 -15.2212 -0.498 0.312 0.809 73 21 10 0 0
-1.0221 4.6170 -14.9731 -0.692 0.722 -0.019 87 59 55 0 0
-1.0160 4.6405 -15.0737 0.209 0.978 0.028 54 27 24 0 0
-0.9103 4.8037 -17.0949 -0.077 -0.177 0.981 173 173 173 0 0
-1.1395 3.8706 -12.8663 -0.603 0.641 0.474 96 63 57 0 0
-1.1376 3.8883 -12.8853 -0.551 0.780 0.296 68 41 39 0 0
-1.1188 3.4955 -13.7299 0.358 0.567 0.742 22 6 6 0 0
-1.1149 3.5170 -13.7857 0.391 0.836 0.383 23 5 5 0 0
-1.1128 3.5403 -13.8009 -0.544 0.604 0.582 25 7 5 0 0
-1.0737 4.0184 -14.0456 0.420 0.908 -0.006 104 71 60 0 0
-1.0297 3.8012 -15.2043 0.596 0.499 0.629 16 4 4 0 0
-1.0171 4.0081 -15.2234 0.428 0.608 0.668 74 21 9 0 0
-0.9685 4.4438 -15.7134 0.573 0.814 -0.100 9 5 4 0 0
-0.9552 4.4582 -15.9691 0.064 0.620 0.782 22 12 11 0 0
-0.9071 4.5378 -16.8645 0.660 0.741 0.126 121 117 116 0 0
-0.8885 4.8258 -16.9104 0.019 0.522 0.853 167 166 166 0 0
-0.8751 5.1100 -16.8548 0.674 -0.010 0.738 183 184 186 0 0
-0.8731 5.1437 -16.8561 0.674 -0.010 0.738 186 187 189 0 0
-0.8685 5.1646 -16.9255 0.637 0.175 0.751 191 191 193 0 0
-1.1709 3.2247 -12.4344 0.215 0.451 0.866 118 43 24 0 0
-1.1671 3.2544 -12.4781 0.244 0.702 0.669 121 46 27 0 0
-1.1135 3.8778 -12.8565 -0.715 0.507 0.482 86 57 53 0 0
-1.0997 3.4255 -13.6429 0.544 0.764 0.346 7 1 1 0 0
-1.0978 3.4207 -13.6864 0.145 0.652 0.744 9 1 1 0 0
-1.0958 3.4391 -13.7066 0.119 0.751 0.649 18 7 7 0 0
-1.0937 3.4561 -13.7282 0.225 0.703 0.675 24 9 8 0 0
-1.0390 3.8365 -14.4029 0.635 0.772 -0.012 109 70 61 0 0
-1.0225 3.9209 -14.6394 0.196 0.967 -0.164 92 63 57 0 0
-1.0184 3.8731 -14.7770 0.732 0.361 0.578 93 64 60 0 0
-1.0033 3.6860 -15.2907 0.715 0.692 -0.095 2 2 2 0 0
-0.9991 3.7674 -15.2837 0.365 -0.396 0.843 14 3 2 0 0
-0.9402 4.4546 -15.6963 0.545 0.838 -0.030 10 4 4 0 0
-0.8779 4.5498 -16.8444 0.703 0.683 0.197 128 125 124 0 0
-0.8645 4.6546 -16.9967 0.195 0.200 0.960 160 160 162 0 0
-0.8533 4.9188 -16.9248 0.052 -0.067 0.996 176 176 178 0 0
-0.8490 4.9642 -16.9598 0.297 -0.057 0.953 179 180 182 0 0
-1.1467 3.2019 -12.4172 -0.065 0.347 0.936 120 45 26 0 0
-1.1178 3.6815 -12.4697 0.130 0.420 0.898 119 47 33 0 0
-1.0894 3.8699 -12.8252 -0.473 0.436 0.766 94 65 60 0 0
-1.0874 3.9026 -12.8295 -0.531 0.298 0.794 51 31 31 0 0
-1.0705 3.4204 -13.6838 0.326 0.863 0.386 14 3 4 0 0
-1.0685 3.4300 -13.7129 0.295 0.803 0.518 21 8 8 0 0
-1.0665 3.4528 -13.7286 -0.184 0.783 0.595 20 6 5 0 0
-1.0645 3.4674 -13.7527 -0.166 0.831 0.531 20 4 4 0 0
-1.0624 3.5103 -13.7478 0.350 0.196 0.916 22 5 5 0 0
-1.0519 3.7511 -13.6944 0.174 0.260 0.950 82 26 6 0 0
-1.0258 3.9767 -13.9656 0.405 0.794 0.453 103 62 54 0 0
-1.0217 3.9923 -14.0282 0.467 0.884 0.001 106 71 64 0 0
-1.0197 3.8790 -14.1910 0.655 0.753 -0.058 108 71 61 0 0
-1.0029 3.6935 -14.7233 0.386 0.845 -0.371 101 67 61 0 0
-1.0010 3.8273 -14.6161 0.576 -0.072 0.814 100 67 62 0 0
-0.9986 3.7005 -14.7995 0.494 0.868 -0.055 98 67 62 0 0
-0.9967 3.8183 -14.7097 -0.454 0.890 0.031 94 63 58 0 0
-0.9904 3.8524 -14.7973 0.858 0.324 0.398 94 64 62 0 0
-0.9091 4.3963 -15.8120 0.319 0.948 0.012 12 4 5 0 0
-0.9068 4.3944 -15.8600 0.284 0.956 0.068 12 4 5 0 0
-0.8526 4.4833 -16.8330 0.618 0.787 -0.001 118 115 114 0 0
-0.8263 4.8904 -16.9115 0.008 0.233 0.973 176 176 177 0 0
-0.8223 4.9522 -16.9235 0.273 0.070 0.959 178 179 181 0 0
-1.3072 -0.4061 -12.5576 0.002 -0.351 0.936 103 59 55 0 0
-1.3037 -0.3103 -12.5252 0.121 -0.151 0.981 103 53 46 0 0
-1.1441 2.7635 -12.4157 0.279 0.270 0.922 121 45 29 0 0
-1.1166 3.2445 -12.4465 -0.232 0.407 0.884 121 46 27 0 0
-1.1146 3.2653 -12.4629 0.289 0.592 0.752 121 46 27 0 0
-1.1127 3.2799 -12.4849 0.241 0.468 0.850 123 48 29 0 0
-1.1084 3.3793 -12.4648 0.103 0.260 0.960 114 39 22 0 0
-1.0919 3.6990 -12.4507 0.133 0.831 0.540 126 55 39 0 0
-1.0899 3.7348 -12.4523 0.418 0.759 0.499 141 75 57 0 0
-1.0655 3.8436 -12.8120 0.185 0.854 0.487 94 61 53 0 0
-1.0615 3.9029 -12.8265 -0.448 0.350 0.823 15 4 4 0 0
-1.0474 3.3587 -13.6657 0.451 0.892 0.037 6 0 0 0 0
-1.0413 3.4153 -13.7249 0.090 0.843 0.530 18 5 5 0 0
-1.0129 3.8287 -13.8444 0.604 0.648 0.464 109 71 41 0 0
-1.0008 3.9341 -13.9688 0.580 0.752 0.314 98 51 41 0 0
-0.9945 3.8880 -14.1381 0.469 0.881 0.064 106 71 63 0 0
-0.9924 3.8897 -14.1764 0.469 0.881 0.064 109 71 62 0 0
-0.9902 3.8559 -14.2535 0.240 0.923 -0.301 109 69 60 0 0
-0.9731 3.8066 -14.6361 0.527 -0.094 0.844 100 67 62 0 0
-0.9684 3.7241 -14.8121 0.200 0.968 0.148 95 64 59 0 0
-0.9504 3.6622 -15.2246 0.358 0.851 -0.385 11 3 3 0 0
-0.9222 4.4252 -14.9775 -0.213 0.952 -0.219 85 29 16 0 0
-0.9194 4.3668 -15.0906 -0.804 0.219 0.554 93 43 29 0 0
-0.8858 4.4301 -15.6753 0.657 0.748 0.089 18 7 8 0 0
-0.8804 4.3740 -15.8368 -0.068 0.998 -0.004 17 7 8 0 0
-0.8783 4.3910 -15.8610 0.136 0.991 0.001 16 7 7 0 0
-0.8735 4.3919 -15.9517 0.135 0.990 0.052 16 6 7 0 0
-0.8238 4.5189 -16.7812 0.655 0.727 0.205 126 123 121 0 0
-0.8115 4.5467 -16.9895 0.027 0.000 1.000 156 157 158 0 0
-1.2738 -0.3115 -12.5233 0.083 -0.094 0.992 102 53 45 0 0
-1.1734 1.6587 -12.4562 -0.437 0.481 0.760 116 50 36 0 0
-1.1263 2.5678 -12.4413 0.192 0.307 0.932 121 48 31 0 0
-1.0943 3.2162 -12.3991 -0.053 0.778 0.626 122 45 27 0 0
-1.0924 3.2257 -12.4257 0.163 0.616 0.771 125 48 30 0 0
-1.0906 3.2111 -12.4741 -0.007 0.276 0.961 124 47 29 0 0
-1.0886 3.2492 -12.4748 -0.186 0.245 0.951 122 47 26 0 0
-1.0866 3.2778 -12.4842 -0.146 0.208 0.967 123 48 29 0 0
-1.0844 3.3414 -12.4615 0.095 0.150 0.984 120 44 28 0 0
-1.0683 3.6399 -12.4680 -0.235 0.306 0.923 123 50 32 0 0
-1.0663 3.6926 -12.4541 0.397 0.820 0.412 134 64 47 0 0
-1.0623 3.7752 -12.4469 -0.298 0.335 0.894 146 77 56 0 0
-1.0395 3.8511 -12.8020 0.018 0.225 0.974 91 60 53 0 0
-1.0180 3.3625 -13.6976 -0.134 0.142 0.981 14 5 6 0 0
-0.9858 3.8167 -13.8541 0.527 0.689 0.498 108 69 43 0 0
-0.9625 3.7919 -14.3201 0.434 0.901 0.001 112 71 61 0 0
-0.9446 3.6964 -14.7557 0.257 0.957 -0.132 99 66 61 0 0
-0.9423 3.6901 -14.8049 0.218 0.974 0.068 98 67 62 0 0
-0.9247 3.7442 -15.0842 0.223 0.857 -0.465 92 67 63 0 0
-0.8943 4.3927 -15.0132 0.258 0.953 -0.156 86 30 15 0 0
-0.8920 4.3897 -15.0599 0.189 0.907 0.377 91 43 28 0 0
-0.8543 4.3731 -15.7890 -0.040 0.999 0.005 22 10 9 0 0
-0.8519 4.3734 -15.8342 -0.040 0.999 0.005 22 11 10 0 0
-0.8472 4.3774 -15.9207 -0.016 0.997 0.072 34 21 21 0 0
-1.2471 -0.4052 -12.5514 -0.020 -0.244 0.970 104 58 53 0 0
-1.2441 -0.3230 -12.5288 0.099 0.009 0.995 103 54 46 0 0
-1.1477 1.6450 -12.4292 -0.089 0.214 0.973 114 48 35 0 0
-1.1455 1.6797 -12.4366 -0.089 0.214 0.973 115 49 35 0 0
-1.0445 3.6156 -12.4529 -0.283 0.600 0.748 114 41 24 0 0
-1.0425 3.6431 -12.4625 -0.235 0.306 0.923 125 52 34 0 0
-1.0386 3.7312 -12.4504 -0.265 0.672 0.692 146 76 59 0 0
-0.9927 3.3390 -13.6797 0.511 0.376 0.773 8 1 1 0 0
-0.9887 3.4033 -13.6925 0.456 0.124 0.881 15 4 5 0 0
-0.9649 3.7618 -13.7913 0.422 0.748 0.512 58 13 5 0 0
-0.9628 3.7773 -13.8142 0.373 0.532 0.760 81 36 21 0 0
-0.9198 3.8205 -14.5729 0.856 0.419 0.303 100 67 60 0 0
-0.9165 3.6936 -14.7558 0.250 0.968 0.006 100 67 62 0 0
-0.8950 3.6052 -15.2399 0.683 0.726 -0.083 98 71 63 0 0
-0.8360 4.3945 -15.5783 -0.026 0.999 0.035 54 47 47 0 0
-0.8336 4.3961 -15.6212 -0.026 0.999 0.035 63 50 47 0 0
-0.7589 4.4734 -16.9341 0.699 0.666 0.261 151 151 151 0 0
-0.7523 4.5359 -16.9972 0.591 0.591 0.550 160 162 161 0 0
-0.7506 4.5813 -16.9843 0.546 0.452 0.706 162 164 163 0 0
-1.2078 -0.2817 -12.6052 -0.366 0.763 0.533 110 52 41 0 0
-1.0810 2.4019 -12.4367 0.228 -0.014 0.974 121 48 32 0 0
-1.0482 2.9982 -12.4831 -0.337 0.623 0.706 120 47 28 0 0
-1.0187 3.6205 -12.4457 0.075 0.938 0.338 116 43 26 0 0
-1.0168 3.6471 -12.4561 -0.138 0.390 0.910 125 53 34 0 0
-1.0130 3.7321 -12.4469 -0.408 0.248 0.879 146 78 59 0 0
-0.8982 3.7578 -14.5152 0.385 0.923 0.025 104 65 61 0 0
-0.8957 3.7359 -14.5806 0.643 0.758 0.106 102 66 60 0 0
-0.8936 3.7534 -14.6028 0.873 0.352 0.337 101 66 60 0 0
-0.8803 3.5891 -14.9965 -0.120 -0.422 0.899 94 64 59 0 0
-0.8656 3.5393 -15.3120 0.847 0.531 -0.029 99 74 64 0 0
-0.8452 3.6488 -15.5822 0.896 -0.108 0.430 8 4 4 0 0
-0.8435 3.7064 -15.5591 0.920 -0.104 0.379 15 4 6 0 0
-0.8367 4.3944 -15.0479 0.424 0.899 -0.112 91 42 29 0 0
-0.8128 4.4004 -15.4783 -0.440 0.837 0.325 57 56 54 0 0
-0.8085 4.4352 -15.5243 -0.456 0.882 -0.119 39 32 32 0 0
-0.7496 4.4213 -16.6101 0.005 0.828 0.561 120 114 111 0 0
-0.7473 4.4341 -16.6413 0.287 0.876 0.388 123 120 118 0 0
-0.7408 4.5017 -16.6961 0.843 0.449 0.296 134 132 131 0 0
-0.7142 4.7348 -16.9663 -0.118 -0.263 0.957 175 175 175 0 0
-1.0858 1.7268 -12.4640 0.659 0.124 0.741 118 50 34 0 0
-1.0297 2.8392 -12.4798 0.318 0.801 0.507 119 46 29 0 0
-0.9892 3.7014 -12.4379 -0.291 0.550 0.783 144 80 60 0 0
-0.9873 3.7408 -12.4362 -0.082 0.705 0.704 141 70 44 0 0
-0.9655 3.7682 -12.8020 0.501 0.476 0.723 97 61 57 0 0
-0.9636 3.7943 -12.8130 0.365 0.262 0.894 83 55 51 0 0
-0.9400 3.3020 -13.6722 0.165 0.504 0.848 12 5 5 0 0
-0.8543 3.5870 -14.9530 -0.371 0.883 0.288 98 67 61 0 0
-0.8519 3.5905 -14.9917 -0.150 -0.398 0.905 95 65 60 0 0
-0.8099 4.3023 -15.1119 -0.787 0.467 0.403 83 29 15 0 0
-0.8079 4.3303 -15.1216 -0.722 0.147 0.676 90 40 25 0 0
-0.7229 4.4133 -16.5689 -0.106 0.829 0.548 124 120 118 0 0
-0.7204 4.4192 -16.6093 0.171 0.793 0.585 126 122 121 0 0
-0.7179 4.4292 -16.6443 0.300 0.921 0.248 128 125 125 0 0
-0.7147 4.4092 -16.7195 0.649 0.746 0.150 132 128 129 0 0
-0.6906 4.5405 -17.0332 0.253 0.708 0.659 167 168 167 0 0
-1.1635 -0.6805 -12.6666 0.466 -0.292 0.836 164 154 150 0 0
-1.1435 -0.2378 -12.6408 -0.128 0.655 0.745 112 54 43 0 0
-0.9896 3.1625 -12.4368 0.122 0.602 0.789 120 47 28 0 0
-0.9706 3.4872 -12.4935 -0.148 0.495 0.856 114 41 24 0 0
-0.9671 3.5982 -12.4612 0.462 0.280 0.841 121 49 32 0 0
-0.9146 3.2669 -13.6657 -0.488 0.517 0.704 9 4 3 0 0
-0.9127 3.2988 -13.6725 -0.578 0.154 0.801 17 9 10 0 0
-0.8585 3.7242 -14.2596 0.810 0.582 0.070 108 68 58 0 0
-0.7800 4.3204 -15.1304 -0.715 0.698 0.040 88 37 22 0 0
-0.7287 4.4176 -15.9479 -0.035 0.977 0.211 35 32 32 0 0
-0.7262 4.4254 -15.9840 -0.035 0.977 0.211 36 33 36 0 0
-0.6956 4.3811 -16.5599 0.287 0.876 0.388 128 125 122 0 0
-0.6922 4.4590 -16.5528 -0.375 0.770 0.516 130 128 126 0 0
-0.6626 4.5912 -16.9596 -0.434 -0.097 0.896 171 171 171 0 0
-1.1331 -0.6760 -12.6606 0.538 -0.190 0.821 154 140 137 0 0
-1.1177 -0.2223 -12.5540 -0.383 0.422 0.822 111 53 42 0 0
-1.1135 -0.2309 -12.6330 -0.173 0.773 0.611 112 54 43 0 0
-0.9980 2.4688 -12.4071 0.232 0.680 0.696 121 48 31 0 0
-0.9803 2.7538 -12.4787 0.551 0.778 0.301 118 45 28 0 0
-0.9413 3.6035 -12.4535 -0.100 0.352 0.931 129 60 42 0 0
-0.9396 3.6601 -12.4361 -0.253 0.472 0.845 141 72 55 0 0
-0.9378 3.6943 -12.4393 -0.047 0.484 0.874 142 68 43 0 0
-0.8874 3.2808 -13.6489 -0.616 0.354 0.704 13 7 7 0 0
-0.8834 3.3298 -13.6773 -0.533 0.393 0.749 14 4 4 0 0
-0.8814 3.3556 -13.6902 -0.591 0.362 0.721 16 6 4 0 0
-0.8360 3.7427 -14.1562 0.625 0.781 -0.017 111 73 64 0 0
-0.8312 3.7375 -14.2424 0.647 0.761 -0.040 115 72 63 0 0
-0.7291 4.4226 -15.4410 0.190 0.679 0.709 67 51 51 0 0
-0.7050 4.3998 -15.8753 -0.019 1.000 0.016 45 43 47 0 0
-0.7024 4.4005 -15.9202 -0.019 1.000 0.016 45 44 46 0 0
-0.6580 4.3798 -16.7030 0.819 0.533 0.214 137 135 136 0 0
-1.0836 -0.2309 -12.6302 -0.032 0.765 0.644 112 54 43 0 0
-0.9333 3.2031 -12.4654 0.185 0.556 0.810 116 43 24 0 0
-0.9314 3.2250 -12.4809 0.185 0.556 0.810 116 42 24 0 0
-0.8975 3.6971 -12.6824 0.302 0.877 0.374 58 12 4 0 0
-0.8932 3.6933 -12.7579 0.490 0.847 0.209 87 44 38 0 0
-0.8892 3.7204 -12.8040 0.100 0.254 0.962 92 63 56 0 0
-0.8874 3.7497 -12.8119 0.100 0.254 0.962 53 32 29 0 0
-0.8581 3.3080 -13.6576 -0.572 0.599 0.560 12 3 4 0 0
-0.8558 3.3119 -13.6924 -0.233 0.695 0.680 13 4 3 0 0
-0.7978 3.6734 -14.3898 0.630 0.754 0.183 118 74 66 0 0
-0.6982 4.4143 -15.4924 0.554 0.355 0.753 73 58 57 0 0
-0.6733 4.3829 -15.9392 0.519 0.855 -0.008 60 55 60 0 0
-0.6435 4.3105 -16.5019 0.515 0.856 0.046 132 128 125 0 0
-1.0627 -0.3349 -12.5571 0.392 0.201 0.898 107 52 43 0 0
-1.0537 -0.2347 -12.6302 -0.063 0.797 0.601 112 52 42 0 0
-0.9232 2.8267 -12.4802 -0.212 0.318 0.924 118 45 28 0 0
-0.9193 2.8779 -12.5059 -0.267 0.566 0.780 119 46 27 0 0
-0.9107 3.1269 -12.4608 0.143 0.120 0.982 117 44 26 0 0
-0.9089 3.1689 -12.4583 0.176 0.208 0.962 117 44 27 0 0
-0.8737 3.6951 -12.6458 0.616 0.768 0.178 54 10 3 0 0
-0.8367 3.2369 -13.6097 -0.112 0.813 0.572 8 2 2 0 0
-0.8347 3.2626 -13.6227 -0.224 0.926 0.304 9 3 3 0 0
-0.8325 3.2691 -13.6548 -0.112 0.813 0.572 11 2 3 0 0
-0.8306 3.3000 -13.6627 -0.142 0.246 0.959 12 3 4 0 0
