ply
format ascii 1.0
element vertex 704
property float x
property float y
property float z
property uchar diffuse_red
property uchar diffuse_green
property uchar diffuse_blue
end_header
0.8659244338813936 0.6655145041435624 -12.802233627447546 149 74 50
0.8758072311306861 0.6605405780521907 -12.831164368800472 121 41 15
0.9094745724981212 0.6507916037782422 -12.836740726641384 108 24 3
0.9001093164804237 0.6496712187319469 -12.884710308301315 89 18 3
0.9164574820978819 0.6433916564749014 -12.907391228986915 68 8 1
0.8667742185915079 0.650312622445318 -12.995634496789858 59 9 3
0.8856659709387928 0.6435078053405239 -13.016006464977217 56 10 5
0.8552122640606452 0.6465468428854364 -13.085643863723469 43 11 8
0.9208387720617468 0.630417418443225 -13.059377005873506 10 1 1
0.8141318771556545 0.617428088040519 -13.608829635814875 12 6 8
0.8572992187684401 0.605774027295729 -13.60504991178737 12 6 8
0.8582507300716573 0.6024197245874325 -13.644991683274084 11 5 7
0.9095510565227567 0.5891820302990394 -13.632590737635187 10 4 6
0.9250685018795188 0.5829683323838992 -13.65739136314821 11 5 7
0.9596869512564723 0.5730151652684334 -13.66220497863111 12 6 8
1.0403164390599207 0.5540766924535838 -13.618583433070093 9 5 6
1.0451276256132527 0.5499660617096318 -13.65449562196283 7 3 4
1.0987550961184436 0.5363307941381663 -13.638909851974956 7 2 3
1.1583866462835086 0.5215420271210736 -13.61675799266612 19 3 1
1.1642132223202157 0.5172369021439673 -13.651552230654893 110 50 26
1.1919315566626771 0.5086723703743414 -13.663097879395103 143 67 33
1.1813295789965697 0.5075467971704877 -13.715557247421831 192 125 100
1.2592535445904671 0.4892510604195923 -13.673305664395363 164 98 83
1.3217096300612816 0.47397670189448515 -13.647327596035078 154 90 78
1.4232650892702106 0.4511639217608012 -13.57893500892598 170 113 102
1.4857490359789178 0.4359340669623659 -13.552282223146928 183 134 126
1.3914730401825652 0.4509545797753294 -13.695334370203065 176 127 117
1.4539407736605447 0.43573129144749223 -13.668654713500175 160 100 88
1.4960784569655985 0.42443925645710223 -13.663879113433133 164 93 76
1.5255013205594974 0.41560081750653466 -13.672868500486057 172 95 74
1.5423016576972026 0.40918909022740335 -13.69564021879069 154 73 52
1.5221924904778694 0.40984918500969947 -13.759024513597048 157 81 56
1.6301989138952493 0.3859694590929452 -13.681349242714735 160 81 56
1.5956975416240011 0.3893730809759093 -13.76075065292114 155 77 50
1.63476313764866 0.37870595212507596 -13.75888631927969 144 66 37
1.621741702762023 0.37797921060402073 -13.814844379420897 149 74 49
1.6458585570039714 0.37016477171723117 -13.82957682841424 146 67 43
1.7217459290390567 0.3525075231453152 -13.786357887238097 157 78 56
1.758699819913753 0.3422722947395105 -13.786464350545227 157 87 76
1.768170487310396 0.33725842617246915 -13.817385083895823 173 117 116
1.7873478628676587 0.3304008684031412 -13.837417129654412 183 127 124
1.8112882419513285 0.3226420812882205 -13.852061549974664 198 145 131
1.8363348670209083 0.3146764810083724 -13.865422285949254 179 135 107
1.842015706356853 0.3103673407500702 -13.90078959101158 152 115 82
1.8635581810778339 0.30306259768924915 -13.918142168048044 88 52 38
1.949156607417315 0.28370585745658405 -13.862155665215528 124 82 75
1.9611792605889047 0.2782082050648458 -13.890201517862113 149 88 55
2.005655528060794 0.26661666554415087 -13.880932929711133 138 58 23
2.060038320798996 0.2531813976595736 -13.860061577210796 141 57 28
2.1340336296408315 0.23286269424269612 -13.85800052205178 127 47 20
2.1666052275175582 0.2235429645393987 -13.861948730062323 152 71 45
2.4085879374370407 0.15266423945497376 -13.912474154264265 133 62 40
2.421835108439196 0.14696317603989173 -13.938769397916307 132 61 39
2.4256672735101983 0.1429913743961564 -13.976388788061985 128 56 32
2.4487593010363256 0.13547254814853105 -13.990966277611433 135 61 33
2.4856314275669797 0.12542750485100806 -13.988907559044609 142 75 39
2.542516918740718 0.11172538396755272 -13.962534390041426 147 91 51
2.5582004158324354 0.10558086092589858 -13.985847301032077 118 62 27
2.565810297129908 0.10090923880258829 -14.019000014281279 161 94 61
2.573698736251359 0.09618055552154026 -14.051893901961964 158 90 57
2.585042006016791 0.09081653654533617 -14.080642533889907 159 87 59
2.585751037264018 0.08738207904270734 -14.122487225025829 135 63 33
2.6040662732999156 0.08074062939228877 -14.142809875318726 125 56 30
2.565445788421182 0.0844212604716823 -14.233362457947369 128 67 44
2.5971725647313573 0.07533528076455931 -14.237311368631278 118 69 49
2.631484704287364 0.06578884341057423 -14.237964612001647 96 49 32
2.678153213436219 0.05402071659418417 -14.223138037758968 79 30 17
2.6938592429371155 0.04784713169527399 -14.246745908200928 106 58 45
2.7066840188591685 0.04218996630661942 -14.273984460936529 116 69 55
2.7189555884839915 0.036628588429071796 -14.301963607968249 116 69 53
2.7256676691869846 0.03206042766138295 -14.336990086252115 113 64 46
2.722415801087978 0.02926950208712098 -14.384683915773623 108 56 34
2.731481750960734 0.024263506190673967 -14.416950262359453 115 65 41
2.75255179197549 0.017108850439885526 -14.434052909939476 107 62 42
2.7598382752804342 0.012411765500899063 -14.468691186443694 92 52 42
2.770215237869417 0.007157888677856272 -14.49947224580551 90 54 48
2.775657115116082 0.002775616955280169 -14.536639133621465 78 41 31
2.785518753527157 -0.0023985702289786026 -14.568233331751312 69 28 14
2.7894223074782003 -0.006523188978002636 -14.607572136204002 79 32 22
2.8015778633726836 -0.012115641710436664 -14.63636772132949 103 61 52
2.8112335585585155 -0.017271083612554916 -14.668456182456097 105 66 55
2.819271446077823 -0.02214714276249974 -14.702720017152753 132 91 71
2.818385694890403 -0.025460032356048767 -14.748697034630418 131 87 59
2.8251039508231903 -0.030120301478047118 -14.784891660220755 123 77 48
2.831418828973854 -0.03471735837921752 -14.82171200606174 111 62 36
2.8380163156019185 -0.03937167009096698 -14.858261542847398 93 48 27
2.849305989829383 -0.04485356310369859 -14.888725019445324 77 31 20
2.838616007559513 -0.04650612033502388 -14.948308835309144 95 50 34
2.851199024480416 -0.052229638960527236 -14.97726938430737 106 65 47
2.8645535472354107 -0.05809149608251141 -15.005258506648154 95 56 42
2.8753458172391477 -0.06351244632074105 -15.036713285341524 60 20 8
2.8725516630335024 -0.06658488880704594 -15.086408028264135 47 11 3
2.8732026860226085 -0.07026671734955081 -15.131656714766116 45 13 6
2.8769776909386664 -0.074499420212222 -15.172851905293719 43 9 4
2.8547400905475184 -0.07425876220603533 -15.249267862998453 42 9 7
2.8272107604618055 -0.07313331914234267 -15.33317476271472 43 14 13
2.8106788147982975 -0.073925425626445 -15.402531707517678 41 17 14
2.811589556570685 -0.0777299974311807 -15.44843768941701 24 11 9
2.7856173066607886 -0.07694615989828546 -15.53119043568002 8 5 4
2.7550247188103114 -0.07540151993154143 -15.620635216037755 7 6 6
2.7431303954357578 -0.07707630964619039 -15.684813267531254 6 5 5
2.73595189301305 -0.07957361037440402 -15.742755222977337 6 6 7
2.9009445541493477 -0.11503071357558992 -15.61089039863639 16 15 15
2.9760390876964333 -0.1314479139861151 -15.554482798653392 33 33 37
3.023692591602841 -0.1431947109466727 -15.535858075575266 55 55 59
3.0908364420369727 -0.15821043639711663 -15.48977361951258 86 85 89
3.1564364689635616 -0.17293638094895658 -15.445465590399873 72 72 76
3.1452870763554923 -0.18213998144721777 -15.604267490086396 7 7 9
3.210033127415822 -0.1966727595067863 -15.56051732419343 6 6 8
4.0960415927564435 -0.38654856167364304 -14.845577080421315 112 56 39
4.126795070105269 -0.3986977309192763 -14.892589452712128 111 55 38
4.165404202700647 -0.40854073765316534 -14.88170814860214 109 56 40
4.171235367692834 -0.4130692954414039 -14.91937319119302 112 60 44
4.203313995274027 -0.421842417962603 -14.918021052832913 114 63 46
4.236324148519485 -0.43075636705373 -14.915157378474678 114 66 52
4.270057430288042 -0.439776645041386 -14.911081653188784 119 72 63
4.305991307235066 -0.4491393612153587 -14.903561205804674 121 78 69
4.683993597792776 -0.5522310035417102 -14.883913268316459 107 63 54
4.696133659253805 -0.5577458265933344 -14.91176112783128 107 60 50
4.7171687498634896 -0.564647283318537 -14.925716907693133 103 56 44
4.733175015703377 -0.5707671543769475 -14.947556983360133 93 45 33
4.753596741360352 -0.5775715786334867 -14.962452408525426 102 53 39
4.770979977466725 -0.5839056259250532 -14.982135786031371 105 60 45
4.797512035115326 -0.5916485544560883 -14.987306960214035 105 61 47
4.819920658226868 -0.598752221091398 -14.998963706270438 91 42 30
4.825658134028462 -0.6032990849921971 -15.037200351638845 105 58 45
4.837874785136791 -0.6088453623995906 -15.065180768001287 93 44 31
4.846507125421445 -0.6138497950597079 -15.098977582153346 86 30 17
4.823328074100529 -0.6140241754597939 -15.184123499372529 87 28 15
4.8606018096989345 -0.6233996100998311 -15.171975819419863 86 28 15
4.884290444009366 -0.6307052475817723 -15.181664891894785 84 28 15
4.9005873936208095 -0.6368912269809661 -15.203319685747575 83 27 14
4.921732321423048 -0.6438086211690537 -15.217088612651672 82 26 13
4.9479697900147 -0.6514886066539018 -15.222499936843388 84 28 15
4.962482587412398 -0.6574063935096006 -15.24706958374917 82 26 13
4.989754723108943 -0.6652333308396461 -15.25067967040354 80 23 12
4.99580472962163 -0.6698910395543289 -15.289230993337078 78 23 11
4.932091889397444 -0.6679970729031617 -15.492605876300894 75 23 10
4.901020286698045 -0.6710733384865146 -15.643475390357683 74 23 12
4.95086960023227 -0.6822670313892187 -15.6098507951079 75 27 15
5.011532784737693 -0.6950220432751515 -15.557729284787953 78 33 23
5.020487518609617 -0.7040405451363287 -15.642243263488805 78 40 31
5.003032860676808 -0.7053762871967175 -15.721924897183332 79 42 34
5.005367194813777 -0.7096116426996848 -15.76830646962291 80 45 36
5.084856146742291 -0.7646483947226408 -16.195228363518595 73 56 46
4.984732378906101 -0.7753650051461207 -16.69177025932549 106 96 91
5.128450332852481 -0.8034682812517562 -16.540961004313544 128 119 116
5.1551144929462565 -0.8112734788297611 -16.546464401096976 140 132 129
5.2305237096383825 -0.8257142286970562 -16.463391593933558 148 142 139
5.216666386880072 -0.8279811281974754 -16.542240980190485 154 150 148
5.244652299143501 -0.844311478367888 -16.653180209115003 167 163 162
5.2410941820631916 -0.848044736621419 -16.71414613504944 169 168 164
5.26095722117747 -0.8549275569570889 -16.732052566303526 172 171 168
5.331505767077513 -0.8727818468255264 -16.710472434024332 181 177 176
5.380261716545882 -0.8834702384385154 -16.67422836905085 185 183 181
5.407255637798876 -0.891263388572809 -16.678396801165412 188 187 185
5.492963047736265 -0.9067612508126626 -16.572155841884385 192 190 189
5.53550958671995 -0.9207650462915806 -16.60095967107344 200 198 199
5.537620470550497 -0.9252731326322898 -16.651664591354344 203 201 202
5.527282506291921 -0.9281845677677809 -16.72625684066459 204 203 204
5.555676204023808 -0.9403984078961807 -16.78254390189342 207 207 207
-2.8259618000731495 1.6891220817162413 -12.350875866424964 112 49 34
-2.7869746852623916 1.6776749693980562 -12.35978998689648 113 48 34
-2.6719921247118634 1.6497633015369146 -12.311543157600903 114 48 34
-1.2515787201596362 1.2478764753982297 -12.443049428625745 124 46 26
-1.1827195451632129 1.230395298053973 -12.423915825294856 124 46 24
-1.1862201466130413 1.2281612279763259 -12.464685685834358 124 46 23
-1.1442878865519548 1.2163646234336687 -12.467706864125017 124 45 22
-1.0926420827233052 1.2025352828818439 -12.46250784241215 124 44 21
-1.0411979453664841 1.1887599325641671 -12.457329256386103 126 45 22
-0.9917537319536205 1.1754156190072669 -12.453683619736495 126 44 20
-0.9437011689105423 1.1623738050452985 -12.451072038323478 126 44 20
-0.9010274120745292 1.1504683804255935 -12.452875001044344 126 44 20
-0.8533364183851733 1.1375220684979923 -12.450316594140181 128 46 22
-0.8533964591622061 1.1345637463735863 -12.488229028904751 130 46 22
-0.8301822137966051 1.126738836163373 -12.506394600597915 131 47 23
-0.7485018418460276 1.1067208326534677 -12.474547158297963 130 46 22
-0.7026363029249652 1.0941892886829494 -12.473116085117695 129 44 23
-0.6670831128023522 1.0838144080425676 -12.480429589855573 126 41 20
-0.6333231995551865 1.073818374849447 -12.489215159022251 129 44 23
-0.5981505818619084 1.0635339829445578 -12.496712490844967 130 45 24
-0.5639123241102695 1.0534493284873294 -12.504946938536493 128 43 22
-0.5212249644025828 1.0416177079271403 -12.50576153643172 130 45 24
-0.48323876522167275 1.0307689620196958 -12.510566383739256 133 48 27
-0.4416970197342378 1.019191108858043 -12.512171711117894 127 45 21
-0.40732111878032295 1.0091036415581789 -12.519958435264808 129 47 23
-0.374823706393407 0.9994098826406432 -12.529327200387598 132 50 26
-0.34418744537624946 0.9901051621795864 -12.540276611623845 128 46 23
-0.317206670944703 0.9815584293247805 -12.554408597634533 127 44 22
-0.28081427548996896 0.9710753606513745 -12.560152560118917 142 60 38
-0.23462949458720583 0.9585832198926227 -12.557097756160726 127 44 22
-0.19425415719786887 0.9472960562696646 -12.55909632276061 132 48 24
-0.15007707660157088 0.9352360279418073 -12.557588079687658 130 46 22
-0.10516886134916437 0.9230356262320525 -12.555300147615483 134 50 26
-0.07302521606166756 0.9134622813849935 -12.564377191814959 135 52 28
-0.03341699122858799 0.9023649167106584 -12.56665195560372 135 53 29
0.022528604613905046 0.8879325344046465 -12.55403210808987 133 50 26
0.03128999458686099 0.883160012010243 -12.584073466428455 131 46 22
0.09320943594254061 0.867527348748796 -12.565762818620172 132 48 24
0.15022472126145914 0.8529123135569348 -12.551712683284535 138 54 30
0.15919595200851333 0.8481040820388377 -12.581471909370796 130 46 22
0.16973012290535205 0.8429731759981425 -12.609852414978654 144 60 36
0.17024516630874853 0.8398762621612661 -12.647510694607192 141 57 33
0.22420631835629035 0.8259117862763794 -12.635899536340354 130 46 22
0.26529036709044096 0.81457520955229 -12.636037974464863 141 57 33
0.31309918892490796 0.8018838434778115 -12.629816526019694 141 57 35
0.3565381639072127 0.7900893028342777 -12.62751797868041 132 49 28
0.3879108453132041 0.7807463252927429 -12.636367738694762 132 50 29
0.40952405147311666 0.7733810620845669 -12.654300274318071 136 56 37
0.4582654246374629 0.7605383995241859 -12.646730721943369 137 59 40
0.4529055946993985 0.7586216150953717 -12.689988906417842 151 76 56
0.4894255860006327 0.748254808773894 -12.693802923857723 155 88 70
0.5100991969843216 0.7410850564100444 -12.712544832635963 166 103 86
0.5574820697438554 0.7285446889917575 -12.705895477928308 153 92 74
0.5863649441128125 0.7197323727400078 -12.716729618416387 153 90 72
0.6221047963333444 0.7095480266744352 -12.720959123997726 140 74 51
0.6989794149890516 0.6911250003707976 -12.685668621056891 157 89 65
0.7491430407229114 0.6780750888293523 -12.675743606683515 148 81 57
0.7975478190147873 0.6653901592531324 -12.667346403230026 140 72 52
0.8238935974195867 0.657125244907925 -12.680117714606967 137 67 48
0.8049327215610536 0.654889993553474 -12.775217993904008 133 74 58
0.82332778246308 0.6482019032336079 -12.79582654774169 130 56 35
0.849892090366283 0.6398881405891332 -12.808452649956399 145 65 39
0.8594673089274361 0.634953518051341 -12.837700687774472 117 33 12
0.8948465564539978 0.6248924259177677 -12.841626302604194 102 19 4
0.8186053106416527 0.6369704379117045 -12.955553863972769 83 16 2
0.8940897650130042 0.6189554691285442 -12.919946942243708 64 8 1
0.8887146612292653 0.6169623273939882 -12.964231901168372 57 8 3
0.8779006077048503 0.6160329420575446 -13.014068351746268 56 11 5
0.8486204609150008 0.6187351153976928 -13.082498902516468 31 6 4
0.8446507046689344 0.616424981172349 -13.12588638562896 8 1 2
0.8156345079302945 0.6190370687509523 -13.194537693942 67 60 63
0.7889742608252597 0.6022311435761885 -13.502379392458307 10 4 6
0.8088224986593406 0.5951707624679474 -13.522627168727722 11 5 7
0.8148511747011611 0.5908037723728452 -13.557100964168466 11 5 7
0.8173006263080129 0.5871271000141978 -13.595351808061771 13 7 9
0.8323804437600719 0.58098639836547 -13.620631505732177 12 6 8
0.8593287578158337 0.5725383720275805 -13.633619594982651 11 5 7
0.9211031529546148 0.5573379941964283 -13.61030938742185 11 5 7
0.9327050135903203 0.5518777576985503 -13.639135921482982 11 5 7
0.9658917150005886 0.5422366434161665 -13.645412147135094 12 7 9
1.048054816183817 0.5199248122018549 -13.64110180759075 7 3 4
1.101631651034781 0.5063745958016994 -13.62556142801401 7 1 2
1.15429711355839 0.4930157694179529 -13.610783785204301 28 6 4
1.14547645562945 0.49149832273481353 -13.661111377288954 133 62 31
1.1788541051495214 0.48186110286087636 -13.66666712880227 156 74 44
1.1765273043171103 0.4790804663892507 -13.710278728657821 180 109 87
1.2030899784096256 0.4707534450805573 -13.723079542100933 163 96 77
1.2514634928739792 0.45825548131288474 -13.712409442609854 168 102 82
1.3045517857161286 0.4448700358252111 -13.696485542976268 173 113 93
1.364140740513652 0.43025966410630345 -13.67333410507354 174 118 105
1.400913098296094 0.42001862140584323 -13.674658744393664 172 115 99
1.4377272794806943 0.4097778678813597 -13.67583276352801 170 103 84
1.4496020663718614 0.4042881022488449 -13.704076772964466 167 90 69
1.4855660514664102 0.3942193880915119 -13.706045212077521 159 79 59
1.5134848542367454 0.38568462577985474 -13.716729141815929 153 70 47
1.5497270844648616 0.3755771617403776 -13.718213881113222 163 86 57
1.6013187467659362 0.3625739389708764 -13.702676846524119 155 76 46
1.6562733176599274 0.3489511055510799 -13.683221622463162 162 84 53
1.6615532215020776 0.3447189921309364 -13.718607122720051 141 62 32
1.7658304262740785 0.32182440035118787 -13.644031871846302 148 69 44
1.6951322902256685 0.3319013263825339 -13.763987535448582 146 67 42
1.7885394308143434 0.311090591469837 -13.701044101367666 149 70 48
1.7862640920968165 0.30827580347651273 -13.744910137821817 150 79 66
1.7815296279598112 0.3059110010812658 -13.791680911937299 164 103 97
1.773376017123498 0.30417397750333497 -13.842463355543476 166 102 87
1.8003936787370982 0.29584815817250476 -13.85365037890071 187 129 104
1.8305801263292958 0.2869345501922014 -13.86119566200199 190 151 121
1.8906783868085784 0.27244997284105343 -13.834651769881562 115 77 54
1.9308767116447534 0.2616909007932733 -13.830542107268297 128 85 68
1.9722879001581095 0.25071694056671445 -13.824909967749806 105 53 34
1.9822420275324069 0.245594510650617 -13.855220273008047 155 83 45
1.989755731444495 0.24091963875050926 -13.888400549446436 143 57 21
2.0465564226700588 0.22711351546657155 -13.864795381987353 153 65 35
2.075807161209122 0.21842024913966251 -13.87281993622172 134 54 28
2.121191149075683 0.20675354573747162 -13.862058942813903 155 76 49
2.1661837782043953 0.19517255376078357 -13.85158055425279 162 81 54
2.210592763728079 0.18371242802654608 -13.84161228921105 125 43 20
2.4380607551452425 0.1157679490614818 -13.908366075824127 135 61 39
2.4551640560791226 0.10935580181561377 -13.929996189876118 135 61 39
2.4555280826123855 0.10597963099303875 -13.971743936720925 129 55 32
2.4812426515122956 0.09800064565879629 -13.98308888545494 132 58 31
2.506389396883532 0.09012791110302443 -13.995074640920363 138 71 37
2.532316692453124 0.0821174363223729 -14.006073542130684 155 98 62
2.5990556530446893 0.06675040783932151 -13.967445549833547 118 61 28
2.5877031751435196 0.06547156451143366 -14.023627172735537 160 98 64
2.5970896050981898 0.060447164294725075 -14.054682612889561 161 93 61
2.6139961384682744 0.0540673560762277 -14.07659187935171 154 83 51
2.6309110438484886 0.04768479375875567 -14.098506831924276 143 70 41
2.6426864742178386 0.0422207666933343 -14.126771884926077 117 47 24
2.583075556416488 0.04950842449478121 -14.243322736741304 113 50 29
2.6152427704640795 0.04037811731344898 -14.246670810652605 121 68 47
2.6542063801824325 0.03004440268193176 -14.24147812831786 104 54 38
2.679224483467668 0.022201903729956562 -14.253530502804253 79 28 16
2.709882404002263 0.013361233082973323 -14.258489867972244 105 56 45
2.7398145200830752 0.0046556944532170075 -14.26427699304664 117 70 57
2.7387284367076843 0.001446317781367057 -14.308993636010017 115 70 53
2.7420793256443696 -0.002558694504106507 -14.34826196631639 115 67 52
2.7520502234945106 -0.007740732249773119 -14.379273008280077 103 55 44
2.7716149854430805 -0.014617948260263525 -14.39818240235109 100 56 48
2.7869224470091982 -0.02074636162338872 -14.422505731311936 107 65 54
2.791403397956649 -0.02497636432097705 -14.460671230336454 112 67 47
2.8047800999368953 -0.030774119692700497 -14.487563767771736 116 67 40
2.807316803728799 -0.03467854335636811 -14.528410587421607 121 71 46
2.8098613623280366 -0.03859413376551113 -14.56937212281978 113 67 43
2.817402862218339 -0.04339100956373354 -14.604009589953565 84 42 23
2.822658129445852 -0.04779679885608368 -14.641695007039637 97 55 37
2.8325145421863898 -0.053010638065229765 -14.673513545263237 106 64 43
2.841402198647537 -0.058062041196232705 -14.706665418036192 104 68 47
2.851922450623282 -0.06340249403466736 -14.737765333693083 94 59 39
2.8528431858174024 -0.06708832691366151 -14.781503640202178 95 55 37
2.8663668789909877 -0.07296076065095547 -14.808831482329943 69 26 12
2.873372140222136 -0.07771351242254498 -14.844790548349412 55 10 2
2.864676323995779 -0.07977286826639451 -14.90158575169153 61 17 6
2.8747310460233706 -0.08506907020179644 -14.933757233948967 73 29 22
2.8855866241623485 -0.09050831393005798 -14.964938087117702 90 44 35
2.8957410060946165 -0.09583287765857729 -14.997120890919607 93 48 30
2.9091139793035596 -0.10171296424428689 -15.025075775185893 104 61 38
2.916543929083871 -0.10658356269464764 -15.061044679989362 98 56 30
2.9173694799121686 -0.11033759059719328 -15.105986482391678 93 47 25
2.924566266367459 -0.11518560809867573 -15.142486765033336 70 28 15
2.8911772778998017 -0.11315873220493544 -15.233958722622472 47 14 8
2.8773772122782093 -0.11448058327966115 -15.299287362717434 39 10 6
2.8634984471970366 -0.1158100054064477 -15.364988978552887 41 16 13
2.852486127902181 -0.11764387630085849 -15.427048940600962 27 13 11
2.839980183117609 -0.119245650996882 -15.491398455184346 10 4 3
2.824041914805659 -0.12029108593124027 -15.560716367176871 7 5 4
2.7885887752815295 -0.11808633870961738 -15.65717331333644 6 5 5
2.8181277816070667 -0.12679590613702452 -15.664392863820037 8 8 8
2.9164207719987942 -0.14698669450987167 -15.576383625424803 12 11 11
3.0235593512061856 -0.17233139899668837 -15.522980500417674 53 53 57
3.0518034557434675 -0.18076454008000375 -15.531226490125873 79 80 83
3.091732104300429 -0.19112960008083912 -15.523042885032577 70 72 75
3.091062224471121 -0.1947636856233026 -15.571709894743845 31 32 34
3.113294559849879 -0.20219340166181365 -15.588288693286902 10 10 12
4.121193354233792 -0.4214695208910362 -14.841819630177206 113 57 40
4.087486665914331 -0.41970314824252797 -14.937727647440383 112 56 40
4.140867606845276 -0.431861321106366 -14.905134982055344 110 57 43
4.162662065325101 -0.43896914245955276 -14.919149843391429 114 61 48
4.192990797830475 -0.44742995504520455 -14.920424725482949 114 64 49
4.220613111995747 -0.45545387163221185 -14.925639956666856 113 66 52
4.248188566726032 -0.46346413477645854 -14.930845812979399 120 74 65
4.298450094703336 -0.4750467560881839 -14.90187738171133 125 82 74
4.340126891965463 -0.48525600831388505 -14.88556649541942 128 87 79
4.668533020313114 -0.5765099460434575 -14.894763069952532 107 61 50
4.681659571997204 -0.582195036427672 -14.921098613703833 104 57 45
4.706744386441509 -0.5897101938313174 -14.928744905501809 107 57 45
4.723642066324751 -0.5959730267109045 -14.949194517153888 103 55 40
4.742933752700775 -0.602600735575525 -14.965883512988373 96 49 33
4.7645368913355135 -0.6095781423358066 -14.978908491433113 93 46 30
4.788174023399912 -0.6168606955533626 -14.988676453552166 99 51 37
4.800711487468088 -0.6224647132632126 -15.01604838469257 96 47 33
4.807860902331336 -0.6272622068806719 -15.052071206890508 97 47 32
4.824705531893663 -0.6335234510490377 -15.072686949176322 87 31 17
4.827442599519794 -0.6376734452139408 -15.115959450033305 88 30 17
4.8017094333274875 -0.6375831682946689 -15.205215247252111 87 29 15
4.8401219514118345 -0.6470823533727259 -15.191323246272225 86 28 16
4.860024712481837 -0.6538159003215724 -15.207214224998152 84 28 15
4.87948987068843 -0.6604834252727865 -15.22380120075011 83 27 14
4.900762912112998 -0.6674173535394134 -15.237431784377257 82 26 13
4.919322439257883 -0.6739489822326905 -15.255468551043517 82 26 12
4.945726890365363 -0.6816340135952694 -15.260643577842407 81 25 12
5.004461002340535 -0.694054056512807 -15.212581366997089 80 23 12
4.935497032008508 -0.6954581493315073 -15.472761114985042 75 23 10
4.917055968293858 -0.7005416779707943 -15.60233424217071 73 23 12
4.9977314999239155 -0.7238779059104388 -15.616305197423001 78 39 30
4.9995821841078225 -0.7280604594535687 -15.663106703181015 78 41 32
4.982741329801485 -0.733543800117507 -15.79215323178005 80 45 36
5.085565278889803 -0.7679613194359991 -15.869534275241499 85 62 56
4.948289781006618 -0.7942729163003999 -16.687134161332796 101 90 84
4.995389296012876 -0.8048770487910313 -16.656804507593574 111 101 96
5.07704747333432 -0.8201111086036841 -16.56406742476128 120 112 106
5.189250813932092 -0.8647582969880312 -16.73886571020492 168 164 163
5.220634776126134 -0.8731612041774481 -16.73569537803133 170 169 165
5.385279932379845 -0.9074508097052949 -16.59425468280505 182 178 177
5.5243811158068965 -0.9424225937459416 -16.55124944606844 198 196 197
5.505324352627073 -0.9442679108801395 -16.641717192535577 201 199 200
5.510614251097767 -0.949240280281034 -16.68650156208593 203 201 202
5.519234824887883 -0.954646838202653 -16.725117924984406 204 204 204
5.528313872990415 -0.9601209365019499 -16.762984315403404 205 205 205
5.564138244114306 -0.9689628195963012 -16.7498082483574 207 207 207
5.771650659838088 -1.0164276581273635 -16.62567341150077 211 211 211
7.49172930673484 -1.5006470349681595 -16.753653258427402 216 216 216
7.534204206250622 -1.5089892571225691 -16.710744626532083 217 217 217
7.552277560031456 -1.5152458377574372 -16.726984155723297 217 217 217
-2.8448919288891616 1.6608361688868436 -12.356512952093889 111 49 34
-2.8062538775031287 1.6494941368245146 -12.36571827111428 114 49 35
-2.7072973057385337 1.625196724009351 -12.329569850467504 114 48 34
-2.685278612300885 1.6174451048865734 -12.351009086677013 114 47 33
-2.650445338216058 1.6069444603561052 -12.362771174322265 113 46 30
-1.8339929672504924 1.3847168436618709 -12.338063631919802 119 46 28
-1.8285767435020546 1.3805653903161472 -12.371555881574091 119 46 28
-1.8143702809674247 1.3745506504299507 -12.398128134792943 122 49 30
-1.4682325309532747 1.277554290782632 -12.422629175605342 122 44 24
-1.4270264756232498 1.2658990470240379 -12.426907222875045 122 44 24
-1.3859229634591639 1.25427287633478 -12.431173763415714 123 45 25
-1.3657251414277036 1.2470295906985451 -12.45250824427432 123 45 24
-1.3385175506717149 1.2383203227846487 -12.46807428621544 123 45 24
-1.2903294796070082 1.2252303927414234 -12.466286267460195 124 46 24
-1.1940821197656888 1.202119740376436 -12.424570952234241 124 46 24
-1.1550496114706457 1.1909688523643236 -12.430011684342734 124 45 23
-1.1593122504814861 1.1888451786966237 -12.471423569702278 125 45 22
-1.1327778233658208 1.1803015109172383 -12.487231566294167 126 46 23
-1.063413799306824 1.1628531322203999 -12.467135464299902 127 47 24
-1.0088916579047602 1.1485070849996737 -12.459273244455726 136 55 31
-0.9543058603253929 1.134160824622273 -12.451193963375204 124 42 19
-0.900595098232194 1.120009111148329 -12.443689600204229 129 45 23
-0.8410737297375741 1.1046662664932874 -12.4311010750987 130 47 23
-0.8469464527692656 1.1028751149006926 -12.473890740262092 126 42 18
-0.7925788323697338 1.0886156571904864 -12.465473386373501 133 49 25
-0.753903281742879 1.077611543037949 -12.470301201452063 130 46 22
-0.7200003516195732 1.0675996867706028 -12.479130144583777 130 46 24
-0.6905075042275524 1.0585025556118282 -12.491683422069901 130 46 24
-0.6571197439246879 1.04860653355099 -12.500834546609205 129 46 23
-0.6141885646561933 1.036751300770114 -12.501671588145673 129 45 23
-0.5779810887773831 1.0262875670022003 -12.508225921236491 130 45 24
-0.5421405964550807 1.0159054908882406 -12.515020539917018 129 44 23
-0.49451676961994995 1.0031111838322084 -12.511463934249411 130 45 24
-0.46815755458340025 0.9946877910784568 -12.526364752668053 129 45 23
-0.42872316747273587 0.9835885139989287 -12.52976938572732 129 45 23
-0.40492886103975856 0.9756974767891271 -12.546831874690575 135 52 29
-0.37139084122367194 0.9658158643001253 -12.55528315735851 133 51 29
-0.3087048547529587 0.9499864427334355 -12.537887271727856 125 43 21
-0.2976757862025021 0.9447140798067737 -12.566095257174357 131 49 27
-0.25781699141186554 0.9335614988347749 -12.56870493404186 130 48 26
-0.2069784869220852 0.9201810475797991 -12.561419849107004 132 48 24
-0.18080672107435092 0.9118310285276574 -12.576045340936606 131 47 23
-0.12354579795558607 0.897165310036232 -12.562747530151995 133 49 25
-0.08982727496264697 0.8872944160015961 -12.57044097196276 130 47 23
-0.04642535145165283 0.87546513978304 -12.56932669922516 134 52 28
0.02181112977594779 0.8586136247238001 -12.545619537951307 133 49 25
0.027068570570838446 0.8545294361720006 -12.578814301997047 132 46 23
0.09725584146400301 0.8373102465900473 -12.552995157157241 130 46 22
0.12210031219497086 0.8292708721625737 -12.5682972698498 131 47 23
0.1344583524722074 0.8237531728962304 -12.595001838809987 133 48 25
0.13851063498547322 0.8199066295493704 -12.629369303110472 131 46 22
0.1416869032685275 0.8162298943806154 -12.66462606109474 132 48 24
0.209464752946511 0.7995507297197939 -12.64033543111794 139 55 31
0.2493780636587415 0.7884910953987339 -12.641588461942641 135 51 27
0.29552114269268603 0.7761893082133766 -12.63695179271878 135 50 28
0.30794234546879906 0.7706609412307353 -12.663572431692545 146 63 42
0.3572862178950542 0.7577330692213495 -12.655757315936594 137 55 35
0.40732920261730765 0.7446778178595066 -12.64713018716217 135 55 36
0.4502204192848849 0.733065050031219 -12.64505708747862 148 70 51
0.4630421049081308 0.7274665509229892 -12.671176910927443 145 72 53
0.49918051475294867 0.7172141305614304 -12.675313182185661 153 88 72
0.5305134260089881 0.7079262786576153 -12.683912167745468 166 101 85
0.5714620563733126 0.6967295146513475 -12.683315173064173 145 82 66
0.58596826932511 0.6907993510800443 -12.707789457418322 143 78 61
0.6348204568932427 0.678045539009744 -12.699483481762439 146 77 53
0.6863030268808634 0.6647825370569937 -12.688498598448419 159 90 64
0.6605698736075087 0.6668356599776653 -12.751518988290641 141 72 53
0.6847376070055233 0.6589907870431084 -12.766712065277215 142 71 50
0.7229223924229045 0.6483761825710874 -12.768337369330437 154 82 57
0.7527085773222133 0.6394286109622165 -12.777997893611374 137 72 51
0.7884378540272028 0.6293129483567204 -12.781827272497154 134 69 52
0.8142799667047127 0.6211529712175461 -12.79520165796452 145 69 47
0.8363504065903671 0.6137382655354335 -12.812226836377132 143 59 34
0.8568588506152182 0.6066318304363221 -12.83076866645845 120 33 17
0.882528401897444 0.5985121077816054 -12.84423268329342 97 16 4
0.8119057726464263 0.6092869447607234 -12.952568369058067 80 15 3
0.8654409138096932 0.595690390453296 -12.938691193856886 60 8 1
0.7744342472864485 0.610402387430887 -13.067897405458071 58 9 3
0.830546948937605 0.596299823765789 -13.05148368047887 57 13 7
0.7839881451654342 0.6022648920339684 -13.137216023506982 22 3 1
0.8233048624435773 0.5914483440104192 -13.137472589573228 11 5 5
0.787973207869455 0.5951853197059565 -13.212458805036775 65 58 61
0.9320946468471778 0.5481808511106139 -13.305857921810116 10 5 6
0.7950371133117695 0.5650171509084203 -13.567326373513332 12 6 8
0.8037162376432381 0.5601007037728338 -13.599172044722195 14 9 10
0.8365148352109086 0.5505405888304116 -13.606134178316108 13 7 9
0.8525321094040113 0.5442096409107855 -13.630430652481667 11 5 7
0.8836402849437004 0.5349817890914452 -13.63905114773507 11 5 7
0.8794605138043119 0.5325203165872672 -13.68442353331228 11 5 7
1.0529217045693313 0.4895614397686392 -13.62568371699391 8 3 4
1.0871393717205624 0.4797776650035239 -13.630558915326132 6 1 2
1.13245031970217 0.46788844364378734 -13.623608283704638 22 5 3
1.1422689822517533 0.46276098265685484 -13.65417298498182 130 68 34
1.1771568690724221 0.45286728467591764 -13.65811646175757 165 88 63
1.1870858839299956 0.44771521406899106 -13.688609601415475 174 112 90
1.2164178937613066 0.4388825049812477 -13.69839396876419 164 103 85
1.2305486510264156 0.43293049241876935 -13.724438994275086 164 104 84
1.2895609727097481 0.4184948998083424 -13.70220238800313 166 109 89
1.3532497253043276 0.4031959146946571 -13.674676698501987 166 111 98
1.3951079126059165 0.39203281828385106 -13.670516672298323 171 113 99
1.4296875993146791 0.3822505637875482 -13.674123068764157 163 94 75
1.45401068297938 0.3744036297929554 -13.68880578734953 159 81 59
1.477030073859427 0.3668037125379229 -13.704883534849802 158 78 54
1.4963157845672637 0.3599054297983524 -13.725029496614376 153 75 45
1.5297964990641608 0.3503491654363047 -13.72958855843958 153 78 45
1.580729308308472 0.33753652426604686 -13.71483984093402 154 75 42
1.6276110855422647 0.3254959828789161 -13.704368997267592 149 70 37
1.6609143421487724 0.3160012643539938 -13.708766933836635 148 65 36
1.72368670880034 0.30102541086699786 -13.68034243081422 150 66 40
1.7549921823415975 0.29192350632296993 -13.686698537115904 150 70 47
1.759403825877417 0.2878224072994633 -13.723025576214816 143 65 44
1.7637260021879317 0.2837302335543084 -13.759549253772345 152 79 64
1.7769581584992897 0.27798004730599524 -13.786159033673798 164 99 85
1.7879018003808635 0.27264991521461157 -13.815388143330331 178 110 86
1.8091477711994992 0.2654124933232145 -13.833030703784338 181 123 94
1.8515017339324809 0.2542826488301704 -13.826741243865618 165 127 100
1.926255471830272 0.23719690954658157 -13.783481032492858 97 51 36
1.9219026874555647 0.2346897539465158 -13.830024953566163 132 80 57
1.9971358099550942 0.21755271978598723 -13.78575474999998 145 84 53
1.9733621744765957 0.21860348385471173 -13.854611813786402 148 69 32
1.9882304560414168 0.21255449922382752 -13.879329970059935 155 68 30
2.038149923836685 0.20009272243773868 -13.86366849314289 137 50 16
2.0653484061234444 0.19179633318384992 -13.874075569081146 132 50 22
2.119817295688736 0.1785310070898385 -13.852811139151964 136 57 32
2.1673572611899177 0.166545942260391 -13.839370821356747 143 62 36
2.2040660623580584 0.1565452589147316 -13.838373450334682 140 60 31
2.46774977123484 0.07892628646893352 -13.903907199723367 127 52 28
2.478806240779943 0.0735970291908219 -13.932735831194833 134 65 42
2.5009077122666463 0.06628783550637807 -13.948327469006518 132 60 39
2.502518540758502 0.06263955073555372 -13.988630461712756 137 60 37
2.5252641292332587 0.05521309262280227 -14.00347277267824 140 71 38
2.542528514082285 0.0487644279039694 -14.024944074986205 145 90 51
2.608246885306502 0.0337018819356234 -13.987439809633367 133 76 40
2.6170798651211973 0.028760943561335184 -14.019062258221659 147 84 49
2.624590328169692 0.02404860054233615 -14.052376296202663 165 99 65
2.6355767880189207 0.01871479025699263 -14.081503837957996 159 89 60
2.6616245000220315 0.010716087236422478 -14.092141075109371 138 66 42
2.6731438019434526 0.00528335857083162 -14.120672777519914 111 37 16
2.668262561701445 0.00273389926881773 -14.169572737458324 113 49 25
2.679441501614243 -0.002652318927462094 -14.198694672662448 122 69 50
2.7094717402223036 -0.011351463539194029 -14.204389682022555 113 62 46
2.763884514213302 -0.02431652271911 -14.179544226911489 83 28 17
2.753581943606628 -0.02594105957713433 -14.235531150815103 105 55 46
2.7516286312321965 -0.02904062825652587 -14.281239487269747 114 73 60
2.7718267786901896 -0.03601446940645281 -14.299185585831566 116 73 57
2.775693989524054 -0.04014520086403417 -14.337764521861132 112 67 52
2.797207194124458 -0.04735116161801334 -14.354089085900382 104 59 44
2.806438113707439 -0.052425107801680415 -14.386009924752024 114 68 47
2.81831136176151 -0.057962515026173556 -14.414635748683576 142 93 60
2.831223814428327 -0.06368392075187868 -14.441987336699743 138 87 52
2.8323305490156185 -0.06737144127501371 -14.4845237028488 124 78 56
2.835904086357796 -0.07149472450019734 -14.52402276494611 107 68 50
2.845277942643155 -0.07662501112944664 -14.556158457692245 90 51 39
2.8515426865705544 -0.08122735790367464 -14.592389921118961 69 26 18
2.8563028895064058 -0.08557961392559243 -14.630671096480949 94 48 38
2.8620384191243975 -0.09010749850257294 -14.667793321466622 98 58 47
2.874904250781002 -0.09586150754175127 -14.695715710036435 100 65 53
2.8755054653840846 -0.09952823475317008 -14.739735730981087 97 57 39
2.8885917750202523 -0.1053313828014324 -14.767514770056177 90 41 23
2.89512297647131 -0.11002465605131295 -14.803969484227043 98 47 23
2.898588875701267 -0.11420592371942706 -14.844569050673869 99 50 26
2.9016703659664556 -0.11833189075046624 -14.885800396284983 80 32 18
2.9114865103858474 -0.12360599533655803 -14.918217286165659 78 29 19
2.918373095786433 -0.12839191353889334 -14.95460988082395 117 70 52
2.927024115599428 -0.13348272397562932 -14.988744536563535 131 87 57
2.931788869093139 -0.1379271527789736 -15.028168732180811 125 79 47
2.9370915436495864 -0.14247102244232934 -15.066986124030208 96 46 20
2.9431712626227844 -0.1471539159955786 -15.104868868075815 76 34 19
2.9508627589564913 -0.1521146585866615 -15.140680677495846 52 23 14
2.9512397785990165 -0.15586273458499256 -15.186497276031282 39 11 8
2.9526599992568814 -0.15979664901251045 -15.231048973312694 42 12 8
2.9538202499891186 -0.163698906803861 -15.276100121739248 43 17 14
2.94583620572463 -0.16609617393756348 -15.333797700985295 33 17 15
2.8927008732827186 -0.16103619588514273 -15.453610328322107 9 4 2
2.865725603155755 -0.16034523798308964 -15.538042642798747 5 6 5
2.8705698772503876 -0.16493176401232712 -15.578978675948328 6 6 6
2.9201659470986616 -0.17689384887467963 -15.55815180630163 10 9 8
2.895332429467068 -0.17661031886388145 -15.640312684498925 23 22 26
2.8867693027143915 -0.17902325146868447 -15.700206189169457 55 54 59
3.0297354126241896 -0.20624848068368973 -15.548943372819462 83 84 87
3.0611185100318767 -0.21517250606407856 -15.552795355135776 70 72 75
3.0839683484630775 -0.2226983698361218 -15.568527450853454 26 27 30
3.105101742766653 -0.22994313304431646 -15.586650914679646 9 9 11
3.0522881176735295 -0.2251843303947425 -15.709139166241462 7 7 9
3.1180022764167994 -0.24350901315507234 -15.71265863915537 5 5 7
4.152759723615744 -0.4609844492244708 -14.874621852096318 112 59 45
4.188151948016046 -0.4702061276874234 -14.868376219778389 116 64 52
4.197587337291308 -0.47536159881712337 -14.900616101985221 114 66 52
4.234124581068721 -0.4847473366043342 -14.892480300837976 115 69 57
4.266958207938105 -0.4935445491814585 -14.889730863102994 121 75 65
4.303246476337273 -0.5028676582935392 -14.881667202153244 125 82 72
4.339470550819064 -0.5121682548885074 -14.873542127473891 126 86 77
4.368827008554196 -0.52039566887885 -14.875632773688277 122 80 73
4.457398918873763 -0.5451082775296716 -14.880551703770575 116 73 64
4.629731297137524 -0.597311108361114 -14.941916769907015 107 61 48
4.66771806062942 -0.6067612163292724 -14.929586446938362 105 57 43
4.6959498115272655 -0.6147329090537255 -14.932344836310643 101 51 37
4.708534549756237 -0.6203550958700714 -14.959580385812554 91 42 26
4.731477789688527 -0.6275281799298347 -14.970555171488627 97 49 31
4.758093398680833 -0.635244713398136 -14.97568480121249 98 48 31
4.7788332735808465 -0.6420820963527261 -14.99004540608614 92 40 25
4.788735992014614 -0.6473118057194318 -15.021605338579299 91 39 22
4.794549021291421 -0.6519434442828527 -15.059764354231763 94 41 24
4.8085003304412846 -0.6577843115580606 -15.085031596740635 89 32 16
4.823391172451766 -0.6637666648836624 -15.108834234425121 87 29 15
4.848219758835945 -0.6712090004796132 -15.116685644495066 85 30 15
4.866730911100026 -0.6777223264479484 -15.134665984262206 84 29 15
4.857187696284307 -0.6801431077816935 -15.198041417739784 84 28 15
4.854672771902661 -0.6836080664004929 -15.250281851701256 83 27 14
4.868708576363483 -0.6894907504614682 -15.275783106745308 82 26 13
4.97210635854085 -0.712136721593662 -15.203542927900424 80 24 11
5.004622284453721 -0.7245045269876806 -15.246777072921589 78 23 11
4.881188594878677 -0.7264810576997578 -15.697717205765311 77 31 20
4.887245479348584 -0.7313191341129424 -15.737629619796587 78 35 26
4.890389622786407 -0.7357576739802014 -15.782574123873069 78 40 31
4.9444331396072565 -0.7473498705392896 -15.741744718806487 79 42 33
5.092080946959831 -0.7799382619412918 -15.641742451100475 79 50 40
4.99328993583874 -0.8072081062451864 -16.325585181051146 76 62 52
5.0134777257827645 -0.8352643111192768 -16.608599084195852 113 103 98
5.078793995873733 -0.84815324635981 -16.54515782684278 122 114 109
5.1583217011726115 -0.8886313227183447 -16.77948924305779 169 165 164
5.5072660251092005 -0.9675683764941618 -16.5672736220087 197 195 196
5.521744897342304 -0.9737052743195791 -16.594441198193984 201 199 200
5.503674458505157 -0.9758101824990417 -16.68328165094969 203 201 202
5.514721266022818 -0.9815469490667856 -16.717266544312853 205 204 204
5.518103933154702 -0.986348203755673 -16.76594745082317 206 206 206
5.528436638759881 -0.992016273078353 -16.801533809820494 207 207 207
5.6372579185742175 -1.0097171449344666 -16.64840556770579 208 208 208
5.717347237816012 -1.0238373051223812 -16.54944585904368 209 209 209
7.445172473326226 -1.512400456152314 -16.726858051456652 216 216 216
7.472497644660985 -1.5194398144680508 -16.72102532410727 214 214 214
7.500891501111256 -1.5265539213899102 -16.712443184515738 215 215 215
7.520483355791127 -1.5329381279848129 -16.72506974929914 216 216 216
7.541888845801315 -1.5394658590376655 -16.733239936168637 217 217 217
-2.91101735184383 1.645659695183478 -12.359196534526774 110 48 33
-2.868655303451022 1.6335449574149763 -12.365745339831658 111 48 33
-2.8232445488031397 1.6207873855902735 -12.369924686430625 119 53 39
-2.7834388524446343 1.6092321347647787 -12.378206425737119 117 51 38
-2.748538026015326 1.5987272400396024 -12.390100036925066 113 47 33
-2.6784567895885907 1.5807448209966832 -12.37539022554977 113 46 31
-1.9206374210737485 1.3747021451615582 -12.360088000285245 118 45 28
-1.9141130267533466 1.3702810056879775 -12.392789916362315 119 46 29
-1.82088828862818 1.3476808971754395 -12.356840537628173 120 47 30
-1.8066318539864987 1.341645639379957 -12.383331939618943 121 48 31
-1.4973827269266389 1.2557349402419369 -12.399776226076046 122 45 25
-1.4773762459650426 1.248522975584448 -12.421355679497612 124 47 27
-1.4390144166492718 1.2374973987583673 -12.427966086762538 123 45 25
-1.4096674156862647 1.2283495359441359 -12.441869402496216 123 45 25
-1.3643398163487666 1.2158910182339606 -12.442621671437953 123 45 24
-1.328016214681937 1.2053072424803628 -12.450666968914595 123 45 23
-1.2804158299711332 1.1923952259845694 -12.449333712081142 124 46 24
-1.2068634434550107 1.1741266831621588 -12.426397039300802 123 45 23
-1.1675070525923656 1.1629434242477006 -12.431589193292456 122 44 21
-1.1801377419703503 1.1624981017675793 -12.479961377266527 125 45 22
-1.1478690223592443 1.1527808081617101 -12.491015609096959 127 47 24
-1.083671017147048 1.1364897090347774 -12.475286807088013 126 46 23
-1.0222572192735928 1.1207885428997606 -12.461686300940197 127 47 24
-0.960919660651415 1.1051188919394586 -12.447953548125678 122 39 17
-0.9116600644431436 1.0919464478453125 -12.444221609539582 125 40 19
-0.8732389277375185 1.081009791398118 -12.449527938075091 129 44 21
-0.8192153623884417 1.066880837332326 -12.441498148580283 129 45 21
-0.7870285124901963 1.0572384321216262 -12.451901275416493 130 46 22
-0.7622467515176341 1.04911616971446 -12.46857133495791 128 44 20
-0.7305675071877582 1.0395853559092132 -12.479312410973378 125 43 19
-0.7023161353169449 1.0307591887001795 -12.492942580960484 132 50 26
-0.6721235285267548 1.0215399964300043 -12.504861932305264 129 47 23
-0.669305259414128 1.0179054119030422 -12.540380986010337 127 43 21
-0.6064661864343037 1.0020395645660982 -12.523987867561441 128 43 22
-0.5384742541751848 0.9851422539386869 -12.502907260552805 131 46 25
-0.4933963711987239 0.9729217090449709 -12.501555093075355 129 44 23
-0.46352251407029765 0.9637985457998204 -12.513364732220941 131 46 25
-0.4270807940615393 0.9533468806123495 -12.51937074927783 131 46 25
-0.40593943804272303 0.9460025631297431 -12.538741784886295 128 43 22
-0.3682199660525809 0.9353022318197761 -12.543497320188948 130 46 25
-0.2993947775050527 0.9183177046041824 -12.520671692407332 133 51 29
-0.2639950545455294 0.9081066789015302 -12.52722796174499 132 50 28
-0.23334167529274996 0.898859932494571 -12.537925925637852 129 47 25
-0.20274353365481534 0.8896286457008573 -12.548619533703672 132 48 24
-0.17055201073461568 0.8800807084917845 -12.557835118213426 130 46 22
-0.1270468839596237 0.8682611089355243 -12.556845492590847 134 50 26
-0.09239171759024334 0.8582302550083578 -12.563692948528221 134 50 26
-0.03667271653624038 0.8439754659562149 -12.551472232783608 132 49 25
0.04048103720412044 0.825435478432391 -12.519684879949075 134 49 26
0.055349835111814905 0.8194013312291732 -12.544085102545772 132 46 23
0.07414854336095988 0.8125783484812319 -12.56493729654865 134 51 27
0.09717742851203237 0.8049089413939472 -12.581937101638271 138 54 30
0.10936537162415139 0.7994065875650447 -12.608836110332838 136 50 27
0.11260425918128725 0.795686895277208 -12.64398383590353 129 44 20
0.11304715335875937 0.7925175575976788 -12.681790732603151 134 50 26
0.18723424133040734 0.7746545088135641 -12.651671519787548 135 51 27
0.24256682600294788 0.760565178179319 -12.638709512234641 133 49 25
0.27970887053638815 0.7501056833167399 -12.642436833139612 146 61 39
0.3050076363181109 0.7420044957419012 -12.657091593928609 140 58 36
0.36824160778222836 0.7263835561904777 -12.636321208253117 140 61 38
0.40513005319887085 0.7159996128461428 -12.639971780860986 144 66 43
0.44189531234979995 0.7056474246716142 -12.643646394992638 149 73 53
0.4742511114586909 0.6961740933462464 -12.651379343686713 148 79 61
0.48824349831990066 0.6903316654411944 -12.676374836748394 153 88 75
0.49569241128056163 0.6857772085250373 -12.707593920386905 167 104 88
0.5392062412758403 0.6741129357678028 -12.704648246794012 161 98 81
0.5701586166975643 0.6649308195558221 -12.71353027438995 149 84 65
0.6021185376607194 0.6555556053520655 -12.721389265796 150 81 57
0.6711363117694065 0.6389100203016709 -12.69370639376467 151 83 57
0.646342478555499 0.6406840802689602 -12.75581422908933 139 70 49
0.663640533779601 0.6341929826157044 -12.7776409155703 135 62 42
0.7080339972550052 0.6223989973954231 -12.773319967015134 149 77 56
0.7381808714471028 0.6134005240463676 -12.78265688014974 140 78 60
0.7739611313938264 0.6033069448985837 -12.786465508127359 130 68 51
0.8046251059339387 0.5942183038185318 -12.795166543166335 133 58 34
0.827025472471643 0.5867442411705137 -12.811875696169597 135 52 26
0.8105088689956963 0.5868430806226757 -12.866681348160837 108 21 5
0.8507323382827776 0.5758992150476456 -12.865962789380326 95 18 4
0.8246263768560311 0.5778397124499053 -12.930457610524751 76 12 3
0.8366253618960755 0.5723717074798687 -12.957571617946337 59 8 0
0.7911806729206061 0.5684961885119291 -13.159808103041222 20 14 14
0.7621292468985512 0.5709013745108906 -13.228531685260357 50 44 46
0.8681863319446244 0.5312089621718521 -13.36104570376246 9 5 6
0.9713508738581629 0.5050258671732097 -13.335816038704452 11 7 8
0.8756253241841652 0.5200402350358597 -13.47433542982373 11 7 8
