ply
format ascii 1.0
element vertex 838
property float x
property float y
property float z
property float nx
property float ny
property float nz
property uchar diffuse_red
property uchar diffuse_green
property uchar diffuse_blue
property uchar class
property uchar detection
end_header
-3.9352 1.3123 -12.4971 -0.191 0.425 0.885 114 49 34 0 0
-3.9848 1.3481 -12.5113 -0.077 0.309 0.948 116 51 34 0 0
-4.1577 1.4718 -12.4883 -0.190 0.146 0.971 112 45 29 0 0
-4.2918 1.5689 -12.5438 -0.317 0.551 0.772 116 44 29 0 0
-4.3053 1.5788 -12.5635 -0.766 0.357 0.534 115 43 27 0 0
-4.3600 1.6176 -12.5337 -0.565 0.446 0.694 115 43 27 0 0
-4.3806 1.6326 -12.5447 -0.531 0.708 0.466 117 45 28 0 0
-4.3911 1.6404 -12.5678 -0.568 0.630 0.530 118 45 28 0 0
-4.5197 1.7325 -12.5549 -0.806 -0.064 0.589 116 42 24 0 0
-4.5380 1.7458 -12.5684 -0.672 0.020 0.740 119 43 25 0 0
-4.5775 1.7740 -12.5557 -0.585 0.774 0.243 118 40 23 0 0
-4.9107 2.0190 -12.9695 -0.835 -0.291 0.468 76 38 32 0 0
-4.8768 1.9970 -13.1257 -0.894 -0.268 0.359 85 46 37 0 0
-4.9714 2.0685 -13.3770 -0.946 -0.302 0.114 92 54 48 0 0
-4.9223 2.0353 -13.5210 -0.997 -0.070 0.032 92 53 48 0 0
-4.9245 2.0374 -13.5567 -0.997 -0.071 0.014 92 53 47 0 0
-4.9180 2.0335 -13.6044 -0.976 -0.216 0.018 90 52 45 0 0
-4.8723 2.0056 -13.9439 -0.911 0.302 -0.282 100 50 40 0 0
-4.8299 1.9820 -14.4106 -0.984 -0.041 -0.176 95 63 55 0 0
-4.8163 1.9731 -14.4719 -0.981 -0.005 -0.196 95 64 55 0 0
-4.8023 1.9645 -14.5757 -0.713 0.689 0.127 90 59 48 0 0
-4.8071 1.9685 -14.6106 -0.734 0.679 0.018 75 37 26 0 0
-4.8092 1.9705 -14.6496 -0.844 0.530 -0.088 73 30 20 0 0
-4.7840 1.9567 -14.9421 -0.540 0.450 0.712 86 49 37 0 0
-4.7689 1.9468 -15.0079 -0.688 0.512 0.515 63 26 18 0 0
-4.7608 1.9623 -16.4779 -0.596 0.743 -0.303 57 45 41 0 0
-4.6271 1.8739 -16.9928 -0.363 -0.347 0.865 96 90 90 0 0
-4.7184 1.9386 -16.9385 -0.235 -0.161 0.959 113 112 110 0 0
-0.8460 -0.8630 -12.7605 -0.106 -0.365 0.925 111 66 60 0 0
-2.9520 0.6399 -12.4526 -0.369 0.206 0.906 105 47 36 0 0
-3.0084 0.6805 -12.4648 -0.294 -0.013 0.956 105 46 34 0 0
-3.1610 0.7900 -12.4813 -0.117 0.117 0.986 106 44 33 0 0
-3.8791 1.3039 -12.4723 -0.164 0.514 0.842 111 45 33 0 0
-3.9655 1.3665 -12.5157 -0.077 0.309 0.948 112 46 31 0 0
-4.2912 1.6004 -12.5621 -0.613 0.468 0.637 113 42 24 0 0
-4.3435 1.6374 -12.5352 -0.504 0.308 0.807 106 35 17 0 0
-4.3613 1.6504 -12.5496 -0.586 0.462 0.665 116 44 26 0 0
-4.3751 1.6606 -12.5688 -0.570 0.299 0.765 120 47 28 0 0
-4.4102 1.6856 -12.5623 -0.703 0.647 0.296 118 45 27 0 0
-4.4522 1.7154 -12.5472 -0.554 0.475 0.684 115 42 24 0 0
-4.4990 1.7486 -12.5260 -0.758 0.199 0.621 117 42 24 0 0
-4.5117 1.7580 -12.5463 -0.820 0.040 0.571 122 46 26 0 0
-4.5306 1.7717 -12.5590 -0.809 0.051 0.586 123 46 24 0 0
-4.5450 1.7823 -12.5771 -0.354 0.396 0.847 127 48 25 0 0
-4.8261 1.9877 -12.8391 -0.925 0.116 0.361 69 17 14 0 0
-4.9578 2.0904 -13.3748 -0.969 -0.146 0.199 92 55 49 0 0
-4.9327 2.0736 -13.4473 -0.999 -0.048 0.003 90 53 47 0 0
-4.8245 2.0117 -14.4369 -0.973 0.035 -0.227 93 63 55 0 0
-4.7867 1.9875 -14.6170 -0.680 0.734 0.008 100 70 61 0 0
-4.7910 1.9911 -14.6526 -0.221 0.973 0.073 88 52 45 0 0
-4.7544 1.9698 -14.9620 -0.576 -0.005 0.817 91 61 51 0 0
-4.7569 1.9722 -15.0014 -0.797 0.382 0.468 98 63 53 0 0
-4.8004 2.0043 -15.0659 -0.294 0.885 0.362 47 15 6 0 0
-4.8081 2.0104 -15.0976 -0.362 0.883 0.300 51 17 9 0 0
-4.8247 2.0232 -15.1596 -0.366 0.899 0.239 56 18 11 0 0
-4.7523 1.9911 -16.4160 -0.713 0.643 -0.280 66 50 47 0 0
-4.7318 1.9778 -16.4974 -0.642 0.700 -0.312 57 46 43 0 0
-0.8754 -0.8047 -12.7542 -0.025 -0.393 0.919 108 56 48 0 0
-0.9307 -0.7654 -12.7408 -0.094 -0.500 0.861 105 52 44 0 0
-1.7569 -0.1784 -12.5540 -0.306 0.055 0.950 101 46 35 0 0
-2.9417 0.6661 -12.4463 -0.186 0.797 0.575 105 47 36 0 0
-4.2582 1.6083 -12.5474 -0.354 0.113 0.929 119 49 29 0 0
-4.2854 1.6278 -12.5507 -0.739 0.066 0.671 125 54 36 0 0
-4.4263 1.7279 -12.5245 -0.956 0.211 0.205 119 46 28 0 0
-4.4419 1.7394 -12.5412 -0.750 0.357 0.557 117 43 25 0 0
-4.4732 1.7617 -12.5390 -0.497 0.447 0.744 117 43 24 0 0
-4.4906 1.7744 -12.5535 -0.313 0.432 0.846 125 50 31 0 0
-4.5086 1.7875 -12.5674 -0.323 0.157 0.933 129 54 30 0 0
-4.9196 2.0889 -13.0294 -0.800 -0.217 0.560 78 41 34 0 0
-4.8905 2.0694 -13.1050 -0.833 -0.088 0.546 79 42 35 0 0
-4.8880 2.0696 -13.2209 -0.655 -0.133 0.744 83 46 38 0 0
-4.7570 2.0008 -14.6788 -0.221 0.973 0.073 96 66 61 0 0
-4.7435 1.9958 -14.9541 -0.576 -0.005 0.817 93 64 57 0 0
-4.7431 1.9963 -14.9977 -0.797 0.382 0.468 92 60 51 0 0
-4.7538 2.0044 -15.0249 -0.838 0.398 0.373 93 58 50 0 0
-4.7750 2.0205 -15.0795 -0.554 0.727 0.407 98 67 59 0 0
-4.7866 2.0292 -15.1056 -0.660 0.614 0.433 45 14 8 0 0
-4.8035 2.0416 -15.1234 -0.575 0.522 0.630 49 16 10 0 0
-4.7463 2.0036 -15.2980 -0.970 0.230 -0.076 59 21 15 0 0
-4.7857 2.0315 -15.2818 -0.661 0.695 0.282 60 23 16 0 0
-4.7984 2.0410 -15.3065 -0.566 0.783 0.260 60 21 14 0 0
-4.8056 2.0468 -15.3395 -0.566 0.783 0.260 65 25 17 0 0
-4.8055 2.0497 -15.5178 -0.967 0.234 0.098 82 48 40 0 0
-4.8088 2.0527 -15.5575 -0.969 0.221 0.113 77 43 36 0 0
-4.8685 2.0991 -15.7806 -0.422 0.906 0.028 73 44 39 0 0
-4.7034 1.9937 -16.5160 -0.599 0.735 -0.318 58 48 45 0 0
-4.6324 1.9483 -16.8271 -0.341 0.911 0.231 82 77 77 0 0
-1.3814 -0.4096 -12.6017 -0.250 -0.119 0.961 103 50 40 0 0
-2.2415 0.2022 -12.5343 -0.328 -0.267 0.906 103 45 37 0 0
-2.7288 0.5491 -12.5077 -0.515 0.276 0.811 106 47 33 0 0
-4.4291 1.7616 -12.5384 -0.721 0.333 0.607 119 43 27 0 0
-4.4777 1.7965 -12.5509 -0.510 0.216 0.833 118 45 28 0 0
-4.7956 2.0290 -12.8764 -0.847 0.518 0.116 71 19 13 0 0
-4.8419 2.0690 -13.2621 -0.868 -0.207 0.452 82 45 39 0 0
-4.8769 2.0980 -13.4817 -0.909 0.402 0.114 90 53 45 0 0
-4.8812 2.1017 -13.5143 -0.938 0.341 -0.065 89 52 44 0 0
-4.7350 2.0227 -14.8996 -0.778 0.551 0.301 91 64 57 0 0
-4.7361 2.0242 -14.9409 -0.628 0.064 0.776 92 63 55 0 0
-4.7403 2.0287 -15.0207 -0.838 0.398 0.373 93 60 53 0 0
-4.7544 2.0399 -15.0861 -0.554 0.727 0.407 88 56 48 0 0
-4.7707 2.0519 -15.1049 -0.674 0.567 0.474 78 49 43 0 0
-4.7815 2.0641 -15.3513 -0.425 0.822 0.379 59 19 11 0 0
-4.7875 2.0690 -15.3864 -0.640 0.733 0.231 63 24 16 0 0
-4.8033 2.0823 -15.4955 -0.771 0.627 0.115 69 32 24 0 0
-4.8003 2.0810 -15.5449 -0.951 0.283 0.120 69 35 27 0 0
-4.8041 2.0844 -15.5840 -0.966 0.227 0.120 70 37 29 0 0
-4.8115 2.0919 -15.7080 -0.991 0.040 0.131 73 39 33 0 0
-4.8163 2.0961 -15.7458 -0.991 0.040 0.131 73 41 34 0 0
-4.7443 2.0536 -16.2313 -0.958 -0.287 0.024 79 59 54 0 0
-4.7399 2.0514 -16.2856 -0.966 -0.258 0.011 77 59 55 0 0
-4.7086 2.0318 -16.4315 -0.779 0.563 -0.276 55 43 40 0 0
-4.6893 2.0195 -16.5108 -0.779 0.563 -0.276 58 49 46 0 0
-0.7953 -0.7881 -12.7198 -0.269 -0.175 0.947 106 55 46 0 0
-1.1943 -0.5063 -12.6129 -0.365 -0.325 0.872 100 46 36 0 0
-1.2283 -0.4821 -12.6180 -0.365 -0.325 0.872 100 46 36 0 0
-1.4306 -0.3390 -12.5757 -0.166 0.865 0.474 99 45 35 0 0
-2.3527 0.3157 -12.5144 -0.091 -0.119 0.989 106 48 37 0 0
-2.7252 0.5802 -12.4943 -0.303 0.456 0.837 107 48 34 0 0
-2.7684 0.6107 -12.4855 0.079 0.032 0.996 106 47 34 0 0
-2.9281 0.7239 -12.4621 -0.443 -0.075 0.893 107 47 34 0 0
-3.4451 1.0912 -12.4424 -0.506 -0.059 0.861 111 47 35 0 0
-4.4458 1.8048 -12.5355 -0.431 0.412 0.803 125 51 32 0 0
-4.4861 1.8339 -12.5580 -0.404 0.009 0.915 131 56 34 0 0
-4.5040 1.8469 -12.5718 -0.454 0.276 0.847 132 55 32 0 0
-4.7905 2.0564 -12.8635 -0.725 0.659 0.200 78 22 14 0 0
-4.8905 2.1299 -12.9910 -0.621 -0.460 0.634 74 37 30 0 0
-4.9037 2.1397 -13.0107 -0.616 -0.203 0.762 75 38 32 0 0
-4.8886 2.1352 -13.3306 -0.191 0.211 0.959 86 49 41 0 0
-4.8360 2.1161 -14.2695 -0.970 0.242 0.009 97 64 57 0 0
-4.8373 2.1186 -14.3495 -0.919 0.222 0.327 98 64 58 0 0
-4.7739 2.0777 -14.5655 -0.988 0.148 -0.049 97 66 61 0 0
-4.7629 2.0718 -14.6653 -0.976 0.193 -0.104 96 68 61 0 0
-4.7569 2.0710 -14.8433 -0.994 0.096 0.055 92 65 58 0 0
-4.7657 2.0778 -14.8729 -0.927 -0.308 0.215 90 62 54 0 0
-4.7135 2.0439 -15.0363 -0.792 0.376 0.481 92 61 54 0 0
-4.7279 2.0545 -15.0581 -0.735 0.483 0.476 91 59 51 0 0
-4.7337 2.0593 -15.0927 -0.554 0.727 0.407 98 68 60 0 0
-4.7618 2.0845 -15.3564 -0.661 0.695 0.282 62 31 25 0 0
-4.7670 2.0889 -15.3927 -0.640 0.733 0.231 63 32 26 0 0
-4.7782 2.0983 -15.4642 -0.641 0.750 0.164 67 36 29 0 0
-4.7830 2.1024 -15.5015 -0.641 0.750 0.164 68 38 30 0 0
-4.7877 2.1065 -15.5388 -0.641 0.750 0.164 68 39 32 0 0
-4.7910 2.1096 -15.5786 -0.844 0.497 0.201 70 41 35 0 0
-4.7958 2.1137 -15.6161 -0.883 0.431 0.186 71 43 38 0 0
-4.8012 2.1183 -15.6527 -0.883 0.431 0.186 69 41 36 0 0
-4.8069 2.1230 -15.6891 -0.987 0.058 0.153 70 42 37 0 0
-4.8061 2.1234 -15.7357 -0.582 0.801 0.140 70 44 39 0 0
-4.7564 2.0968 -16.1843 -0.959 -0.284 0.012 57 43 39 0 0
-4.7507 2.0938 -16.2406 -0.966 -0.258 0.011 53 39 37 0 0
-4.7301 2.0816 -16.3686 -0.994 -0.036 -0.098 54 44 42 0 0
-4.7334 2.0858 -16.4584 -1.000 -0.004 -0.006 64 57 57 0 0
-4.5893 1.9898 -16.7919 -0.731 0.680 -0.059 78 74 73 0 0
-4.6010 1.9996 -16.8704 -0.869 0.482 0.114 92 91 89 0 0
-0.8312 -0.7264 -12.6709 -0.116 -0.213 0.970 104 52 43 0 0
-0.8795 -0.6922 -12.6640 -0.123 -0.333 0.935 103 50 42 0 0
-1.5884 -0.1906 -12.5923 0.292 0.249 0.924 100 43 34 0 0
-2.3684 0.3614 -12.5178 -0.072 0.444 0.893 107 47 36 0 0
-2.7499 0.6315 -12.4876 0.079 0.032 0.996 108 49 35 0 0
-4.2589 1.7032 -12.5279 -0.438 0.495 0.751 116 40 26 0 0
-4.4296 1.8246 -12.5369 -0.431 0.412 0.803 119 46 27 0 0
-4.4469 1.8372 -12.5515 -0.320 0.458 0.830 120 48 27 0 0
-4.6209 1.9667 -12.8412 -0.131 -0.723 0.678 119 58 37 0 0
-4.7938 2.0893 -12.8401 -0.966 -0.044 0.257 84 24 12 0 0
-4.8549 2.1372 -13.0551 -0.656 0.045 0.754 74 37 31 0 0
-4.8754 2.1527 -13.1024 -0.912 0.211 0.351 75 38 32 0 0
-4.8830 2.1586 -13.1297 -0.938 0.191 0.291 75 38 32 0 0
-4.8989 2.1813 -13.6804 -0.822 0.494 0.283 74 41 34 0 0
-4.9066 2.1874 -13.7088 -0.879 0.444 0.174 72 38 32 0 0
-4.9111 2.1913 -13.7417 -0.879 0.444 0.174 70 35 28 0 0
-4.7322 2.0910 -15.0272 -0.528 -0.180 0.830 93 64 56 0 0
-4.7746 2.1344 -15.6684 -0.582 0.801 0.140 33 19 17 0 0
-4.7788 2.1381 -15.7071 -0.582 0.801 0.140 35 21 19 0 0
-4.7830 2.1419 -15.7459 -0.582 0.801 0.140 33 21 18 0 0
-4.7800 2.1408 -15.7961 -0.474 0.878 0.066 31 20 16 0 0
-4.7804 2.1420 -15.8411 -0.422 0.906 0.028 31 22 17 0 0
-4.7542 2.1301 -16.1606 -0.993 -0.078 -0.087 40 30 28 0 0
-4.7348 2.1199 -16.3331 -0.995 -0.030 -0.094 55 45 44 0 0
-1.2652 -0.3847 -12.5511 -0.951 0.109 0.289 107 50 41 0 0
-1.5040 -0.2149 -12.5829 -0.432 -0.358 0.828 103 46 35 0 0
-1.8469 0.0272 -12.5458 -0.081 -0.026 0.996 107 47 36 0 0
-1.9840 0.1245 -12.5574 -0.918 -0.084 0.389 108 48 37 0 0
-2.3193 0.3609 -12.5143 -0.052 0.235 0.971 107 47 37 0 0
-3.3538 1.0911 -12.4009 -0.295 0.220 0.930 113 48 36 0 0
-4.0934 1.6168 -12.4913 -0.140 -0.179 0.974 117 46 28 0 0
-4.1240 1.6392 -12.5266 -0.461 0.078 0.884 119 46 31 0 0
-4.1438 1.6535 -12.5390 -0.406 -0.016 0.914 118 45 30 0 0
-4.2414 1.7225 -12.5304 -0.438 0.495 0.751 115 39 23 0 0
-4.4296 1.8562 -12.5542 -0.148 0.485 0.862 121 46 27 0 0
-4.7992 2.1245 -12.8503 -0.856 0.501 0.128 86 27 13 0 0
-4.8040 2.1285 -12.8807 -0.890 0.359 0.281 78 29 17 0 0
-4.8023 2.1330 -13.1416 -0.952 -0.065 0.300 74 37 28 0 0
-4.8326 2.1578 -13.2891 -0.981 0.174 0.083 81 44 36 0 0
-4.9049 2.2221 -13.8862 -0.981 0.191 -0.015 106 64 52 0 0
-4.7810 2.1507 -14.6339 -0.987 0.146 -0.071 94 65 58 0 0
-4.7775 2.1493 -14.6809 -0.973 0.224 -0.060 94 65 60 0 0
-4.7935 2.1620 -14.7415 -0.836 0.542 -0.085 90 61 55 0 0
-4.7528 2.1567 -15.8127 -0.474 0.878 0.066 22 16 15 0 0
-4.7870 2.1807 -15.8043 -0.983 -0.184 -0.016 22 17 16 0 0
-4.8034 2.1927 -15.8240 -0.895 -0.446 0.009 24 19 18 0 0
1.3108 -2.1316 -14.1499 0.124 0.085 0.989 167 157 157 0 0
-1.2411 -0.3671 -12.4844 -0.891 0.427 0.153 113 59 52 0 0
-1.2662 -0.3474 -12.5701 -0.538 0.715 0.447 106 48 40 0 0
-2.2091 0.3172 -12.4994 -0.034 0.205 0.978 110 49 39 0 0
-2.5642 0.5682 -12.5012 -0.610 -0.422 0.671 110 48 35 0 0
-3.3987 1.1564 -12.4411 -0.029 0.352 0.936 116 50 36 0 0
-3.8631 1.4857 -12.4907 -0.125 0.328 0.936 123 52 36 0 0
-4.1131 1.6631 -12.5214 -0.474 0.047 0.879 124 50 33 0 0
-4.1331 1.6775 -12.5335 -0.477 -0.000 0.879 120 46 29 0 0
-4.2320 1.7471 -12.5236 -0.572 0.521 0.633 122 47 29 0 0
-4.3919 1.8607 -12.5459 -0.660 0.270 0.701 126 51 32 0 0
-4.8132 2.1731 -13.1820 -0.900 0.425 -0.097 76 39 31 0 0
-4.8120 2.1732 -13.2211 -0.885 0.465 -0.005 78 41 33 0 0
-4.8143 2.1773 -13.3311 -0.772 0.621 0.132 82 45 37 0 0
-4.8378 2.1941 -13.3376 -0.972 0.235 0.015 84 47 39 0 0
-4.8997 2.2502 -13.8718 -0.981 0.191 -0.015 108 68 54 0 0
-4.7649 2.1825 -15.0589 -0.787 -0.252 0.564 89 59 51 0 0
-4.7716 2.1880 -15.0920 -0.817 0.008 0.576 82 54 48 0 0
-4.7596 2.1820 -15.1970 -0.521 0.798 0.303 34 23 23 0 0
-4.7905 2.2038 -15.1936 -0.848 0.523 0.080 31 21 20 0 0
-4.6385 2.1262 -16.4819 -0.893 0.313 -0.322 62 55 53 0 0
1.1495 -1.9778 -14.0730 -0.265 -0.565 0.781 127 98 94 0 0
-1.2091 -0.3542 -12.4613 -0.501 -0.014 0.866 111 55 48 0 0
-1.2385 -0.3306 -12.5794 -0.627 0.723 0.290 106 48 39 0 0
-2.5188 0.5691 -12.4590 -0.574 0.523 0.630 110 46 34 0 0
-2.5330 0.5797 -12.4803 -0.764 0.463 0.448 109 45 33 0 0
-2.5401 0.5854 -12.5088 -0.758 0.515 0.400 109 45 33 0 0
-3.0976 0.9774 -12.4640 -0.510 0.412 0.755 117 52 40 0 0
-3.4147 1.2013 -12.4772 -0.353 -0.041 0.935 116 49 34 0 0
-3.4391 1.2186 -12.4860 -0.584 -0.034 0.811 116 49 33 0 0
-4.3491 1.8617 -12.5435 -0.221 -0.086 0.971 124 49 29 0 0
-4.3910 1.8917 -12.5643 -0.201 0.457 0.866 125 50 31 0 0
-4.8627 2.2382 -13.1339 -0.286 0.566 0.773 78 41 33 0 0
-4.8514 2.2325 -13.2237 0.031 0.759 0.650 83 46 38 0 0
-4.8076 2.2039 -13.3197 -0.848 0.488 0.206 83 46 38 0 0
-4.8414 2.2275 -13.3124 -0.996 -0.020 0.086 84 47 39 0 0
-4.7266 2.1901 -15.0920 -0.937 0.340 0.081 89 58 50 0 0
-4.7312 2.1943 -15.1283 -0.892 0.414 0.180 94 61 54 0 0
-4.7289 2.1938 -15.1751 -0.103 0.677 0.729 57 35 32 0 0
-4.7370 2.2002 -15.2066 -0.414 0.833 0.366 34 23 22 0 0
-4.5675 2.1152 -16.6172 -0.904 0.290 -0.315 68 64 62 0 0
1.4360 -2.1359 -14.1401 -0.091 -0.384 0.919 127 103 99 0 0
1.3743 -2.0928 -14.1279 -0.146 -0.475 0.868 126 99 96 0 0
1.3291 -2.0610 -14.1299 0.059 -0.254 0.965 122 93 88 0 0
1.1389 -1.9294 -14.0457 -0.045 -0.140 0.989 112 74 68 0 0
-1.3964 -0.1839 -12.5618 -0.187 -0.274 0.943 108 48 37 0 0
-1.4399 -0.1533 -12.5574 -0.326 -0.354 0.877 107 48 37 0 0
-1.7163 0.0409 -12.5493 0.407 0.135 0.903 110 48 37 0 0
-2.3709 0.4997 -12.4840 -0.140 -0.098 0.985 111 47 35 0 0
-3.0783 0.9970 -12.4673 -0.422 -0.006 0.907 116 51 39 0 0
-3.1242 1.0298 -12.4897 -0.279 0.031 0.960 115 49 36 0 0
-3.1584 1.0538 -12.4887 -0.076 0.149 0.986 115 49 36 0 0
-3.3911 1.2166 -12.4502 -0.153 0.032 0.988 116 48 33 0 0
-3.4610 1.2656 -12.4446 -0.340 -0.068 0.938 116 49 33 0 0
-3.8535 1.5423 -12.4663 -0.436 0.803 0.405 122 49 33 0 0
-3.8659 1.5516 -12.4875 -0.342 0.671 0.658 117 44 29 0 0
-4.1673 1.7646 -12.5284 -0.524 -0.250 0.814 117 42 21 0 0
-4.6968 2.1408 -12.6701 -0.351 -0.068 0.934 128 59 39 0 0
-4.7808 2.2036 -12.8164 -0.856 0.255 0.449 102 32 7 0 0
-4.8499 2.2603 -13.1309 -0.555 0.485 0.676 80 43 35 0 0
-4.8590 2.2674 -13.1561 -0.215 -0.024 0.976 82 45 37 0 0
-4.8673 2.2739 -13.1825 -0.683 0.525 0.509 83 46 38 0 0
-4.8769 2.2823 -13.2447 -0.936 0.350 0.039 84 47 39 0 0
1.4912 -2.1329 -14.1286 -0.210 -0.524 0.825 118 87 84 0 0
-3.0449 1.0062 -12.4502 -0.338 -0.096 0.936 117 51 39 0 0
-3.4359 1.2807 -12.4548 -0.170 -0.175 0.970 116 49 32 0 0
-4.1651 1.7942 -12.5129 -0.634 -0.186 0.751 118 42 24 0 0
-4.5043 2.0328 -12.5326 -0.417 0.365 0.832 125 52 32 0 0
-4.6597 2.1454 -12.6620 0.037 0.723 0.690 155 97 79 0 0
-4.6892 2.1660 -12.6610 -0.316 0.727 0.610 141 77 59 0 0
-4.7162 2.1860 -12.6988 -0.316 0.727 0.610 123 57 35 0 0
-4.7573 2.2164 -12.7548 -0.467 0.391 0.793 119 38 7 0 0
-4.8687 2.3025 -13.0492 -0.473 0.751 0.460 80 43 35 0 0
-4.8339 2.2803 -13.1322 -0.555 0.485 0.676 81 44 36 0 0
-4.8560 2.2971 -13.1775 -0.610 0.656 0.444 84 47 39 0 0
-4.8677 2.3069 -13.2367 -0.806 0.592 -0.001 85 48 40 0 0
-4.8541 2.3144 -13.8706 -0.573 0.819 0.011 96 57 43 0 0
-4.7829 2.2880 -14.7469 -0.987 0.151 0.056 105 69 57 0 0
-4.7791 2.2866 -14.7947 -0.827 0.530 0.189 103 69 59 0 0
-4.8090 2.3099 -14.8773 -0.010 0.934 0.358 91 57 51 0 0
-4.7139 2.2515 -15.1921 -0.751 0.200 0.629 37 21 18 0 0
-4.7287 2.2625 -15.2132 -0.751 0.200 0.629 30 21 21 0 0
1.1468 -1.8550 -13.9351 -0.017 -0.370 0.929 111 58 48 0 0
1.0722 -1.8034 -13.9108 -0.137 -0.422 0.896 110 55 44 0 0
0.9847 -1.7431 -13.8748 0.005 0.291 0.957 110 53 42 0 0
-0.6454 -0.6333 -12.7399 -0.831 0.301 0.469 109 54 44 0 0
-0.6571 -0.6244 -12.7665 -0.831 0.301 0.469 110 52 43 0 0
-2.5154 0.6693 -12.4834 -0.215 -0.086 0.973 113 49 39 0 0
-2.5458 0.6907 -12.4882 -0.215 -0.086 0.973 115 49 40 0 0
-2.6963 0.7948 -12.4413 -0.391 -0.294 0.872 113 48 34 0 0
-2.7265 0.8161 -12.4458 -0.704 -0.137 0.697 113 50 35 0 0
-2.7465 0.8305 -12.4607 -0.778 -0.181 0.602 114 51 36 0 0
-2.9554 0.9767 -12.4565 -0.128 0.524 0.842 115 49 37 0 0
-3.2138 1.1580 -12.4658 -0.385 -0.057 0.921 118 51 35 0 0
-3.5035 1.3600 -12.4341 -0.566 0.093 0.819 117 48 32 0 0
-3.5184 1.3710 -12.4529 -0.266 -0.095 0.959 116 47 31 0 0
-3.8332 1.5925 -12.4894 -0.449 0.272 0.851 119 46 28 0 0
-3.8503 1.6049 -12.5054 -0.714 -0.034 0.699 119 45 28 0 0
-4.1655 1.8254 -12.4945 -0.554 -0.178 0.813 121 44 25 0 0
-4.2459 1.8830 -12.5413 -0.539 0.160 0.827 125 48 28 0 0
-4.2953 1.9180 -12.5535 -0.348 0.222 0.911 123 46 26 0 0
-4.4868 2.0516 -12.5357 -0.276 0.466 0.841 130 57 37 0 0
-4.8308 2.3037 -12.9321 -0.736 0.299 0.608 77 35 27 0 0
-4.8476 2.3169 -12.9835 -0.703 0.466 0.537 76 38 30 0 0
-4.8179 2.3003 -13.1334 -0.555 0.485 0.676 82 45 37 0 0
-4.8305 2.3236 -13.6476 -0.841 0.539 0.050 79 42 35 0 0
-4.8023 2.3275 -14.4868 -0.996 -0.021 -0.082 101 63 52 0 0
-4.7576 2.3039 -14.7606 -0.845 0.528 0.087 102 67 57 0 0
-4.7621 2.3080 -14.7961 -0.785 0.590 0.188 101 67 58 0 0
-4.7811 2.3242 -14.8950 -0.175 0.884 0.435 91 57 50 0 0
-4.7314 2.2987 -15.2280 -0.751 0.200 0.629 25 20 20 0 0
-5.4587 2.8595 -17.0520 -0.688 -0.539 0.485 197 197 197 0 0
2.6738 -2.8742 -14.1640 -0.094 0.060 0.994 212 213 215 0 0
1.3788 -1.9741 -13.9960 -0.319 -0.629 0.709 112 60 49 0 0
1.1252 -1.7985 -13.9393 0.045 0.171 0.984 111 51 41 0 0
1.0259 -1.7304 -13.8932 -0.214 0.750 0.625 110 50 39 0 0
-0.7576 -0.5191 -12.6966 0.133 0.138 0.981 111 52 44 0 0
-2.7235 0.8471 -12.4321 -0.613 -0.042 0.789 114 51 36 0 0
-3.1052 1.1125 -12.3878 -0.150 0.631 0.761 116 50 38 0 0
-3.7986 1.5997 -12.4758 -0.685 0.295 0.666 121 48 31 0 0
-3.8219 1.6163 -12.4847 -0.279 0.325 0.904 121 48 29 0 0
-3.8426 1.6311 -12.4964 -0.279 0.325 0.904 120 46 27 0 0
-3.9636 1.7147 -12.4641 -0.611 0.388 0.690 122 47 28 0 0
-3.9815 1.7277 -12.4788 -0.528 0.394 0.752 123 48 29 0 0
-4.1356 1.8363 -12.5117 0.056 0.629 0.775 121 43 23 0 0
-4.2309 1.9038 -12.5411 -0.517 0.595 0.615 127 50 30 0 0
-4.4541 2.0592 -12.5217 -0.489 -0.020 0.872 127 51 31 0 0
-4.6803 2.2227 -12.7064 -0.352 0.503 0.789 140 77 59 0 0
-4.7974 2.3119 -12.9560 -0.571 0.021 0.821 74 32 23 0 0
-4.8082 2.3201 -12.9787 -0.824 0.024 0.567 78 37 29 0 0
-4.8150 2.3257 -13.0065 -0.845 0.303 0.442 76 36 30 0 0
-4.8269 2.3369 -13.1017 -0.614 0.476 0.630 80 43 35 0 0
-4.8220 2.3561 -13.8722 -0.788 0.614 0.047 102 60 48 0 0
-4.8229 2.3578 -13.9104 -0.788 0.614 0.047 94 57 48 0 0
-4.7405 2.3204 -14.5948 -0.471 0.878 -0.090 97 62 52 0 0
-4.7324 2.3200 -14.7739 -0.703 0.707 -0.082 99 66 58 0 0
-4.7662 2.3471 -14.8932 -0.273 0.756 0.594 90 57 50 0 0
2.7467 -2.8799 -14.2053 -0.279 -0.384 0.880 210 211 213 0 0
2.3640 -2.6135 -14.1872 0.003 -0.060 0.998 163 150 148 0 0
1.4702 -1.9980 -13.9340 -0.020 -0.102 0.995 113 58 47 0 0
1.3964 -1.9472 -13.9117 -0.144 -0.201 0.969 113 56 45 0 0
1.1353 -1.7658 -13.8899 -0.129 -0.327 0.936 110 50 39 0 0
-0.6641 -0.5477 -12.6905 0.143 0.001 0.990 111 56 47 0 0
-2.5276 0.7452 -12.4732 -0.264 -0.125 0.956 114 50 40 0 0
-2.5469 0.7591 -12.4891 -0.804 -0.005 0.595 114 50 39 0 0
-2.6163 0.8076 -12.4896 -0.578 -0.100 0.810 113 50 36 0 0
-2.7059 0.8683 -12.4334 -0.187 0.037 0.982 115 51 38 0 0
-2.7665 0.9108 -12.4419 -0.259 0.301 0.918 115 51 38 0 0
-2.8000 0.9342 -12.4428 -0.302 0.574 0.761 116 50 38 0 0
-2.8181 0.9473 -12.4595 -0.252 0.612 0.750 117 51 39 0 0
-3.0736 1.1238 -12.4042 -0.717 0.328 0.616 115 49 37 0 0
-3.3077 1.2880 -12.4365 -0.194 0.100 0.976 116 46 30 0 0
-3.4553 1.3904 -12.4170 -0.340 0.213 0.916 118 50 31 0 0
-3.7807 1.6192 -12.4784 -0.492 0.553 0.672 121 48 29 0 0
-3.9267 1.7203 -12.4534 -0.304 0.242 0.921 121 46 27 0 0
-3.9666 1.7489 -12.4782 -0.692 0.379 0.614 123 46 29 0 0
-4.2136 1.9231 -12.5436 -0.496 0.575 0.651 133 56 36 0 0
-4.6628 2.2414 -12.7096 -0.516 0.574 0.636 145 81 62 0 0
-4.7272 2.2894 -12.8084 -0.787 0.118 0.606 101 34 7 0 0
-4.7986 2.3476 -13.0821 -0.667 0.310 0.677 79 42 34 0 0
-4.8126 2.3579 -13.1007 -0.699 0.516 0.494 79 42 34 0 0
-4.7999 2.3827 -14.2001 -0.947 0.319 -0.035 89 56 46 0 0
-4.8156 2.3942 -14.2182 -0.978 0.202 -0.044 90 56 46 0 0
-4.7984 2.3842 -14.2833 -0.923 0.380 0.056 91 57 47 0 0
-4.7986 2.3856 -14.3235 -0.922 0.386 0.025 91 58 48 0 0
-4.8003 2.3879 -14.3619 -0.928 0.373 -0.023 92 58 49 0 0
-4.7454 2.3661 -14.9003 -0.559 0.451 0.695 90 57 50 0 0
2.7259 -2.8291 -13.9622 -0.524 0.822 0.223 212 214 213 0 0
2.6938 -2.7997 -14.1870 -0.279 -0.384 0.880 203 201 203 0 0
-2.6097 0.8363 -12.4795 -0.638 -0.138 0.758 114 51 37 0 0
-2.7485 0.9317 -12.4436 -0.259 0.301 0.918 116 52 40 0 0
-2.7941 0.9642 -12.4674 -0.193 0.699 0.688 121 55 43 0 0
-2.8224 0.9841 -12.4735 -0.082 0.505 0.859 116 50 38 0 0
-3.0328 1.1280 -12.3950 -0.361 0.018 0.932 113 48 35 0 0
-3.0572 1.1453 -12.4046 -0.655 0.110 0.748 113 49 36 0 0
-3.0761 1.1589 -12.4199 -0.705 -0.004 0.709 116 49 36 0 0
-3.0933 1.1714 -12.4370 -0.705 -0.004 0.709 118 50 36 0 0
-3.1165 1.1879 -12.4476 -0.565 -0.009 0.825 115 49 33 0 0
-3.3132 1.3248 -12.4486 -0.064 -0.132 0.989 117 48 32 0 0
-3.4606 1.4268 -12.4293 -0.287 0.681 0.673 119 48 30 0 0
-3.5538 1.4917 -12.4325 -0.730 -0.181 0.659 121 48 31 0 0
-3.7669 1.6403 -12.4412 -0.444 -0.048 0.895 121 48 29 0 0
-3.8868 1.7239 -12.4462 -0.561 0.289 0.776 124 49 30 0 0
-3.9034 1.7359 -12.4625 -0.514 0.440 0.736 121 46 28 0 0
-4.1506 1.9100 -12.5291 -0.330 0.254 0.909 124 46 24 0 0
-4.1795 1.9302 -12.5304 -0.257 -0.017 0.966 122 44 24 0 0
-4.3023 2.0167 -12.5617 -0.585 0.667 0.461 127 49 29 0 0
-4.7204 2.3151 -12.7981 -0.612 0.442 0.656 99 31 6 0 0
-4.7890 2.3729 -13.1119 -0.940 0.087 0.329 79 42 34 0 0
-4.8114 2.3898 -13.1568 -0.907 0.281 0.313 80 42 35 0 0
-4.8189 2.3960 -13.1840 -0.907 0.281 0.313 80 41 34 0 0
-4.7804 2.3792 -13.4994 -0.911 0.197 0.362 85 46 39 0 0
-4.7893 2.3862 -13.5257 -0.911 0.197 0.362 85 46 39 0 0
-4.7953 2.4025 -13.9056 -0.685 0.632 0.363 92 61 53 0 0
-4.7055 2.3647 -14.6826 -0.383 0.920 0.084 96 63 54 0 0
-5.1126 2.7198 -16.9348 -0.055 -0.594 0.803 182 182 182 0 0
2.7760 -2.8210 -13.9434 0.130 0.892 0.433 212 214 213 0 0
2.7454 -2.7992 -13.9606 0.196 0.838 0.510 212 214 213 0 0
2.4641 -2.5976 -14.1505 -0.121 -0.230 0.966 126 97 93 0 0
1.8194 -2.1553 -13.9897 0.022 -0.070 0.997 112 53 43 0 0
1.6515 -2.0393 -13.9712 0.076 -0.065 0.995 110 52 41 0 0
1.4252 -1.8845 -13.9013 -0.231 -0.385 0.893 111 51 40 0 0
1.3281 -1.8172 -13.8995 -0.219 -0.227 0.949 109 49 37 0 0
1.4263 -1.8812 -14.0247 -0.486 -0.730 0.481 109 50 37 0 0
-1.1039 -0.1720 -12.5892 -0.152 -0.295 0.943 111 50 39 0 0
-2.4336 0.7471 -12.4634 -0.291 -0.007 0.957 114 50 40 0 0
-2.6756 0.9140 -12.4309 -0.003 0.184 0.983 114 50 38 0 0
-2.7569 0.9712 -12.4536 -0.302 0.574 0.761 116 50 38 0 0
-2.7732 0.9831 -12.4722 -0.195 0.677 0.710 116 50 38 0 0
-2.7930 0.9974 -12.4871 -0.220 0.576 0.787 115 49 37 0 0
-3.0866 1.1992 -12.4271 -0.538 0.011 0.843 117 50 35 0 0
-3.1069 1.2138 -12.4408 -0.565 -0.009 0.825 116 50 34 0 0
-3.5304 1.5078 -12.4410 -0.521 -0.011 0.853 120 47 30 0 0
-3.7806 1.6816 -12.4436 -0.412 -0.075 0.908 122 49 30 0 0
-3.8231 1.7119 -12.4659 -0.346 -0.054 0.937 124 49 30 0 0
-3.8818 1.7528 -12.4696 -0.265 0.333 0.905 121 46 27 0 0
-3.9011 1.7666 -12.4828 -0.306 0.169 0.937 121 46 26 0 0
-4.0349 1.8614 -12.5403 -0.551 -0.096 0.829 127 51 29 0 0
-4.2253 1.9921 -12.4938 -0.717 0.345 0.606 126 50 30 0 0
-4.2370 2.0009 -12.5153 -0.799 0.261 0.542 132 57 36 0 0
-4.4140 2.1249 -12.5512 -0.390 0.468 0.793 132 57 36 0 0
-4.7824 2.3989 -13.1009 -0.946 0.078 0.315 79 42 34 0 0
-4.7980 2.4116 -13.1545 -0.965 0.059 0.254 81 43 35 0 0
-4.7779 2.4199 -13.8298 -0.424 0.773 0.471 114 64 43 0 0
-4.8572 2.4752 -13.8374 -0.818 0.204 0.538 86 55 49 0 0
-4.7638 2.4266 -14.3284 -0.815 0.578 0.029 92 58 49 0 0
-4.7067 2.3910 -14.4510 -0.685 0.708 0.170 92 58 49 0 0
-4.6906 2.3833 -14.5565 -0.554 0.828 0.083 95 61 52 0 0
-4.6747 2.3758 -14.6624 -0.429 0.903 -0.006 96 63 54 0 0
-4.6614 2.3770 -14.9769 -0.590 0.775 0.227 91 58 51 0 0
-4.4567 2.2536 -15.5432 -0.520 0.743 -0.421 58 38 34 0 0
-4.4201 2.2314 -15.6429 -0.737 0.493 -0.462 41 38 39 0 0
-4.3649 2.1974 -15.7711 -0.594 0.721 -0.356 36 35 33 0 0
-5.1008 2.7449 -16.8766 -0.793 0.057 0.606 181 181 181 0 0
-5.1094 2.7520 -16.9108 -0.055 -0.594 0.803 183 183 183 0 0
-5.1895 2.8095 -16.9671 -0.425 -0.257 0.868 186 186 186 0 0
1.9859 -2.2285 -13.9879 -0.155 -0.368 0.917 110 54 43 0 0
1.9225 -2.1851 -13.9763 -0.070 -0.204 0.976 109 52 42 0 0
1.4758 -1.8772 -13.9269 -0.190 -0.106 0.976 111 50 39 0 0
-0.6185 -0.4703 -12.6459 -0.412 -0.146 0.899 110 57 45 0 0
-0.6374 -0.4553 -12.7026 0.148 0.011 0.989 111 51 40 0 0
-2.4387 0.7836 -12.4417 -0.171 0.013 0.985 114 50 40 0 0
-2.5484 0.8595 -12.4374 -0.555 -0.304 0.774 113 49 38 0 0
-2.7366 0.9906 -12.4577 -0.342 0.556 0.757 114 49 36 0 0
-2.7541 1.0033 -12.4750 -0.342 0.556 0.757 115 49 36 0 0
-2.7735 1.0173 -12.4904 -0.411 0.449 0.793 112 46 33 0 0
-3.0764 1.2247 -12.4209 -0.538 0.011 0.843 114 48 34 0 0
-3.0974 1.2397 -12.4340 -0.565 -0.009 0.825 115 49 33 0 0
-3.4620 1.4921 -12.4285 0.103 0.349 0.932 118 46 29 0 0
-3.5205 1.5328 -12.4346 -0.521 -0.011 0.853 119 46 29 0 0
-3.8640 1.7721 -12.4723 -0.271 0.386 0.882 121 46 27 0 0
-3.8864 1.7880 -12.4819 -0.339 0.064 0.939 121 46 25 0 0
-3.9407 1.8271 -12.5256 -0.317 -0.065 0.946 121 44 21 0 0
-4.0474 1.9004 -12.5080 -0.455 -0.081 0.887 127 51 28 0 0
-4.0974 1.9355 -12.5204 -0.354 0.006 0.935 124 46 24 0 0
-4.2037 2.0084 -12.5015 -0.771 0.461 0.439 129 52 32 0 0
-4.3183 2.0905 -12.5773 -0.320 0.131 0.938 129 52 31 0 0
-4.7780 2.4264 -13.0869 -0.871 0.371 0.321 78 41 33 0 0
-4.7900 2.4367 -13.1453 -0.994 0.013 0.108 85 47 39 0 0
-4.7972 2.4427 -13.1728 -0.863 0.328 0.384 83 44 37 0 0
-4.8042 2.4484 -13.2009 -0.905 0.397 0.155 82 43 36 0 0
-4.8466 2.4995 -13.8306 -0.818 0.204 0.538 85 57 52 0 0
-4.7594 2.4473 -14.0709 -0.978 -0.166 0.126 89 55 45 0 0
-4.7672 2.4537 -14.0998 -0.953 -0.205 0.224 89 54 45 0 0
-4.6423 2.3988 -15.0238 -0.901 0.305 0.309 90 57 50 0 0
-4.3714 2.2340 -15.6910 -0.548 0.733 -0.402 43 40 39 0 0
-4.2795 2.1876 -16.1952 -0.765 -0.603 0.225 22 18 17 0 0
-4.2896 2.1957 -16.2258 -0.798 -0.577 0.176 20 16 15 0 0
-5.1082 2.7854 -16.8832 -0.061 -0.561 0.825 182 182 182 0 0
-5.3882 2.9741 -16.7316 -0.890 0.431 -0.151 190 190 190 0 0
-5.3465 2.9546 -17.0034 -0.060 0.825 0.563 195 195 195 0 0
-5.3752 2.9761 -17.0512 0.097 0.938 0.332 198 198 198 0 0
3.0144 -2.8918 -14.1390 -0.580 -0.313 0.752 210 212 211 0 0
2.6797 -2.6625 -14.0816 -0.283 0.620 0.731 137 115 109 0 0
2.6593 -2.6475 -14.1069 -0.408 0.483 0.775 119 89 83 0 0
1.5090 -1.8598 -13.8971 -0.005 -0.090 0.996 112 49 40 0 0
-2.4830 0.8483 -12.4514 0.036 0.346 0.938 113 49 37 0 0
-2.7182 1.0112 -12.4598 -0.415 0.384 0.825 115 49 35 0 0
-2.7572 1.0393 -12.4905 -0.618 0.300 0.727 114 48 34 0 0
-3.0878 1.2655 -12.4271 -0.565 -0.009 0.825 116 49 35 0 0
-3.2257 1.3619 -12.4562 -0.178 0.029 0.984 118 46 31 0 0
-3.8340 1.7823 -12.4536 -0.594 -0.004 0.804 125 48 30 0 0
-3.8498 1.7938 -12.4709 -0.306 0.169 0.937 122 45 27 0 0
-4.1072 1.9737 -12.5264 -0.258 0.120 0.959 125 47 25 0 0
-4.1562 2.0080 -12.5395 -0.478 0.232 0.847 129 51 29 0 0
-4.3748 2.1600 -12.5621 0.011 0.229 0.973 131 56 34 0 0
-4.7641 2.4490 -13.1225 -0.607 0.470 0.641 80 43 34 0 0
-4.7770 2.4586 -13.1425 -0.842 0.171 0.511 83 46 37 0 0
-4.7860 2.4658 -13.1678 -0.548 0.660 0.513 84 45 38 0 0
-4.7862 2.4672 -13.2047 -0.799 0.585 0.138 83 44 37 0 0
-4.7668 2.4627 -13.4562 -0.871 0.036 0.491 86 47 40 0 0
-4.7823 2.4740 -13.4734 -0.624 0.245 0.742 85 46 39 0 0
-4.7166 2.4358 -13.6772 -0.819 0.381 0.430 74 40 31 0 0
-4.7587 2.4684 -13.7747 -0.275 -0.011 0.961 76 27 15 0 0
-4.8361 2.5237 -13.8238 -0.818 0.204 0.538 87 63 55 0 0
-4.7629 2.4809 -14.0441 -0.663 0.634 0.398 89 55 46 0 0
-4.7616 2.4815 -14.0858 -0.868 -0.120 0.482 89 55 45 0 0
-4.3126 2.2320 -15.7991 -0.540 0.764 -0.353 34 32 32 0 0
-5.2883 2.9501 -17.0283 -0.407 0.773 0.486 193 193 193 0 0
3.0366 -2.8707 -13.9307 -0.505 0.290 0.813 213 215 214 0 0
3.0592 -2.8826 -14.0316 -0.407 0.070 0.911 212 214 213 0 0
3.0323 -2.8633 -14.0522 -0.618 0.011 0.786 212 213 211 0 0
3.0080 -2.8442 -14.1167 -0.476 -0.449 0.757 204 207 209 0 0
2.7554 -2.6727 -14.0416 0.123 0.868 0.481 160 143 136 0 0
2.7354 -2.6579 -14.0672 -0.007 0.976 0.216 129 101 92 0 0
2.7095 -2.6393 -14.0882 -0.202 0.680 0.705 115 79 70 0 0
-3.0770 1.2905 -12.4216 -0.456 0.086 0.886 116 48 33 0 0
-3.8620 1.8339 -12.4747 -0.284 0.069 0.956 122 45 27 0 0
-3.8944 1.8562 -12.4729 -0.381 0.307 0.872 124 47 27 0 0
-4.0450 1.9615 -12.5106 -0.550 -0.157 0.820 127 49 27 0 0
-4.6660 2.3961 -12.6838 -0.533 0.260 0.805 111 35 13 0 0
-4.7676 2.4828 -13.1351 -0.842 0.171 0.511 79 42 33 0 0
-4.7695 2.4964 -13.4701 -0.624 0.245 0.742 86 47 39 0 0
-4.7552 2.5015 -13.8754 -0.708 0.376 0.598 101 70 62 0 0
-4.8246 2.5473 -13.8184 -0.904 0.107 0.413 85 61 53 0 0
-4.7481 2.5027 -14.0432 -0.618 0.673 0.406 90 56 47 0 0
-4.5930 2.4358 -15.1345 -0.915 0.321 -0.247 85 52 43 0 0
-4.2528 2.2313 -15.9544 -0.701 0.713 -0.030 13 11 11 0 0
-4.2955 2.2618 -15.9805 -0.823 -0.316 0.472 10 8 8 0 0
3.0449 -2.8283 -14.0450 -0.485 0.157 0.860 210 210 208 0 0
3.0124 -2.8037 -14.1030 -0.414 -0.463 0.784 195 190 190 0 0
2.9532 -2.7632 -14.0980 -0.301 -0.608 0.735 176 159 152 0 0
2.8146 -2.6688 -14.0715 0.063 0.842 0.536 119 86 76 0 0
2.2202 -2.2638 -13.9645 -0.132 -0.358 0.924 109 50 39 0 0
-0.5249 -0.4234 -12.6806 -0.193 -0.085 0.977 113 54 43 0 0
-3.3707 1.5261 -12.4414 -0.634 -0.031 0.772 120 47 30 0 0
-3.3976 1.5448 -12.4472 -0.548 0.215 0.809 119 46 29 0 0
-3.5307 1.6349 -12.4069 -0.585 0.485 0.649 120 44 28 0 0
-3.7114 1.7609 -12.4517 -0.721 0.291 0.629 122 47 28 0 0
-3.7255 1.7713 -12.4710 -0.711 0.123 0.692 122 47 28 0 0
-3.8210 1.8370 -12.4685 -0.175 0.380 0.908 121 44 26 0 0
-3.8556 1.8606 -12.4644 -0.298 -0.019 0.954 121 44 26 0 0
-3.8708 1.8718 -12.4822 -0.255 0.126 0.959 122 45 25 0 0
-4.3548 2.2074 -12.5500 -0.468 0.046 0.883 135 60 38 0 0
-4.7597 2.5080 -13.1258 -0.897 0.346 0.274 79 42 33 0 0
-4.7421 2.4981 -13.1859 -0.543 0.706 0.455 80 41 34 0 0
-4.7563 2.5086 -13.2044 -0.713 0.650 0.262 82 43 36 0 0
-4.7662 2.5263 -13.4920 -0.885 0.186 0.427 84 46 37 0 0
-4.6966 2.5058 -14.2133 -0.616 0.788 -0.011 90 56 46 0 0
-4.6942 2.5058 -14.2569 -0.779 0.623 0.067 90 56 46 0 0
-4.6983 2.5100 -14.2915 -0.757 0.652 -0.027 90 56 46 0 0
3.0433 -2.7840 -14.0266 -0.536 0.572 0.621 207 206 203 0 0
1.5533 -1.7697 -13.8015 0.328 0.304 0.894 114 50 38 0 0
1.4446 -1.6939 -13.8308 -0.013 0.159 0.987 112 48 36 0 0
-0.5088 -0.3977 -12.6787 -0.331 0.077 0.941 113 54 43 0 0
-3.3851 1.5668 -12.4087 -0.583 -0.197 0.788 120 47 30 0 0
-3.5415 1.6758 -12.4478 -0.520 0.431 0.737 122 47 30 0 0
-3.7629 1.8278 -12.4465 -0.316 -0.028 0.948 120 45 26 0 0
-3.7903 1.8467 -12.4508 -0.291 0.322 0.901 120 45 25 0 0
-4.0048 1.9954 -12.4865 -0.020 0.194 0.981 125 47 25 0 0
-4.0338 2.0154 -12.4881 -0.112 0.294 0.949 124 44 23 0 0
-4.0485 2.0262 -12.5062 -0.358 0.271 0.893 127 47 26 0 0
-4.3230 2.2158 -12.5348 -0.531 0.302 0.792 132 57 36 0 0
-4.3366 2.2259 -12.5538 -0.697 0.491 0.523 132 57 35 0 0
-4.6202 2.4251 -12.6681 -0.484 0.324 0.813 93 23 4 0 0
-4.7073 2.4891 -12.7733 -0.918 -0.140 0.372 66 16 9 0 0
-4.7047 2.5002 -13.1040 -0.767 0.601 0.227 78 40 31 0 0
-4.7156 2.5323 -13.7317 -0.933 0.113 0.341 52 10 6 0 0
-4.7368 2.5473 -13.7414 -0.664 -0.331 0.671 73 21 9 0 0
-4.6730 2.5224 -14.2244 -0.482 0.869 0.108 91 57 48 0 0
-4.6775 2.5268 -14.2582 -0.779 0.623 0.067 91 57 48 0 0
-4.6737 2.5259 -14.3040 -0.692 0.720 -0.056 91 57 48 0 0
-5.0615 2.8919 -16.8470 -0.684 0.129 0.718 180 180 180 0 0
2.9664 -2.6874 -14.0324 -0.314 -0.590 0.744 149 108 89 0 0
2.4954 -2.3681 -13.9475 -0.422 -0.394 0.816 111 53 45 0 0
-3.0255 1.3517 -12.3902 -0.307 0.605 0.734 118 49 34 0 0
-3.3720 1.5898 -12.4058 -0.510 -0.185 0.840 121 48 31 0 0
-3.5234 1.6953 -12.4506 -0.444 0.397 0.803 122 46 30 0 0
-4.0341 2.0474 -12.5053 -0.464 0.218 0.858 127 46 25 0 0
-4.3206 2.2457 -12.5549 -0.710 0.464 0.530 130 55 34 0 0
-4.6040 2.4446 -12.6698 -0.361 0.033 0.932 97 26 7 0 0
-4.6880 2.5066 -12.7789 -0.966 0.219 0.137 70 18 13 0 0
-4.6974 2.5139 -12.8030 -0.419 0.420 0.805 60 17 11 0 0
-4.7277 2.5346 -12.8005 -0.361 0.266 0.894 58 17 11 0 0
-4.6958 2.5491 -13.6989 -0.864 0.274 0.423 59 24 18 0 0
-4.7045 2.5561 -13.7257 -0.927 0.247 0.283 53 10 7 0 0
-4.7133 2.5632 -13.7525 -0.802 0.224 0.553 71 20 7 0 0
-4.6591 2.5467 -14.2620 -0.722 0.675 0.153 91 57 48 0 0
-4.6279 2.5336 -14.4684 -0.872 0.488 -0.026 94 60 51 0 0
-5.4538 3.1980 -16.9060 -0.686 0.718 0.122 200 200 200 0 0
-0.5877 -0.2745 -12.5770 -0.445 0.668 0.596 112 54 42 0 0
-3.7211 1.8627 -12.4588 -0.272 0.064 0.960 119 44 25 0 0
-3.8339 1.9389 -12.4367 -0.311 -0.383 0.870 122 46 23 0 0
-3.8566 1.9548 -12.4459 -0.418 -0.223 0.881 125 48 25 0 0
-4.0031 2.0567 -12.4883 -0.381 0.022 0.924 127 46 25 0 0
-4.0207 2.0694 -12.5030 -0.477 0.227 0.849 126 45 24 0 0
-4.2948 2.2580 -12.5324 -0.684 0.386 0.619 127 52 31 0 0
-4.3084 2.2681 -12.5515 -0.612 0.583 0.535 128 53 32 0 0
-4.6807 2.5331 -12.8053 -0.458 0.435 0.775 61 18 12 0 0
-4.6712 2.5286 -12.8533 -0.838 0.358 0.411 58 17 11 0 0
-4.6609 2.5547 -13.6484 -0.486 0.194 0.853 75 40 31 0 0
-4.6676 2.5605 -13.6778 -0.647 0.727 0.231 69 36 28 0 0
-4.6868 2.5742 -13.6903 -0.784 0.404 0.471 62 25 19 0 0
-4.6450 2.5693 -14.2598 -0.874 0.413 0.257 92 58 48 0 0
-4.6096 2.5712 -14.8867 -0.899 0.435 -0.039 112 67 46 0 0
-4.3210 2.4079 -15.7045 -0.994 0.038 -0.105 5 4 7 0 0
-4.3274 2.4193 -15.8742 -0.926 0.373 -0.054 44 44 44 0 0
-5.4340 3.2211 -16.9611 -0.233 0.384 0.893 200 200 200 0 0
-3.4302 1.6954 -12.4483 -0.032 0.215 0.976 121 45 29 0 0
-3.6134 1.8192 -12.4217 -0.229 0.135 0.964 120 45 26 0 0
-3.7194 1.8924 -12.4434 -0.372 -0.092 0.924 120 45 26 0 0
-3.9916 2.0798 -12.4840 -0.381 0.022 0.924 127 46 25 0 0
-4.0071 2.0911 -12.5012 -0.477 0.227 0.849 125 44 23 0 0
-4.0724 2.1354 -12.4956 -0.386 -0.081 0.919 127 46 25 0 0
-4.2743 2.2735 -12.5039 -0.607 0.211 0.767 130 54 34 0 0
-4.2813 2.2794 -12.5306 -0.715 0.444 0.540 128 53 32 0 0
-4.2926 2.2880 -12.5524 -0.713 0.340 0.614 127 52 32 0 0
-4.5889 2.4959 -12.6872 -0.563 0.180 0.806 96 20 6 0 0
-4.6069 2.5088 -12.7003 -0.646 0.253 0.720 98 20 3 0 0
-4.6257 2.5221 -12.7125 -0.729 0.480 0.488 104 35 7 0 0
-4.6464 2.5763 -13.6473 -0.700 0.144 0.699 76 40 31 0 0
-4.3687 2.4671 -15.5196 -0.881 0.459 -0.114 56 43 47 0 0
-4.3507 2.4578 -15.5906 -0.793 0.609 -0.028 17 14 20 0 0
-4.3491 2.4587 -15.6373 -0.813 0.582 0.004 5 3 6 0 0
-4.3465 2.4590 -15.6856 -0.793 0.609 -0.028 2 2 5 0 0
-4.3443 2.4596 -15.7334 -0.793 0.609 -0.028 4 4 6 0 0
-4.3671 2.4871 -16.0143 -0.358 -0.245 0.901 24 20 17 0 0
-5.1952 3.0885 -16.8670 -0.241 -0.753 0.613 188 188 188 0 0
-5.4217 3.2447 -16.9039 -0.448 0.765 0.463 199 199 199 0 0
-5.4309 3.2544 -16.9861 -0.692 0.303 0.655 201 201 201 0 0
2.6683 -2.3610 -13.8701 -0.518 -0.469 0.716 102 53 44 0 0
2.0958 -1.9772 -13.7372 -0.293 -0.313 0.903 110 52 39 0 0
2.0494 -1.9455 -13.7399 -0.420 -0.251 0.872 112 52 39 0 0
-3.1711 1.5501 -12.4307 0.149 0.134 0.980 119 46 29 0 0
-3.9055 2.0513 -12.4602 -0.413 0.146 0.899 125 43 22 0 0
-3.9951 2.1138 -12.4975 -0.466 0.027 0.884 125 44 23 0 0
-4.0619 2.1590 -12.4901 -0.371 -0.078 0.925 128 47 26 0 0
-4.2564 2.2921 -12.5073 -0.572 0.549 0.609 135 57 36 0 0
-4.2666 2.3001 -12.5302 -0.697 0.491 0.523 127 50 31 0 0
-4.2843 2.3128 -12.5443 -0.731 0.405 0.549 128 52 34 0 0
-4.5663 2.5099 -12.6611 -0.547 0.227 0.806 94 23 4 0 0
-4.5990 2.5335 -12.6916 -0.828 0.307 0.469 98 21 3 0 0
-4.6945 2.6010 -12.7503 -0.655 -0.052 0.753 57 17 10 0 0
-4.6115 2.6059 -14.1426 -0.859 -0.250 0.447 91 57 47 0 0
-4.5742 2.5934 -14.4364 -0.902 0.173 0.396 96 60 51 0 0
-4.5842 2.6014 -14.4629 -0.902 0.173 0.396 95 62 53 0 0
-4.3601 2.4949 -15.5077 -0.977 0.177 -0.115 55 44 46 0 0
-4.3472 2.4889 -15.5709 -0.843 0.528 -0.105 22 22 26 0 0
-4.3416 2.4874 -15.6234 -0.843 0.528 -0.105 5 4 6 0 0
-4.3346 2.5009 -16.0381 -0.569 0.022 0.822 26 21 18 0 0
-5.3604 3.2408 -16.9847 -0.447 0.135 0.884 198 198 198 0 0
-5.4042 3.2693 -16.9549 -0.507 0.587 0.631 201 201 201 0 0
1.3641 -1.4376 -13.7567 -0.460 -0.170 0.872 119 53 37 0 0
-0.5025 -0.2188 -12.6773 -0.426 -0.190 0.885 112 50 39 0 0
-3.2986 1.6667 -12.3822 -0.041 0.220 0.975 118 45 28 0 0
-3.8599 2.0499 -12.4249 -0.650 0.127 0.749 123 42 21 0 0
-3.9129 2.0878 -12.4693 -0.453 0.360 0.816 127 47 26 0 0
-4.0254 2.1647 -12.4799 -0.016 0.168 0.986 128 47 26 0 0
-4.2258 2.3013 -12.4906 -0.376 0.464 0.802 137 59 40 0 0
-4.2518 2.3208 -12.5299 -0.697 0.491 0.523 125 48 27 0 0
-4.5528 2.5310 -12.6594 -0.769 0.217 0.602 92 23 4 0 0
-4.6258 2.6127 -13.3685 -0.570 0.791 0.222 84 44 33 0 0
-4.5575 2.6315 -14.8084 -0.752 0.658 0.043 80 54 51 0 0
-4.5615 2.6358 -14.8445 -0.823 0.552 0.133 76 49 43 0 0
-4.5672 2.6431 -14.9202 -0.865 0.408 0.293 101 56 45 0 0
-4.3325 2.5130 -15.5680 -0.843 0.528 -0.105 26 26 29 0 0
-4.2988 2.5045 -15.8858 -0.983 0.182 -0.020 45 44 46 0 0
-4.3222 2.5270 -16.0312 -0.641 0.118 0.758 26 21 18 0 0
-5.3230 3.2471 -16.9234 0.074 0.320 0.945 198 198 198 0 0
-5.3483 3.2644 -16.9273 0.074 0.320 0.945 198 198 198 0 0
-5.3331 3.2576 -17.0038 -0.045 -0.268 0.962 198 198 198 0 0
-5.3677 3.2805 -16.9908 -0.639 0.101 0.762 200 200 200 0 0
3.3798 -2.7488 -14.0607 0.149 -0.324 0.934 207 206 208 0 0
2.7696 -2.3458 -13.8343 -0.183 -0.469 0.864 116 68 51 0 0
2.7085 -2.3047 -13.8272 -0.328 -0.439 0.837 107 60 45 0 0
1.4070 -1.4270 -13.7359 -0.141 -0.226 0.964 114 51 34 0 0
1.2811 -1.3430 -13.7091 -0.396 -0.337 0.854 119 53 37 0 0
-3.3051 1.7036 -12.3932 0.045 0.328 0.944 119 46 29 0 0
-3.8203 2.0554 -12.4524 -0.386 0.569 0.726 124 42 21 0 0
-3.8361 2.0669 -12.4694 -0.223 0.372 0.901 125 43 22 0 0
-3.9803 2.1651 -12.4793 -0.039 0.232 0.972 128 47 26 0 0
-4.0060 2.1828 -12.4846 -0.039 0.232 0.972 126 45 24 0 0
-4.2214 2.3300 -12.5131 -0.701 0.554 0.449 127 49 29 0 0
-4.5679 2.5732 -12.6933 -0.606 0.581 0.544 104 28 11 0 0
-4.6067 2.6106 -12.9316 -0.761 0.540 0.359 56 18 13 0 0
-4.6070 2.6261 -13.2613 -0.882 0.469 0.033 86 43 36 0 0
-4.6073 2.6280 -13.2980 -0.882 0.469 0.033 87 43 36 0 0
-4.6199 2.6375 -13.3188 -0.933 0.298 0.203 85 45 34 0 0
-4.5421 2.6540 -14.8075 -0.765 0.632 0.123 85 58 54 0 0
-4.5450 2.6577 -14.8450 -0.765 0.632 0.123 81 54 50 0 0
-4.5461 2.6603 -14.8854 -0.809 0.546 0.217 58 27 22 0 0
-4.5581 2.6695 -14.9101 -0.491 0.640 0.591 84 41 31 0 0
-4.5716 2.6798 -14.9323 -0.496 0.524 0.693 105 64 50 0 0
-4.3064 2.5343 -15.6704 -0.843 0.528 -0.105 28 27 31 0 0
-4.2822 2.5279 -15.8854 -0.865 0.476 -0.158 41 41 43 0 0
-4.3172 2.5576 -16.0130 -0.117 0.591 0.798 26 21 18 0 0
-5.3692 3.3144 -16.9580 0.271 0.193 0.943 199 199 199 0 0
2.7706 -2.3044 -13.8183 -0.018 -0.228 0.973 135 78 56 0 0
2.7083 -2.2627 -13.8102 -0.010 -0.190 0.982 127 69 49 0 0
1.4218 -1.3966 -13.7313 -0.316 -0.145 0.938 111 49 34 0 0
1.3847 -1.3711 -13.7399 -0.316 -0.145 0.938 112 49 35 0 0
1.3460 -1.3447 -13.7471 -0.198 -0.148 0.969 115 50 36 0 0
-3.1333 1.6206 -12.4204 -0.017 0.021 1.000 121 49 32 0 0
-3.1846 1.6543 -12.4007 -0.118 0.471 0.874 123 51 34 0 0
-3.2977 1.7317 -12.4191 -0.180 0.332 0.926 119 45 28 0 0
-3.3700 1.7818 -12.4457 0.042 0.087 0.995 120 45 29 0 0
-3.8329 2.0953 -12.4557 -0.813 0.349 0.466 125 43 22 0 0
-3.8496 2.1074 -12.4716 -0.602 0.329 0.728 125 43 22 0 0
-3.8644 2.1182 -12.4897 -0.430 0.391 0.814 125 44 23 0 0
-3.9614 2.1835 -12.4836 0.159 0.388 0.908 126 44 23 0 0
-4.2130 2.3563 -12.5403 -0.682 0.636 0.362 131 53 31 0 0
-4.2327 2.3702 -12.5520 -0.492 0.599 0.632 129 52 32 0 0
-4.6213 2.6631 -13.1860 -0.840 0.538 0.066 87 43 36 0 0
-4.5792 2.6553 -13.6166 -0.465 -0.109 0.878 81 41 33 0 0
-4.6012 2.6705 -13.6255 -0.433 -0.104 0.895 74 38 29 0 0
-4.6402 2.7091 -13.8812 -0.469 0.852 -0.235 93 62 57 0 0
-4.3104 2.5870 -15.9975 0.189 0.712 0.677 26 21 18 0 0
-5.3225 3.3173 -16.9630 0.459 0.270 0.846 199 199 199 0 0
2.7862 -2.2725 -13.8138 0.168 -0.034 0.985 145 85 57 0 0
2.1777 -1.8658 -13.7360 -0.108 -0.149 0.983 117 64 45 0 0
1.2280 -1.2303 -13.6300 -0.136 0.306 0.942 107 47 37 0 0
1.1955 -1.2078 -13.6420 -0.136 0.306 0.942 109 47 37 0 0
1.1977 -1.2073 -13.6835 -0.601 0.048 0.798 108 46 35 0 0
-3.2592 1.7371 -12.4087 0.078 0.445 0.892 119 46 29 0 0
-3.2984 1.7632 -12.4013 -0.489 0.278 0.827 119 45 29 0 0
-3.8363 2.1294 -12.4693 -0.646 0.246 0.722 122 40 19 0 0
-4.1569 2.3464 -12.4835 -0.424 0.547 0.722 132 53 33 0 0
-4.2009 2.3787 -12.5367 -0.895 0.371 0.249 139 62 40 0 0
-4.2143 2.3886 -12.5560 -0.586 0.490 0.645 135 58 38 0 0
-4.5973 2.6641 -12.9055 -0.816 0.416 0.401 56 17 16 0 0
-4.5697 2.6799 -13.6088 -0.379 0.077 0.922 80 39 30 0 0
-4.4700 2.6578 -14.5344 -0.681 0.443 0.583 96 62 53 0 0
3.1136 -2.4465 -13.8877 0.001 0.012 1.000 140 105 85 0 0
2.9987 -2.3715 -13.8399 0.115 -0.228 0.967 152 101 72 0 0
-3.0805 1.6469 -12.3729 -0.177 0.422 0.889 120 48 30 0 0
-3.1357 1.6864 -12.4190 -0.037 0.496 0.867 119 46 29 0 0
-3.4590 1.9041 -12.4192 -0.187 0.025 0.982 122 49 32 0 0
-4.1484 2.3726 -12.5108 -0.466 0.144 0.873 135 57 37 0 0
-4.5760 2.6788 -12.8775 -0.816 0.416 0.401 53 15 12 0 0
-4.5329 2.6562 -13.0042 -0.877 0.472 0.084 74 34 30 0 0
-4.5291 2.6557 -13.0455 -0.950 0.288 0.120 79 39 32 0 0
-4.5321 2.6593 -13.0782 -0.950 0.288 0.120 85 43 34 0 0
-4.5299 2.6598 -13.1175 -0.973 0.215 0.081 91 49 39 0 0
-4.5420 2.6802 -13.3610 -0.943 0.174 0.285 95 52 35 0 0
-4.5525 2.6884 -13.3848 -0.913 0.177 0.369 96 50 35 0 0
-4.5661 2.7080 -13.5932 -0.583 0.363 0.726 81 39 29 0 0
-4.5926 2.7260 -13.5960 -0.460 0.400 0.793 75 37 28 0 0
-4.6145 2.7489 -13.7580 -0.782 0.467 0.413 106 49 30 0 0
-4.4568 2.6814 -14.5305 -0.729 0.339 0.595 95 61 52 0 0
-4.4557 2.6994 -14.9043 -0.651 0.661 0.374 86 59 50 0 0
-4.4573 2.7024 -14.9440 -0.663 0.433 0.611 67 36 32 0 0
-4.3352 2.6442 -15.4217 -0.666 0.688 -0.289 57 47 47 0 0
-4.8753 3.0844 -16.9544 -0.357 -0.028 0.934 180 180 180 0 0
-4.8966 3.0994 -16.9665 -0.518 -0.162 0.840 181 181 181 0 0
2.0484 -1.6966 -13.7185 0.033 0.127 0.991 136 72 39 0 0
-2.6975 1.4217 -12.3702 0.075 0.200 0.977 118 49 34 0 0
-3.0177 1.6376 -12.3874 -0.073 0.027 0.997 119 48 30 0 0
-3.1137 1.7022 -12.3908 -0.042 0.110 0.993 119 46 29 0 0
-3.1437 1.7225 -12.3938 0.030 0.100 0.994 119 46 29 0 0
-3.2199 1.7749 -12.4171 -0.064 0.377 0.924 119 46 29 0 0
-4.4769 2.6334 -12.6967 -0.243 0.464 0.852 68 12 6 0 0
-4.5529 2.6924 -12.8519 -0.808 0.433 0.398 46 13 10 0 0
-4.5294 2.6950 -13.2092 -0.969 0.245 0.024 100 58 44 0 0
-4.5336 2.7032 -13.3149 -0.963 0.232 0.139 101 59 42 0 0
-4.5364 2.7068 -13.3485 -0.758 0.630 0.172 99 61 41 0 0
-4.5512 2.7196 -13.4040 -0.587 0.740 0.328 102 57 39 0 0
-4.5761 2.7741 -14.1410 -0.800 0.548 0.244 91 56 50 0 0
-4.4325 2.7174 -14.9145 -0.796 0.216 0.566 83 56 47 0 0
-4.3384 2.6787 -15.3927 -0.796 0.483 -0.366 57 47 45 0 0
-4.2908 2.6525 -15.5065 -0.861 0.397 -0.317 40 39 42 0 0
1.9628 -1.5982 -13.7123 0.086 0.109 0.990 132 70 40 0 0
-3.9400 2.2941 -12.5080 -0.640 0.289 0.711 126 44 23 0 0
-4.4510 2.6453 -12.6747 -0.660 0.369 0.654 80 21 5 0 0
-4.5324 2.7038 -12.7517 -0.533 0.334 0.777 63 19 11 0 0
-4.5454 2.7136 -12.7710 -0.730 0.393 0.559 50 13 10 0 0
-4.5514 2.7191 -12.7992 -0.697 0.477 0.535 46 13 10 0 0
-4.5160 2.7129 -13.1334 -0.882 0.459 0.108 66 33 23 0 0
-4.5117 2.7200 -13.3235 -0.658 0.740 0.138 52 19 9 0 0
-4.5135 2.7230 -13.3585 -0.567 0.798 0.204 66 27 13 0 0
-4.4239 2.7441 -14.9036 -0.832 0.099 0.546 82 53 49 0 0
-4.2858 2.6823 -15.4894 -0.913 0.237 -0.332 43 43 46 0 0
-4.9454 3.1944 -16.8248 -0.774 0.448 0.448 180 180 180 0 0
3.3010 -2.4484 -13.7764 0.031 -0.589 0.807 213 213 213 0 0
1.5611 -1.2901 -13.6836 -0.009 0.037 0.999 141 76 39 0 0
-2.9432 1.6525 -12.3973 -0.122 0.157 0.980 121 48 31 0 0
-3.9258 2.3154 -12.5068 -0.517 0.330 0.790 127 45 24 0 0
-4.4391 2.6674 -12.6710 -0.537 0.383 0.752 77 16 5 0 0
-4.4513 2.6767 -12.6914 -0.377 0.441 0.815 65 13 7 0 0
-4.5323 2.7350 -12.7689 -0.730 0.393 0.559 49 13 9 0 0
-4.5267 2.7354 -12.8473 -0.843 -0.035 0.536 51 15 13 0 0
-4.5098 2.7389 -13.1220 -0.940 0.322 0.111 15 2 1 0 0
-4.5265 2.7831 -13.7373 -0.553 0.469 0.689 47 10 4 0 0
-4.4267 2.7686 -14.7104 -0.844 -0.044 0.534 98 54 37 0 0
-4.2782 2.7104 -15.4761 -0.980 -0.009 -0.200 46 46 49 0 0
-4.2686 2.7071 -15.5339 -0.972 -0.064 -0.225 32 31 35 0 0
-4.1218 2.6374 -16.0644 -0.772 0.633 -0.060 37 33 32 0 0
1.5945 -1.2713 -13.6945 0.050 0.190 0.981 135 69 33 0 0
1.2216 -1.0202 -13.7376 -0.252 0.464 0.849 104 47 33 0 0
-3.1713 1.8361 -12.3837 -0.027 0.265 0.964 120 47 30 0 0
-3.4045 1.9951 -12.4454 0.255 0.146 0.956 122 46 29 0 0
-3.7617 2.2327 -12.4323 -0.618 0.435 0.655 124 43 22 0 0
-3.8778 2.3125 -12.4746 -0.551 0.555 0.623 129 47 26 0 0
-3.8884 2.3208 -12.4973 -0.554 0.693 0.463 134 52 31 0 0
-4.4244 2.6878 -12.6708 -0.537 0.383 0.752 72 14 5 0 0
-4.4403 2.6993 -12.6867 -0.419 0.439 0.795 63 13 9 0 0
-4.5269 2.7610 -12.7570 -0.836 0.097 0.540 48 12 8 0 0
-4.5119 2.7540 -12.8113 -0.939 0.299 0.171 46 12 10 0 0
-4.5007 2.7631 -13.1144 -0.940 0.322 0.111 10 2 4 0 0
-4.5026 2.7992 -13.7485 -0.584 0.247 0.773 48 11 5 0 0
-4.5361 2.8404 -14.0920 -0.503 0.633 0.588 91 56 50 0 0
-4.5483 2.8498 -14.1147 -0.630 0.581 0.516 91 57 49 0 0
-4.4027 2.7814 -14.6395 -0.881 -0.027 0.473 72 40 36 0 0
-4.4535 2.8204 -14.7320 -0.704 0.551 0.448 98 61 51 0 0
-4.2011 2.7050 -15.6969 -0.773 0.609 -0.176 46 50 53 0 0
-2.9787 1.7424 -12.4312 -0.612 0.465 0.639 119 46 30 0 0
-3.7546 2.2584 -12.4231 -0.340 0.559 0.756 126 45 24 0 0
-3.8577 2.3302 -12.4802 -0.260 0.359 0.896 128 46 25 0 0
-3.8780 2.3444 -12.4918 -0.260 0.359 0.896 130 48 27 0 0
-4.0407 2.4520 -12.4786 -0.520 0.060 0.852 131 51 30 0 0
-4.0583 2.4645 -12.4930 -0.449 0.100 0.888 130 51 30 0 0
-4.0842 2.4820 -12.4977 -0.310 0.129 0.942 134 55 34 0 0
-4.5029 2.7779 -12.8039 -0.939 0.299 0.171 46 12 8 0 0
-4.4620 2.8207 -14.0541 -0.600 -0.301 0.741 93 59 52 0 0
-4.5171 2.8598 -14.0966 -0.503 0.633 0.588 91 56 50 0 0
-4.3648 2.7791 -14.4665 -0.930 0.332 0.158 93 59 50 0 0
-4.4032 2.8131 -14.6162 -0.787 0.544 0.293 82 50 44 0 0
-4.4048 2.8163 -14.6549 -0.624 0.299 0.723 58 19 13 0 0
-4.4147 2.8245 -14.6819 -0.695 0.475 0.539 93 51 39 0 0
-4.4258 2.8332 -14.7074 -0.772 0.393 0.499 110 67 51 0 0
-4.4504 2.8500 -14.7136 -0.509 0.816 0.272 112 75 62 0 0
-4.2912 2.7805 -15.3652 -0.850 0.427 -0.307 60 50 48 0 0
-4.1722 2.7210 -15.7150 -0.818 0.542 -0.193 47 51 51 0 0
-4.0592 2.6728 -16.1983 -0.745 0.644 -0.171 27 22 19 0 0
-2.9487 1.7534 -12.4112 -0.528 0.178 0.830 119 46 31 0 0
-2.9677 1.7669 -12.4261 -0.528 0.178 0.830 119 46 31 0 0
-2.9842 1.7789 -12.4436 -0.448 -0.087 0.890 118 45 29 0 0
-3.8017 2.3225 -12.4569 -0.685 0.456 0.569 132 50 29 0 0
-4.0108 2.4616 -12.4610 -0.520 0.060 0.852 134 53 32 0 0
-4.0692 2.5025 -12.4976 -0.276 0.341 0.899 132 53 33 0 0
-4.3920 2.7250 -12.6387 -0.709 0.228 0.667 91 25 9 0 0
-4.3623 2.7468 -13.3629 -0.012 -0.079 0.997 10 4 3 0 0
-4.3909 2.7657 -13.3635 -0.231 -0.031 0.972 12 4 2 0 0
-4.4183 2.7841 -13.3654 -0.387 0.319 0.865 19 4 3 0 0
-4.4577 2.8488 -14.0387 -0.547 -0.323 0.772 93 58 52 0 0
-4.4010 2.8478 -14.6787 -0.467 0.660 0.588 86 46 37 0 0
-4.4126 2.8569 -14.7035 -0.548 0.630 0.550 105 64 49 0 0
-4.4256 2.8669 -14.7261 -0.363 0.909 0.205 109 68 52 0 0
-4.2814 2.8071 -15.3554 -0.850 0.427 -0.307 60 51 50 0 0
-4.1417 2.7361 -15.7353 -0.877 0.420 -0.233 47 50 51 0 0
