ply
format ascii 1.0
element vertex 714
property float x
property float y
property float z
property uchar diffuse_red
property uchar diffuse_green
property uchar diffuse_blue
end_header
3.3686517388624724 6.945729029042188 -18.2639402383885 209 209 209
3.3872761684129475 6.956418331413541 -18.327766515523383 209 209 209
3.3821086367825757 6.969629762623011 -18.36779129647575 209 209 209
3.388866936509382 6.9816334727049085 -18.41994835474945 209 209 209
3.3956447834545216 6.99367300483548 -18.47226020612644 210 210 210
3.4024419126483663 7.005748553905497 -18.524727180819138 210 210 210
3.409262296744309 7.017859887200137 -18.577353925500482 209 209 209
3.4161000127226986 7.030007775551264 -18.63013502492997 210 210 210
3.422961847278536 7.042191709294119 -18.683078017179724 210 210 210
3.4298404774687663 7.054412592515249 -18.73617603246468 209 209 209
3.436742674216391 7.066669927150532 -18.789436628512448 209 209 209
3.354371425647461 7.087656431426283 -18.750766713709275 209 209 209
3.356586566552587 7.100380602951391 -18.799231215328987 210 210 210
3.3825654974746167 7.110857949005821 -18.87244088439806 210 210 210
3.408681107394149 7.121388948764605 -18.946030477167625 210 210 210
3.434931184129704 7.131974332915425 -19.019999551351447 210 210 210
3.921808707729763 7.099447538238303 -19.57518666598391 210 210 210
3.9408377236825833 7.111174026038319 -19.643272296936605 210 210 210
3.9480991273522985 7.124044750187292 -19.699217224498526 210 210 210
3.9575056095848895 7.136760339988229 -19.757565975164354 210 210 210
3.964722549176881 7.149719346359649 -19.813764663470252 210 210 210
3.9719640969114263 7.162717623711682 -19.87013743115719 210 210 210
3.979225788048682 7.175755766699135 -19.926680244803897 210 210 210
3.986510105418227 7.18883374198553 -19.983396408575082 210 210 210
3.992129470369047 7.2021000650990326 -20.03848924407493 210 210 210
3.9995457881382492 7.215249477994952 -20.095642348824803 210 210 210
3.9047926546490297 7.251064063992514 -20.092820166496153 210 210 210
-0.08844698609754431 8.418187015056928 -18.752510338341143 213 213 213
-0.08326520357880174 8.430868013688556 -18.804910943510414 213 213 213
-0.07806676989502392 8.443589653733103 -18.857479548426834 213 213 213
-0.07285196421064377 8.456352140521906 -18.91021650099278 213 213 213
-0.06761980298309567 8.469155647057203 -18.96312377465807 213 213 213
-0.06237183123819978 8.482000413319572 -19.016200095708733 213 213 213
-0.05710580903520235 8.494886584622389 -19.06944907100423 213 213 213
-0.0487173417386062 8.507743174135499 -19.126897464235036 213 213 213
-0.04344636139427749 8.520716236898412 -19.180463376482727 213 213 213
-0.03949451458659681 8.533759546012119 -19.232461264939815 213 213 213
-0.028533005537048517 8.546701108307875 -19.29376042651549 213 213 213
-0.014024335797590659 8.559626997877226 -19.359894210778805 213 213 213
-0.07743676841569425 8.574049106283972 -19.32393604537548 213 213 213
-0.06942455486173582 8.58713761745362 -19.381693377976383 213 213 213
-0.06186069784116732 8.60028160024764 -19.43903051952887 214 214 214
-0.0532169408349672 8.613455998866069 -19.497965094218603 214 214 214
-0.045085944727486726 8.626687522533587 -19.556396582803103 214 214 214
-0.105607087222225 8.640921082896874 -19.52375181251146 214 214 214
-0.09877725340517252 8.654204256171898 -19.580573686039322 213 213 213
0.037489844363059355 8.665974566075251 -19.81045468250443 213 213 213
0.04111546197876326 8.679506131610363 -19.863745296156488 213 213 213
-0.08739968272514531 8.694427078545605 -19.73980872200898 213 213 213
-0.08069295878930927 8.707890443601602 -19.797103935208728 213 213 213
-0.07396221216326992 8.72140068159954 -19.854599550736836 213 213 213
-0.06858422374233886 8.73496824802223 -19.910434681421975 214 214 214
-0.06020131058506362 8.748561296712985 -19.9705037162747 214 214 214
-0.05178723001542984 8.762204927437349 -20.03079624118245 214 214 214
-0.007407930383466876 8.775733949914908 -20.140265863670656 214 214 214
-0.03824404159736172 8.789657448718337 -20.147442004472364 213 213 213
-0.03087208599493163 8.803454434081237 -20.206845023522803 214 214 214
-0.02347491155152248 8.817300998266258 -20.26645975089592 214 214 214
-0.010810011114849694 8.831193077069017 -20.333499653214908 214 214 214
-0.018362018910861977 8.845142698668415 -20.37287137700599 214 214 214
-0.009838210690734428 8.859131421216688 -20.434546760895458 214 214 214
-0.0012811651385860046 8.873172789003245 -20.496455851919478 214 214 214
0.007272296414369883 8.88726699233824 -20.55854856280539 214 214 214
0.01592737358145513 8.901414643098514 -20.62097211848383 214 214 214
0.026218505844600948 8.91562378736501 -20.685870802799997 214 214 214
0.03451177035955233 8.929877996474366 -20.748175807516535 214 214 214
0.04283604898463533 8.944185589630132 -20.81071409084024 214 214 214
0.051192145461601335 8.958546872081858 -20.873487850293635 213 213 213
0.05952425274589768 8.972961655835935 -20.93641947244045 213 213 213
0.20795888921028016 8.988799378054145 -21.197592060202666 213 213 213
0.07719681924650157 9.001963906134637 -21.06428923177744 214 214 214
0.22660877130397505 9.018197040373447 -21.328220427288123 214 214 214
0.23332620048292885 9.032947856363961 -21.390125096451882 214 214 214
0.24297148073317487 9.047790704537967 -21.45639491194476 214 214 214
0.24683278435335598 9.062606494664214 -21.514593653685974 214 214 214
0.2517894697831151 9.077486134335551 -21.574530493068472 214 214 214
0.25918837257337124 9.092455536200863 -21.638154822655302 214 214 214
0.27056912026673974 9.10754940864489 -21.707713232485176 214 214 214
0.2783918945999382 9.122639117786619 -21.772351320479544 214 214 214
0.28624340493590505 9.13778478298951 -21.837228725288618 214 214 214
0.29412442978118225 9.152986728064125 -21.902347675883725 214 214 214
0.30454076154908893 9.16829960785007 -21.97135802267055 214 214 214
0.31081515248793234 9.183579774857968 -22.0345410292951 214 214 214
0.31929236788739157 9.198965323673129 -22.10113721313684 214 214 214
0.3268150613457754 9.214385111713954 -22.166539568602495 214 214 214
0.33406030974562473 9.229853886047188 -22.231734227731653 214 214 214
0.3416380794425038 9.245387348347668 -22.297618202497404 214 214 214
0.36832865785714564 9.26150862254022 -22.3919512697649 214 214 214
0.3669560005873942 9.276917412860053 -22.445050141559474 214 214 214
0.3782170883871965 9.292742029818205 -22.517051477979724 214 214 214
0.39164375569619825 9.308698526614599 -22.592509208131034 214 214 214
0.40743832048668693 9.324800345866585 -22.67175024712876 214 214 214
0.3751164637539377 9.339391739512305 -22.67926155937797 214 214 214
0.37922952077568617 9.355196668043808 -22.741337468626106 214 214 214
0.38335775050101795 9.371053186032423 -22.80361841096388 214 214 214
0.3865470116836578 9.386927124881641 -22.864666946847912 214 214 214
0.39000165335028303 9.402860453652066 -22.926293321872365 214 214 214
0.3933912859807718 9.418841597943636 -22.988000712943208 214 214 214
0.396224169878578 9.434851264802266 -23.049042293361236 214 214 214
0.3993481107760193 9.45092205358938 -23.110703294994646 214 214 214
0.40373899258401735 9.46709544759516 -23.174477239437646 214 214 214
0.4072100454952112 9.483282941870275 -23.237033315085284 214 214 214
0.41431933879744065 9.4996800048337 -23.305353436021726 213 213 213
0.42052169776918014 9.516096026537676 -23.372490805281146 213 213 213
0.4249770783939155 9.53249000945886 -23.437140920629247 213 213 213
0.4228322180320756 9.548629919670484 -23.491784381623635 213 213 213
0.42941951474953655 9.56522715635162 -23.560099199690413 213 213 213
0.4313737131740947 9.581657217476211 -23.621429631852948 214 214 214
0.43561489774067486 9.598250877802709 -23.68649704508746 214 214 214
0.4387655557908756 9.614843452389183 -23.750057048280794 214 214 214
0.4472818621008665 9.631768085132414 -23.82219986002805 214 214 214
0.45314687384213137 9.648615998671572 -23.890413470022676 214 214 214
0.45379948390268776 9.665239656927534 -23.950640286588495 214 214 214
0.3541515499661365 9.676353640780663 -23.852917219811673 214 214 214
0.4653299096268526 9.699207790982058 -24.08776413424559 214 214 214
0.4711266306009927 9.716282528287788 -24.156693086080285 214 214 214
0.4646701849256143 9.732697372221025 -24.2063732527118 214 214 214
0.47005198225488964 9.749853189995674 -24.27501950189778 214 214 214
0.4764770929819724 9.767131772361257 -24.34554231866393 214 214 214
0.48277644436926437 9.784464307381796 -24.416084295968155 214 214 214
-12.191713204946598 9.224427554539888 -4.9427824308981245 66 66 66
-12.196962290022158 9.227080667691459 -4.94501390638966 0 0 0
-12.206043075657146 9.229132688928338 -4.939817327682679 0 0 0
-12.213000588189672 9.231504132305002 -4.938688120852995 0 0 0
1.9745951086572622 4.089334608412083 -6.06142554673699 0 0 0
1.8126837659927473 4.141409447921833 -6.024814105546778 0 0 0
1.7230040567227607 4.172812995499975 -6.013643275834962 0 0 0
1.6282606976245115 4.205601778428827 -6.000461733980375 0 0 0
1.4791652319538096 4.253768211165063 -5.96750773293583 0 0 0
1.5394050360131568 4.242460678830907 -6.009826335499512 0 0 0
1.6049215234824983 4.229710654976302 -6.05424387972246 0 0 0
1.6070037376987307 4.234964087165903 -6.075785006472901 0 0 0
1.6090899808016 4.2402271540648835 -6.097365927241235 0 0 0
1.6111801865487 4.2454999043959365 -6.118986724580566 0 0 0
1.6132742886976228 4.250782386881753 -6.140647481044002 0 0 0
1.6153712300480136 4.256074929185532 -6.162347913610555 0 0 0
1.7663726136886644 4.21951772995353 -6.239210923804759 0 0 0
1.7696555090578658 4.224553032336477 -6.261621316660561 0 0 0
1.7928106719538892 4.224028053175205 -6.29148187434326 0 0 0
1.7930255044373418 4.2299535432178255 -6.312854952380786 0 0 0
1.7932397389114074 4.235888921639541 -6.334262386869344 0 0 0
1.7934552981469833 4.241833674061735 -6.35570498266525 0 0 0
1.7936711422929132 4.247788115386907 -6.377182435126466 0 0 0
1.7938852500032905 4.2537528324976694 -6.398694062243559 0 0 0
1.794101509404312 4.2597267653150706 -6.420241420659309 0 0 0
1.7943178975728706 4.26571050188179 -6.4418238303298345 0 0 0
1.7945353447447125 4.271703807919788 -6.463441732502911 0 0 0
1.7947537965064324 4.277706723451274 -6.485095194990017 0 0 0
1.7949712370323234 4.283719831298642 -6.506783528902296 0 0 0
1.805575722585123 4.286872204556333 -6.532528104701923 0 0 0
1.7401320355713552 4.31103154940232 -6.528796616592789 0 0 0
1.7364293599094527 4.31813456454114 -6.548990581993239 0 0 0
1.7319468863131138 4.325459292274822 -6.5689047361057895 2 2 2
1.727462014778748 4.332791182902952 -6.58884108499189 3 3 3
1.7229727649676527 4.340130793146484 -6.608798895537806 5 5 5
1.7206869342109066 4.346872882947564 -6.629650357030383 6 6 6
1.718636706417557 4.353558663592306 -6.650624342247411 8 8 8
1.7173257958115666 4.360050706367803 -6.671922184838762 10 10 10
1.719661094045867 4.365556221753991 -6.694706830583659 11 11 11
1.7199764631704308 4.371624181312923 -6.716724473523531 13 13 13
1.7202950006550433 4.37770150865669 -6.738779781826945 14 14 14
1.7206127631715016 4.383789304466494 -6.760871267645374 16 16 16
1.720933577335198 4.389886553905877 -6.783000564278057 17 17 17
1.7212515683724323 4.395994878415002 -6.805165389830675 19 19 19
1.721570561321395 4.402113264317475 -6.827367379568017 21 21 21
1.721751208210304 4.408279415070314 -6.849549715992062 22 22 22
1.7211790917176248 4.414659092113232 -6.8714601637867645 25 25 25
1.7206092641320043 4.421047883937213 -6.893406171877264 28 28 28
1.720035879069346 4.427447391101264 -6.915385422989335 31 31 31
1.7194608222363423 4.433857126488281 -6.937398768169725 34 34 34
1.718887899744781 4.44027609034264 -6.9594478662698265 37 37 37
1.718313204542064 4.446705356664066 -6.981531184233457 40 40 40
1.717736689312186 4.453144960254481 -7.003648781027124 43 43 43
1.717160228721439 4.459594422117227 -7.025801521456422 47 47 47
1.7168026969031005 4.4659953397435395 -7.048081560113863 50 50 50
1.716999297288789 4.472258639428284 -7.0706313438646315 53 53 53
1.7171945249474656 4.478532847243348 -7.093218050073929 56 56 56
1.71990552280394 4.4841489674328106 -7.116910947105119 60 60 60
1.7190545080403776 4.49072298173258 -7.139130552790659 63 63 63
1.7203590894204552 4.496735550212323 -7.162306608713925 65 65 65
1.722000398524937 4.502670521878064 -7.1856680268139215 67 67 67
1.7236472209892089 4.508615836111883 -7.209073791073033 70 70 70
1.725295665532677 4.514572555312866 -7.232522348779575 73 73 73
1.725264388433592 4.520983666786577 -7.255285696253985 77 77 77
1.7281648041752602 4.526634139104869 -7.279360341294465 80 80 80
1.729903713041527 4.532602607707422 -7.302974652638341 83 83 83
1.7316476400267353 4.5385817831381745 -7.32663392732408 86 86 86
1.7314586099020044 4.545079229917327 -7.3494882357666835 89 89 89
1.7335670430709769 4.550986472831143 -7.373391085270503 92 92 92
1.7356796805236088 4.556905021166225 -7.397339912340068 95 95 95
1.7386549585157893 4.562611113502123 -7.4217149931328095 99 99 99
1.7399191590501135 4.568775763915056 -7.445376717781057 102 102 102
1.7442596096583234 4.580670324307656 -7.493636605258458 108 108 108
1.7466206110088973 4.586587067612781 -7.517919328726956 109 109 109
1.7489887552948318 4.59251475461879 -7.542250769665175 112 112 112
1.7513601859339327 4.598454422203357 -7.566629332119332 116 116 116
1.7537367113500855 4.604405640092514 -7.591055963448127 119 119 119
1.7561163685537897 4.610368952246508 -7.615529908916775 122 122 122
1.7585028437896195 4.616343447074586 -7.640052976758478 125 125 125
1.7608415493499199 4.622343179048869 -7.664600364753465 128 128 128
1.7636583270758255 4.628233341187062 -7.689413052897937 131 131 131
1.7664772145635794 4.634136349311614 -7.714274328858762 134 134 134
1.7693037601064474 4.640050822115628 -7.739186881399144 137 137 137
1.7721360007149296 4.645977303559346 -7.764149955784292 140 140 140
1.7749738512202162 4.651915856286232 -7.789163658153914 144 144 144
1.7778172264534997 4.657866542939747 -7.814228094647721 147 147 147
1.7806679096034617 4.663828951806945 -7.839344244073217 150 150 150
1.7835220772091134 4.6698040954041575 -7.864510469200065 152 152 152
4.7493815909693105 3.92593031357838 -9.282263829999929 154 154 154
4.747722416886245 3.9342829619795765 -9.309703189171845 158 158 158
4.74606058561054 3.9426483631227827 -9.337184272604851 160 160 160
4.744396040362988 3.9510265587703057 -9.364707151058752 164 164 164
4.742730583258675 3.959417123288433 -9.392272779754451 167 167 167
4.741060438152616 3.9678210343915747 -9.419879462495109 170 170 170
4.739389264476982 3.976237400210062 -9.447529040928277 173 173 173
4.737713292395589 3.984667193818046 -9.475219810994913 176 176 176
4.736560456725098 3.9929785681057215 -9.503206149698736 178 178 178
4.733021422890557 4.001897720050055 -9.530084874664336 182 182 182
4.729700674361671 4.01077330034162 -9.557107705095117 185 185 185
4.727140865073499 4.019470734388156 -9.584539484221146 188 188 188
4.724575630278605 4.028181157610161 -9.612010035424872 191 191 191
4.722008612059959 4.036903690898676 -9.639521221974897 194 194 194
4.718899718808061 4.045771924061372 -9.66680820846689 196 196 196
4.7171452299977155 4.05431705942758 -9.694801696475777 199 199 199
4.71603321875513 4.0627162881517656 -9.723156498331043 199 199 199
4.166679175199552 4.206017261213643 -9.48017482801383 199 199 199
4.703593931980359 4.0820628607933624 -9.774933161573715 199 199 199
4.691234307273019 4.093254799415805 -9.79781055498026 199 199 199
4.687412168385144 4.102360584473846 -9.824965267649894 199 199 199
4.688369851091776 4.110309242841728 -9.854553229926637 199 199 199
4.683840466614734 4.119611272371662 -9.881436947635768 199 199 199
4.67930295518399 4.128925578468305 -9.908353200841358 199 199 199
4.6747627657291995 4.138250852908792 -9.935304802136267 199 199 199
1.6826359508992814 4.879515200819789 -8.472276489617823 199 199 199
1.8113337577722604 4.855380873336065 -8.562770111753647 199 199 199
1.8080465585329066 4.863226633737996 -8.586175541170805 200 200 200
1.5496150498644985 4.932558054094441 -8.478695311522719 200 200 200
1.8334535200147855 4.871254321371476 -8.649545941871063 200 200 200
1.8346476452225677 4.878066221023415 -8.675414102153475 200 200 200
1.8358438486481963 4.884890989862999 -8.701330889563243 200 200 200
1.8370420545860613 4.891728683573297 -8.727296398446777 200 200 200
1.8382421873305574 4.898579357837389 -8.753310723150483 200 200 200
1.83944598117716 4.905442636904317 -8.779374903413922 200 200 200
1.8406515472647782 4.9123190102113155 -8.80548809212145 200 200 200
1.8312851430927894 4.921719708001119 -8.826094938080423 200 200 200
1.8321837236222938 4.928691395971976 -8.85212654602035 201 201 201
1.8330862112971311 4.935675507775674 -8.878207702894187 201 201 201
4.744534533694921 4.255243865519576 -10.447087136412579 201 201 201
4.711438307789653 4.271542990721315 -10.459718231227221 201 201 201
4.699589020327738 4.282828392591975 -10.48362738384197 201 201 201
4.699607833954776 4.291330830298958 -10.51389882848754 201 201 201
4.699625527237737 4.29984848980353 -10.544222886396184 201 201 201
4.611832453160124 4.328928072908102 -10.527370170687055 201 201 201
4.611966097807176 4.337409940034625 -10.55772578546311 201 201 201
4.612098322442121 4.345907249370914 -10.588134386956767 201 201 201
4.612232630354317 4.354419223893645 -10.618598011405055 201 201 201
4.612365360534389 4.362946756632551 -10.649114819125966 201 201 201
4.612501796305979 4.371488661171494 -10.679687829095126 201 201 201
4.612634708705149 4.380046655126152 -10.71031324598107 201 201 201
4.612769376323936 4.38861955556058 -10.740994094656068 202 202 202
4.718174009989635 4.372949497790007 -10.829680438124296 202 202 202
4.647608342220277 4.397860736788843 -10.82160533021197 202 202 202
4.648709517463686 4.406273464773396 -10.853040743065318 202 202 202
4.649813900855863 4.414701830297702 -10.884536179159952 202 202 202
4.6509178471594375 4.423146714790848 -10.916089779158366 202 202 202
4.652026592382041 4.431606966638622 -10.94770462100269 202 202 202
4.653136492863505 4.44008346611005 -10.97937884338987 202 202 202
4.65424745870342 4.448576279328781 -11.011112558356263 202 202 202
4.655361168995256 4.457085071146103 -11.04290687443569 202 202 202
4.656477529107004 4.465609911165862 -11.074761909561156 203 203 203
4.710200802513372 4.462266081855699 -11.136480548434992 202 202 203
4.711059953578058 4.470906316045813 -11.16839363710946 202 202 204
4.711920092718387 4.479562920826372 -11.200366314675101 202 202 204
4.712781130033951 4.488235962321029 -11.232398693168271 202 202 204
4.713644735155017 4.496925112341451 -11.26449189291609 202 202 204
4.7145090554961 4.505630833643405 -11.296645021595257 202 202 204
4.715375757533067 4.514352800358687 -11.328859203463995 202 202 204
4.7162429918348305 4.523091472922932 -11.361133542267899 202 202 204
4.71711417494474 4.531846138116343 -11.393470182349247 202 202 204
4.717985704209827 4.540617646046279 -11.425867211300684 202 202 204
4.718859239797162 4.549405675484793 -11.458325761242627 202 202 204
4.719734687074734 4.558210296035734 -11.490845950108083 202 202 204
4.720610204497456 4.56703196233441 -11.523426871814902 202 202 204
4.721487447500799 4.575870356633072 -11.556069664380157 202 202 204
4.722368065211427 4.584725165824224 -11.588775473683114 202 202 204
4.7232502160842555 4.593596844543182 -11.621543393641623 202 202 204
4.724132064882998 4.602485842784998 -11.654372510311333 202 202 204
4.748292138162901 4.606315838532262 -11.701101956942857 202 202 204
4.748118218034067 4.61548015510316 -11.733463807963727 202 202 204
4.747945602998106 4.624660609091621 -11.765884852800188 203 203 205
4.747772468859135 4.6338576423722575 -11.798364163749037 203 203 205
4.74760046316662 4.643070942997634 -11.830902888655093 203 203 205
4.747426033738 4.652301323953058 -11.863499052213392 203 203 205
4.747252559263821 4.661548099860271 -11.896154845939417 203 203 205
4.747078221856993 4.670811707953623 -11.92886933426776 203 203 205
4.9991589833366366 4.626036503903618 -12.115001200819389 203 203 205
5.005446284442057 4.634072192016921 -12.152201594139575 203 203 204
5.007949742775288 4.642938280212932 -12.187171202553571 203 203 203
5.00962197339855 4.652000918487941 -12.221701018243134 203 203 203
5.030715902830151 4.656957703385874 -12.268237440514348 203 203 203
5.063570103780989 4.659460096283734 -12.322157230330728 203 203 203
5.129550300607084 4.655008110813537 -12.396728723460244 203 203 203
5.184335870076769 4.652998511260325 -12.464649206485433 203 203 203
5.23454508073698 4.652022483156745 -12.529975709912808 203 203 203
5.238177585427404 4.660892304143295 -12.566505658131533 203 203 204
5.2505691509474826 4.667948530723649 -12.608586108800193 203 203 205
5.2414621616936845 4.679527754869657 -12.637298072119723 203 203 205
5.240619355881689 4.689392818540695 -12.671236154213751 203 203 205
5.253689922279864 4.696380658577709 -12.714003726057786 203 203 205
5.253028464197255 4.706249115885758 -12.748202369695914 203 203 205
5.246699713710899 4.7173083497204376 -12.778871420665705 203 203 205
5.242326979037461 4.727975429791129 -12.810825671018591 203 203 205
5.23626422039468 4.739004595248097 -12.841752231831556 203 203 205
8.125806590390923 4.177278288810598 -14.80288502462897 199 199 201
7.923567118771644 4.229832858713353 -14.712721027897537 197 197 199
3.1518864134355447 5.274850356955611 -11.891821080733116 212 212 213
3.157424467890161 5.282713644347163 -11.927381548567823 213 213 213
3.1481333732954253 5.29355181817543 -11.953205110521822 213 213 213
3.1298988382496664 5.306173627271917 -11.97311895278981 213 213 213
3.13401812937955 5.314365956217483 -12.007905875869426 213 213 213
3.138144919953852 5.322577965244491 -12.04277308278958 213 213 213
3.1422824199027 5.330809093101548 -12.077722975379626 213 213 213
3.1304905270881154 5.3421926581631265 -12.102059967538747 213 213 213
3.178729035424217 5.341812156114187 -12.1668046024877 213 213 213
3.183611119728185 5.34997615169617 -12.202535942964808 213 213 213
3.188503609959569 5.358160389160029 -12.238353548342168 213 213 213
3.193408022760226 5.366364652843652 -12.274258729605272 213 213 213
3.1983258684632085 5.374588731725181 -12.310252805601795 213 213 213
3.2032553307586347 5.382833061878906 -12.346334838800786 213 213 213
3.208196258235285 5.391097754670977 -12.382505017895063 213 213 213
3.213150156494616 5.399382602559731 -12.41876466762896 213 213 213
3.214791099536971 5.4083260756241485 -12.452827706298471 213 213 213
3.2185845154331734 5.416876874223777 -12.488443284785898 213 213 213
3.2015937876072473 5.429417107208867 -12.509771247653315 213 213 213
3.1749033724397746 5.443804087738 -12.524377762192525 213 213 213
3.178017866997938 5.452522198983239 -12.559658237663754 213 213 213
3.1811366069087867 5.461260584043121 -12.595016650181577 213 213 213
3.184262761095247 5.470018711827906 -12.630455452679644 213 213 213
3.187397841467572 5.478796370155677 -12.665975962040097 213 213 213
3.190540067991478 5.487593968419247 -12.701577195524319 213 213 213
3.2290202960288914 5.4897962025133555 -12.762138223286847 213 213 213
3.2531268780672358 5.494740874961799 -12.812759606305484 213 213 213
3.236829202735644 5.507251878445424 -12.834933237480262 213 213 213
3.2408714992447147 5.515987662851055 -12.871547890196013 213 213 213
3.244925068516593 5.5247439514228525 -12.908250928604165 213 213 213
3.2489881257853925 5.533521157033817 -12.945041375862765 213 213 213
3.275792816256346 5.538135256434584 -12.998183861757688 213 213 213
3.285444024418055 5.54594457016357 -13.039188325127386 213 213 213
3.287771171639512 5.555123010502071 -13.075027473734107 213 213 213
3.3089322493075346 5.560886173360801 -13.124524428003825 213 213 213
3.3126520573082745 5.569863654185822 -13.161556980087319 213 213 213
3.3005823050463357 5.581727847784011 -13.187222975650982 213 213 213
3.304872856582686 5.590639179666512 -13.224802270488578 213 213 213
3.309174591933936 5.599571980998295 -13.262473262934122 213 213 213
3.3036363863376317 5.61029721385896 -13.293037408359048 213 213 213
3.317807754344545 5.617503031207511 -13.338088748626365 213 213 213
3.34943967175014 5.621623427687716 -13.396089433678048 213 213 213
3.3539096982790357 5.630635815670303 -13.434274138001355 213 213 213
3.36855885735696 5.637864549361355 -13.480061685460278 213 213 213
3.3728843143794425 5.646956275472288 -13.518330524286668 213 213 213
3.377664144805238 5.655991857090129 -13.557022239959824 213 213 213
3.3915260556138938 5.663454082275265 -13.602561668406286 213 213 213
3.3959615327688972 5.672604364559575 -13.641189562385756 213 213 213
3.4004064619730263 5.681777390043527 -13.679911312147247 213 213 213
3.404860687083466 5.690973273573457 -13.718727112280227 213 213 213
3.408856323243683 5.7002733952229745 -13.757285342407773 213 213 213
3.4138060018527936 5.7094324112835935 -13.796648882886455 213 213 213
3.418295161643384 5.718696185062697 -13.83575405734836 213 213 213
3.4128799072533527 5.729689129010998 -13.8674390019585 213 213 213
3.417330596132231 5.739003695460691 -13.906672146582732 213 213 213
3.4217913515436007 5.748341453004558 -13.946001582269158 213 213 213
3.4299482969886457 5.757074355858142 -13.988244028965347 213 213 213
3.4307487815471904 5.767085933940484 -14.024955003191566 212 212 212
3.4352435325799173 5.776493172291181 -14.064578184554003 213 213 213
3.443324595721326 5.78532058216636 -14.10705284370864 213 213 213
3.4475156658199007 5.794831502880712 -14.14662873878497 213 213 213
3.4495314894200875 5.804732051635984 -14.184610051727883 213 213 213
3.454193564448045 5.814213289000248 -14.224725742833833 213 213 213
3.45886889165592 5.82371807392778 -14.264943358159318 213 213 213
3.483267585452617 5.829976754226766 -14.320639314988934 212 212 212
3.488375314304774 5.839473050456522 -14.36141922628846 212 212 212
3.493494918441111 5.8489939069854895 -14.402302777732807 212 212 212
3.477683470919636 5.861977850457672 -14.426825042576635 212 212 212
3.482416155076592 5.871603322805269 -14.467550571082576 212 212 212
3.487161053615764 5.881253106038296 -14.50837931714005 212 212 212
3.491917991467929 5.890927328923867 -14.54931149892513 212 212 212
3.496688362253333 5.900625866284871 -14.590348580736208 212 212 212
3.5186773116728727 5.90757353304196 -14.64519354346671 212 212 212
3.523747882362872 5.917287030356823 -14.686695187260895 212 212 212
3.528830759865196 5.927025670432867 -14.728303134483895 212 212 212
3.5158880796656855 5.939667799861027 -14.755540357818639 212 212 212
3.5207182483122317 5.949490628459954 -14.797101517275845 211 211 211
3.5301277542633027 5.958615142382455 -14.842453344280948 211 211 211
3.5350385989861257 5.968482115926752 -14.8842820856113 211 211 211
3.5399644368209473 5.978374056122098 -14.926220184762467 211 211 211
3.5449004150197725 5.988291832687137 -14.968264086163629 211 211 211
3.5498510172657616 5.998234847358222 -15.010417805324337 211 211 211
3.61537727529991 5.99878791699864 -15.102171744191448 211 211 211
3.6346116982398367 6.00660977537908 -15.156352108716096 211 211 211
3.6395954681202323 6.0166750717419 -15.198986267253648 211 211 211
3.644589876135185 6.026766738213691 -15.241728808772077 211 211 211
3.580213559844229 6.047507118945293 -15.227297613126066 211 211 211
3.5847284524008747 6.057686920324198 -15.26969662651052 211 211 211
3.5892546108177386 6.067892630106575 -15.31220324058689 211 211 211
3.5937903149941475 6.078124613602804 -15.354816397925664 211 211 211
3.675543876624644 6.076746802262187 -15.461936879579138 211 211 211
3.6807276319957625 6.086983555524737 -15.505454988147102 211 211 211
3.6076786799222087 6.108945745362129 -15.483486558912709 211 211 211
3.6161147080677556 6.118708884837098 -15.529776269001973 211 211 211
3.6077822558613963 6.1309917225746675 -15.562052491680367 211 211 211
3.6203333360893684 6.140202769343414 -15.612016842943804 211 211 211
3.6256567155903854 6.15051499839531 -15.65599475919766 210 210 210
3.630722456081174 6.160894345421779 -15.69985840725655 210 210 210
3.635990558681197 6.171273327745062 -15.743998042023051 210 210 210
3.6517081189219933 6.180163849122221 -15.797161018725685 210 210 210
3.6566918115677445 6.1906494369368135 -15.841290171439823 210 210 210
3.5995569038838036 6.210112078840008 -15.832236130416096 210 210 210
3.6040406732887655 6.2206900135967755 -15.87600877494068 210 210 210
3.6085365306030357 6.231295051842626 -15.91989439782946 210 210 210
3.613041253278885 6.241927764109474 -15.963890612977501 210 210 210
3.617559206709458 6.25258763913848 -16.008001583310616 210 210 210
3.760250412673411 6.243799683223972 -16.17226102588752 210 210 210
3.743980944245372 6.257520948483884 -16.198778563433056 210 210 210
3.750994660432683 6.267992780969453 -16.24564039791787 210 210 210
3.756665107187119 6.278684136051641 -16.291442541112836 210 210 210
3.7623482645480317 6.289404836196124 -16.33736648984835 209 209 209
3.768048445860962 6.300154408426181 -16.383416471913385 210 210 210
3.7743805793919996 6.310848602756255 -16.430135382896847 210 210 210
3.7794945023872253 6.3217414251629895 -16.475891634989402 210 210 210
3.7852399517565165 6.33257918288704 -16.522317346698934 209 209 209
3.796610417741795 6.342687391925206 -16.573855445977735 209 209 209
3.801839901759166 6.353661690865344 -16.62005988000113 210 210 210
3.8096461477134533 6.364321781007924 -16.668677355872866 209 209 209
3.8127049658300156 6.375649943900725 -16.713166260912416 209 209 209
3.8210162798764524 6.386309288119593 -16.76247314633794 209 209 209
3.8267229678998813 6.397348328763296 -16.80956176821551 209 209 209
3.8328410724062074 6.408365520217651 -16.857136404232598 209 209 209
3.834751070398153 6.419966353619101 -16.901021122349466 209 209 209
3.841099289798642 6.431016759213017 -16.94902922276451 209 209 209
3.850460617141545 6.441710071048692 -16.99989570811296 209 209 209
3.856366028023584 6.452886402742749 -17.047745011965198 209 209 209
3.8620747683920165 6.464121003194573 -17.095532109656197 209 209 209
3.868226810701011 6.475331898669735 -17.143842310542873 209 209 209
3.8741832070518063 6.486601209180546 -17.192092229505434 209 209 209
3.8801541710292753 6.497902098316229 -17.24047444400385 209 209 209
3.8817288082771846 6.50978919048071 -17.284917944804718 209 209 209
3.8869576003846094 6.521247223182916 -17.332842213665337 209 209 209
3.8981713871127486 6.531993491818711 -17.386435390411496 209 209 209
3.904208673562434 6.5434210720832775 -17.43535915993627 209 209 209
3.9102652709352768 6.554880341618027 -17.484422118035415 209 209 209
3.9163365346737047 6.566372017013139 -17.53362044968549 209 209 209
3.9160649182546896 6.578670415027264 -17.576997280852567 209 209 209
3.9164553607574684 6.590914687385365 -17.62108874885873 209 209 209
3.9229377685868396 6.60245220344504 -17.671013514077142 209 209 209
3.9294390135546227 6.6140226571136465 -17.721081259379705 209 209 209
3.9359559298922946 6.625626577160796 -17.77128952790167 209 209 209
3.9424941141616294 6.6372634466371325 -17.82164414931891 209 209 209
3.949050397439705 6.648933796632394 -17.872142670697784 209 209 209
3.9556245336832925 6.660637808116572 -17.922785398664104 209 209 209
3.9622191839568686 6.672375323540567 -17.973575419058683 209 209 209
3.9718977634820094 6.683791840920482 -18.027449269415555 209 209 209
3.994119691072476 6.693804943910246 -18.093518123543078 209 209 209
3.984501181202269 6.707518728829947 -18.129122441297866 209 209 209
3.9908297472697285 6.71943305775465 -18.180176840747837 209 209 209
4.013417484361226 6.729545142879903 -18.247099049111647 209 209 209
4.015584515808394 6.742010658858615 -18.294411893620264 209 209 209
4.022275030533233 6.754001613569535 -18.346234828941775 209 209 209
4.0289840720158585 6.76602753390101 -18.398207533284733 209 209 209
4.035712824108892 6.778088448964444 -18.45033173236572 209 209 209
4.042461026574307 6.790184550170413 -18.502607750500502 209 209 209
4.049226982969432 6.802316185428333 -18.555034500776316 209 209 209
4.056016176297626 6.814482921313463 -18.60761795438865 209 209 209
4.062822599925077 6.826685576391819 -18.66035279270468 209 209 209
4.069650292764496 6.838923879537826 -18.713243585519088 209 209 209
4.068099776914542 6.852090046470419 -18.757954929919816 209 209 209
4.085628007372248 6.863269818451202 -18.821742490134284 209 209 209
4.090252582576518 6.8758552592451405 -18.872849359956042 209 209 209
4.102338858100527 6.887699223396345 -18.931542878203665 209 209 209
4.109357086144215 6.900113234747509 -18.985319795056377 209 209 209
4.116393334992241 6.91256438357879 -19.03925351359607 209 209 209
3.937214415566822 6.944050468292682 -18.905741157105687 209 209 209
3.944339461439391 6.95643990447439 -18.95957701861935 209 209 209
3.9514849084391432 6.96886652707852 -19.013573117528715 210 210 210
3.9586504821332538 6.981330537956221 -19.067729795839526 210 210 210
3.9658401504604264 6.993831718184797 -19.122051711796225 209 209 209
3.9730507996997444 7.0063705582517475 -19.176536343670914 210 210 210
3.9802821506867767 7.018947263488406 -19.231184039365964 210 210 210
3.9875367430415887 7.031561765670612 -19.28599803606955 209 209 209
3.9948128803215033 7.044214412707776 -19.340977246868903 209 209 209
4.00210887239265 7.056905547869061 -19.39612057698905 209 209 209
4.001631382840004 7.070374911365961 -19.443380780936877 209 209 209
4.008659303532039 7.083166933671299 -19.49851567488708 210 210 210
4.01570975427458 7.095997276111076 -19.55381775630893 210 210 210
4.022782446439996 7.108866150977022 -19.609287384898117 210 210 210
4.029875693048821 7.12177389921817 -19.66492346194856 210 210 210
4.0463629648327775 7.133865095650127 -19.730526866181137 210 210 210
4.053819336238846 7.14682880768061 -19.78685958990848 210 210 210
4.061294656498557 7.15983257403152 -19.84336076302715 210 210 210
4.068795601931095 7.172875983429146 -19.9000380706559 210 210 210
4.073873254634392 7.18617561323906 -19.954306343933876 210 210 210
4.083866193655314 7.199083244699135 -20.013915271597547 210 210 210
-0.12298306093025868 8.445813481656774 -18.684519710750614 213 213 213
-0.11840973194676696 8.458506804214068 -18.735940128185398 213 213 213
-0.10560106993132301 8.471029749590256 -18.79803882261177 213 213 213
-0.10031262925618556 8.483792799726462 -18.850687154052473 213 213 213
-0.09500797081338419 8.496597013094553 -18.903504137372643 213 213 213
-0.08968611105471247 8.509442566134073 -18.95649174791371 213 213 213
-0.08362974781702182 8.52231388830102 -19.010577470697402 213 213 213
-0.07852084839624673 8.535248588669718 -19.063590398294295 213 213 213
-0.07339624222065666 8.548224828131064 -19.1167726146089 213 213 213
-0.0682549520508493 8.561242787764856 -19.17012610284486 213 213 213
-0.056185676713028876 8.574175488534209 -19.23266928239034 213 213 213
-0.043845704484041015 8.587158347248627 -19.2957618073779 213 213 213
-0.037553535752912204 8.600297160912653 -19.351122185326677 213 213 213
-0.0312423913248292 8.613480508453545 -19.406666984545005 214 214 214
-0.024907584682503092 8.626708542278916 -19.462403168831198 214 214 214
-0.018551936187630957 8.639981537104344 -19.518327850865028 214 214 214
-0.01217451749401377 8.65329970997162 -19.574443074782184 214 214 214
-0.005776894136713118 8.666663312504841 -19.630747590529232 213 213 213
0.0006455857031522072 8.680072522633031 -19.687248405146605 213 213 213
0.007087623554638434 8.693527638053435 -19.74393931746944 213 213 213
0.016196762138243948 8.707004336024601 -19.804361565553023 213 213 213
0.07037711180887651 8.720156199717767 -19.92538652707378 213 213 213
0.040377412945836966 8.734067980856146 -19.93376811475948 214 214 214
0.08449777008958659 8.747477892472181 -20.041926453757423 214 214 214
0.09159456477765904 8.761210902273394 -20.100503090016286 214 214 214
0.09871725913320883 8.774992351825212 -20.159287529364658 214 214 214
0.07503718205424903 8.788936089597186 -20.17644217621575 214 214 214
0.08378394446506121 8.80278190695427 -20.237680948988054 214 214 214
0.09198498818139456 8.816680866114208 -20.298360998759218 214 214 214
0.10143411425733273 8.830630083714745 -20.360930001266176 214 214 214
0.08483234955425356 8.844630854455666 -20.387986497139185 214 214 214
0.09211598204372162 8.858661073506855 -20.44787640598238 214 214 214
0.09942560285167978 8.872741466824063 -20.507980409568194 214 214 214
0.10676084764489069 8.886872302382086 -20.568298961938716 214 214 214
0.11412256906394358 8.90105385290579 -20.628834201576048 214 214 214
0.12151161344062533 8.915286395760294 -20.68958827482448 214 214 214
0.12897130447777272 8.929570460407636 -20.750622428879524 214 214 214
0.1399438659581378 8.943929820992263 -20.816737897982275 214 214 214
0.1484370521134677 8.95832839208985 -20.879595518400425 214 214 214
0.1540273922665456 8.972755495442268 -20.938577049216395 214 214 214
0.16157774078031562 8.987250036493844 -21.000484151829745 214 214 214
0.16914102181564683 9.001797155745823 -21.062596011148692 214 214 214
0.17808987498681272 9.01641308818666 -21.126851221475192 214 214 214
0.18622110251332025 9.031074288071663 -21.19014712041336 214 214 214
0.19434603735122113 9.045789608665071 -21.253626920114996 214 214 214
0.200984082477758 9.060537633091027 -21.31518566554111 214 214 214
0.2076455640129291 9.075337708766675 -21.376961685970002 214 214 214
0.21433011762349619 9.090190103666819 -21.438955435443756 214 214 214
0.22103737897622633 9.105095085766255 -21.50116736800446 214 214 214
0.22700326161158824 9.120038746384896 -21.5625010268039 214 214 214
0.23691872916024792 9.135110831992158 -21.629703398630962 214 214 214
0.24515622029224549 9.15020769283706 -21.694694677756814 214 214 214
0.25342533546852675 9.165361381073069 -21.759931441023653 214 214 214
0.26288654644386167 9.180598408308727 -21.827098119419805 214 214 214
0.27080594515137957 9.195858143916034 -21.8922329298305 214 214 214
0.2790906424275903 9.211183042778414 -21.95810009069904 214 214 214
0.2874799645314754 9.226567766594853 -22.024323427299098 214 214 214
0.29590116966827296 9.242010927030886 -22.09079832741383 214 214 214
0.3045589943199767 9.257518511722399 -22.157826628338274 214 214 214
0.30983476999516224 9.272987757808373 -22.220084338710564 214 214 214
0.32323214814602075 9.288750018884748 -22.2945129101622 214 214 214
0.3338644708833307 9.304496155506673 -22.365095340767265 214 214 214
0.34454084675052243 9.32030707500532 -22.435968586303638 214 214 214
0.3551260727074297 9.336178738170622 -22.50693301789822 214 214 214
0.3694952582327167 9.352242156365671 -22.58376450007007 214 214 214
0.3605951985490963 9.367566473319004 -22.62608239987368 214 214 214
0.3646755468328715 9.383380464666349 -22.687928451360527 214 214 214
0.3692677431652678 9.399264311532917 -22.750724352595647 214 214 214
0.3725476361082132 9.415150535045042 -22.811730541503596 211 211 211
0.37561583929967224 9.431078178620487 -22.872594008584265 209 209 209
0.37942895401895704 9.447085126466815 -22.934760289614214 205 205 205
0.3828366510958876 9.463126608569361 -22.996493900842975 202 202 202
0.3862556943279145 9.479219136098244 -23.058424642552133 199 199 199
0.3896846159663765 9.495362888753593 -23.120551142824144 196 196 196
0.3939423673882869 9.511594411111798 -23.18412555897551 192 192 192
0.39807232237602186 9.527873137727806 -23.24769278310981 190 190 190
0.40221511620580763 9.544205411307523 -23.311468081761895 186 186 186
0.40637156681982756 9.560591530097224 -23.375453636655973 183 183 183
0.4105436334284862 9.577031852776322 -23.43965340830266 179 179 179
0.4153876285204108 9.593559267436682 -23.50508369299613 176 176 176
0.4202985291849375 9.61014545483939 -23.57081472607375 173 173 173
0.42603690267789673 9.62683030847464 -23.638030577833746 170 170 170
0.430858595930256 9.64352440323833 -23.704023233750938 167 167 167
0.4367627045654068 9.660333016964945 -23.771906432902615 166 166 166
0.4426700607606433 9.677200432525929 -23.840003257358667 163 163 163
0.44838599500568677 9.694115957394917 -23.90800892728605 160 160 160
0.4541220971068478 9.711091336763419 -23.976255151973454 156 156 156
0.4598768409590699 9.728126793253928 -24.044740632228688 153 153 153
0.46565436579117936 9.745222881816304 -24.113473013895984 149 149 149
0.4654403224767316 9.762015128113958 -24.17291467069291 146 146 146
0.47153807099368805 9.779243728143854 -24.2425572168927 143 143 143
0.47765775921814946 9.796534478879293 -24.31245091398752 140 140 140
0.4837989755008705 9.813887683097002 -24.382596274985957 136 136 136
0.4899624321116356 9.831303716767547 -24.452995613304076 134 134 134
0.4961488350114083 9.84878296050175 -24.523651250220144 129 129 129
-12.20123914268606 9.227963773928753 -4.916783544061604 0 0 0
-12.199318379194516 9.23171755823869 -4.932768757543265 0 0 0
-12.20853528318013 9.233728877592402 -4.927294267078576 0 0 0
1.7062689755495541 4.194109540278921 -5.981686891249732 0 0 0
1.6209986864370376 4.2241163839784015 -5.9719641006099025 0 0 0
1.6238913194539863 4.229122163232429 -5.9936530355059885 0 0 0
1.5321181599072276 4.260894978641863 -5.981336397931129 0 0 0
1.6105730539739924 4.2445600504300565 -6.03025634235481 0 0 0
1.677588345408608 4.231515665760353 -6.075265417015515 0 0 0
1.6797456362007126 4.236789959369458 -6.0969050616797436 0 0 0
1.6819048147396392 4.242074607420473 -6.118583992325398 0 0 0
1.5893481577248827 4.273969792781438 -6.105634280965631 0 0 0
1.6862385143944336 4.252672363999068 -6.162063663730384 0 0 0
1.6884119049673174 4.257985852414169 -6.183864211920998 0 0 0
1.9888403498744074 4.179873316919438 -6.316017333011269 0 0 0
1.99238762543794 4.1849332505288 -6.338789792555611 0 0 0
2.0396072136607297 4.177819784965724 -6.377870892829951 0 0 0
2.04002715568116 4.183791564124635 -6.399617764320275 0 0 0
2.040448872509059 4.18977287749323 -6.421400859575273 0 0 0
2.0408703333296816 4.195764315477199 -6.443219506487189 0 0 0
2.041293458553762 4.201765368875336 -6.46507451475229 0 0 0
2.0417162205209554 4.207776625773205 -6.486965208331718 0 0 0
2.0421405364875955 4.213797579289729 -6.508892400852842 0 0 0
2.042566349674477 4.219828271187215 -6.530856163075471 0 0 0
2.042989671003315 4.225869828914095 -6.552855060368776 0 0 0
2.0434163468751234 4.231920662223293 -6.5748914156818605 0 0 0
2.0438443527839545 4.237981356880246 -6.596964549044766 0 0 0
2.0626168125083977 4.239007833072862 -6.626168883290805 0 0 0
2.295557862539465 4.181244152543232 -6.738570513457198 0 0 0
2.2894409088692362 4.189223722070242 -6.758534652791395 0 0 0
2.2833196280399357 4.197210087520314 -6.778516996609577 0 0 0
2.277192046016024 4.205203797536836 -6.798516802044176 0 0 0
2.271060102134637 4.213204328997831 -6.818534855204861 0 0 0
1.9138100632475625 4.3169791903893895 -6.699995818486851 0 0 0
1.9124818191232178 4.323551191589363 -6.721490277227442 0 0 0
1.8831336734026771 4.337753786995712 -6.731883707627104 0 0 0
1.882197930637798 4.344226788460696 -6.753561643016562 0 0 0
1.8866664479644877 4.3492432469270845 -6.777434507114268 0 0 0
1.8871264613399932 4.355358986646628 -6.799746409837134 0 0 0
1.8875872464236676 4.361484998376611 -6.822095786414576 0 0 0
1.8880506873506402 4.367620799597296 -6.844483491750518 0 0 0
1.8885128439358323 4.373767481795137 -6.8669080302820795 0 0 0
1.8889775396515116 4.379924039328422 -6.889371043022852 0 0 0
1.8460258151402735 4.397769498842335 -6.894155942377285 0 0 0
1.8455479936860444 4.404183906362429 -6.916249716833272 0 0 0
1.845070263208573 4.4106081832838 -6.93837861052514 0 0 0
1.8445925716602551 4.4170423678885635 -6.960542688316044 0 0 0
1.8441129371195504 4.423487014620423 -6.98274121716617 0 0 0
1.8436332405671898 4.429941643279776 -7.004975055910542 0 0 0
1.8431534299555659 4.436406292148735 -7.027244269412315 0 0 0
1.84267152809474 4.442881512190816 -7.049548118735027 0 0 0
1.8421894112338428 4.449366826686603 -7.071887468610347 0 0 0
1.8286509632882044 4.459329158022442 -7.08877546911546 0 0 0
1.8289413772664416 4.465624743078129 -7.111494112122797 0 0 0
1.8292340054719323 4.471930442442463 -7.134251634242677 0 0 0
1.8263806514938867 4.47907860008694 -7.155712135988027 0 0 0
1.8273697578722126 4.485220699406073 -7.1788380323207 0 0 0
1.8214498503816396 4.493195349034055 -7.199053066849188 0 0 0
1.8231941743338775 4.499158646582848 -7.222573426650778 0 0 0
1.8249418578997654 4.505133022587387 -7.246137644082673 0 0 0
1.8266928301052983 4.511118529250553 -7.2697458075946315 0 0 0
1.8323370101742014 4.516095880482451 -7.295081038386936 0 0 0
1.833336269316559 4.522303679651182 -7.318453722221024 0 0 0
1.8257423140807356 4.5307680162656006 -7.338125366867786 0 0 0
1.8387389468582724 4.533865778708963 -7.366808549948711 0 0 0
1.8409632055766099 4.53979042301115 -7.390845433638989 0 0 0
1.84318956057127 4.545727074980407 -7.41492774936525 0 0 0
1.8454217375281101 4.551674800899001 -7.439057260005196 0 0 0
1.8476558625044608 4.557634643530689 -7.4632323874428375 0 0 0
1.8498975500529062 4.563605183157813 -7.487455743563153 0 0 0
1.852332287641112 4.569538513372448 -7.511810059346962 0 0 0
1.8547551881212536 4.57548777644252 -7.536204750578954 0 0 0
1.8571832276359075 4.581448615769675 -7.56064748780785 0 0 0
1.8596163257478637 4.5874210905171795 -7.585138371276708 0 0 0
1.8620544020199166 4.593405259848304 -7.6096775012285836 0 0 0
1.8644954903025255 4.599401666606109 -7.634264124968164 0 0 0
1.8496977943118083 4.6098259045385985 -7.6510751110285735 0 0 0
1.8500770033865153 4.6163687212450295 -7.674791320994295 0 0 0
1.8529924052036657 4.622275507898843 -7.699706093098399 0 0 0
1.8559154005178558 4.628193872103651 -7.724672258310536 0 0 0
1.8588421437760174 4.634124835742059 -7.749688203134815 0 0 0
1.8617763070392024 4.64006750453851 -7.774755757277644 0 0 0
1.8641760202193907 4.646159381268013 -7.799624557277223 0 0 0
1.8676627877895453 4.651989170898722 -7.82504440433884 0 0 0
1.870614931784686 4.65796829606953 -7.850265713467724 0 0 0
1.9089459337548176 4.655029536956428 -7.892045057955632 0 0 0
1.9123942184530165 4.660925570216856 -7.917647387953977 0 0 0
1.9158485257568985 4.666834336452103 -7.943303068748313 0 0 0
2.143639284750797 4.6163970359327156 -8.074669146476902 0 0 0
2.165904217766745 4.617708253616291 -8.109639230619447 0 0 0
2.1882637970336467 4.619025734307161 -8.144760413053906 0 0 0
2.210403204462427 4.620428375413696 -8.179883727666025 0 0 0
2.0055705112389437 4.678510492052771 -8.10688959489065 0 0 0
2.00022553377762 4.686728001696072 -8.128748720937793 0 0 0
1.9948767231599551 4.694953750515999 -8.150631841758896 0 0 0
2.0680147046311546 4.683694782928801 -8.210309693382754 0 0 0
2.0633787277239555 4.691790970236649 -8.232704156905012 0 0 0
2.058737491871472 4.699896445419048 -8.255124392058574 0 0 0
2.054090968684102 4.7080112293571545 -8.27757043422334 0 0 0
2.049439129772241 4.716135342932117 -8.300042318779214 0 0 0
5.001769258190198 3.996060758529402 -9.767297789021814 0 0 0
4.998118819090932 4.005191693274547 -9.794703423833738 0 0 0
4.994462458342339 4.014335113231615 -9.822145265051567 0 0 0
4.990800133360013 4.023491049722335 -9.849623365745156 2 2 2
4.987135481506603 4.0326586339925665 -9.87713959886302 5 5 5
4.983462935545525 4.041839250958038 -9.904691293553672 8 8 8
4.979786131262227 4.051032033024672 -9.932280324731178 11 11 11
4.976105021340706 4.060237014994391 -9.959906751362041 13 13 13
4.972419558464955 4.069454231669118 -9.987570632412767 16 16 16
1.9744885940576897 4.804715915411787 -8.512066336151317 19 19 19
1.9719954098279708 4.812394969218203 -8.535899796517963 22 22 22
1.9694982738719236 4.82008505931651 -8.559767008318369 24 24 24
1.9669971436051412 4.827786217028436 -8.583668024622387 27 27 27
1.9645522271411306 4.835483966962805 -8.607633510266124 30 30 30
1.9696261341888648 4.841384808306605 -8.635466685360505 33 33 33
1.969178480871416 4.848627033244689 -8.660536853402467 36 36 36
1.965328644513225 4.856696011471321 -8.683905415553465 38 38 38
1.9662530027215261 4.863632764787646 -8.709760854784989 41 41 41
